# .PCD v0.7 - Point Cloud Data file format
VERSION 0.7
FIELDS x y z
SIZE 4 4 4
TYPE F F F
COUNT 1 1 1
WIDTH 379
HEIGHT 1
VIEWPOINT 0 0 0 1 0 0 0
POINTS 379
DATA ascii
-0.028023209 -0.011098406 0.18346721
-0.030880911 0.010169886 0.17942265
-0.030408535 0.0075150705 0.17984378
-0.030282447 0.0026780097 0.17980403
-0.030006103 -0.0015382776 0.17998755
-0.030503359 -0.0058263429 0.18049443
-0.030714869 -0.0096576419 0.18099502
-0.030183077 -0.013469441 0.18016195
-0.031533785 -0.0029080259 0.17651469
-0.03210967 -0.005976805 0.17648235
-0.032326341 -0.0094649503 0.17585963
-0.031295404 -0.013118563 0.17626768
-0.025150895 0.011115778 0.18325496
-0.025119934 0.0074031265 0.18322212
-0.025331549 0.0034454218 0.18271783
-0.025433626 -0.0011681839 0.18209979
-0.025367158 -0.0060842517 0.18252328
-0.025199022 -0.0096607842 0.18353006
-0.028842483 0.01156423 0.18096164
-0.029163685 0.0074690338 0.1811015
-0.028936744 0.0038089568 0.18088749
-0.02869039 -0.00073296664 0.18067461
-0.027988264 -0.0051118359 0.18194449
-0.030723913 0.016418289 0.17627332
-0.030796511 0.011653657 0.17580289
-0.030864971 0.0076906993 0.17565057
-0.030557308 0.0037423789 0.17521986
-0.031201141 -0.00048854714 0.17530084
-0.031956349 -0.0045950925 0.17462391
-0.031059265 -0.013635913 0.1736128
-0.03123997 0.016511137 0.17090818
-0.030830638 0.011896724 0.17036468
-0.030967815 0.0079194773 0.17026532
-0.031083789 0.003946302 0.17014986
-0.031750049 -0.00069848914 0.17041463
-0.032086782 -0.0053261654 0.17043245
-0.03256207 -0.0092886658 0.17058799
-0.031440496 -0.013240058 0.16954193
-0.03245233 0.0033149146 0.16602251
-0.032534685 0.00015053859 0.16555735
-0.032453556 -0.0044788187 0.16526005
-0.03256825 -0.0091391066 0.16602808
-0.03179327 -0.012842522 0.16543424
-0.033354063 -0.0023787431 0.1623784
-0.018777099 -0.0018904563 0.1827096
-0.018718855 -0.0052208481 0.18249506
-0.019245999 -0.0098877242 0.18263096
-0.022421429 0.011720793 0.18376303
-0.021715727 0.0074117957 0.18348479
-0.021649208 0.0034572124 0.18250641
-0.021408422 -0.00051595346 0.18194503
-0.021638684 -0.0047377842 0.18219462
-0.030776076 0.012145822 0.16482383
-0.031104224 0.0081482446 0.16487148
-0.031754646 0.0051590977 0.16475645
-0.032165918 -0.0090455078 0.16297036
-0.031210747 -0.013361147 0.16248077
-0.030761056 0.01237076 0.1598075
-0.030727182 0.0083587216 0.15997559
-0.03149838 0.0042018159 0.15966445
-0.031942606 0.00037544663 0.15958163
-0.031917725 -0.0044499785 0.15915117
-0.030870745 -0.0089123389 0.15828562
-0.030431271 -0.01292873 0.15867069
-0.031273331 -0.0034653507 0.15516275
-0.016757319 0.0074766288 0.18266186
-0.016368322 0.0034494323 0.18286026
-0.016457472 -0.00041484853 0.18317962
-0.015701601 -0.0049788649 0.18295556
-0.030969705 0.012467936 0.15758908
-0.030160956 0.0084985411 0.15676209
-0.030637214 0.0058126771 0.15699556
-0.029935036 -0.012843085 0.15551001
-0.031030605 0.013125479 0.15377656
-0.030734692 0.0086347843 0.15348917
-0.030964596 0.0046184203 0.1534659
-0.03084949 0.00061484339 0.15317425
-0.030805094 -0.0042578061 0.15227336
-0.030745218 -0.0087286392 0.15262279
-0.029769864 -0.012728953 0.15165976
-0.031458173 0.013578871 0.14931726
-0.030947123 0.0085492041 0.14916271
-0.031090584 0.0048020175 0.14889994
-0.031192405 0.00097747485 0.148085
-0.03088362 -0.0032245123 0.14833441
-0.030877795 -0.0081215026 0.14777184
-0.030010495 -0.011946205 0.14814717
-0.008913313 -0.0019558812 0.18300453
-0.0088798488 -0.0033038747 0.18291059
-0.011370114 0.0034598866 0.18273264
-0.011899506 -0.00060536829 0.1833525
-0.011424116 -0.0046297018 0.18280607
-0.0307655 0.013425817 0.146258
-0.030485272 0.0092784585 0.14629841
-0.030539172 0.004933679 0.14565372
-0.03043781 -0.00043191263 0.14530504
-0.030434744 -0.0031149457 0.14516848
-0.030620251 -0.007141714 0.14511436
-0.029226372 -0.012731606 0.14507368
-0.030348608 0.013839738 0.1421718
-0.030096123 0.009139305 0.14173564
-0.030586533 0.0050839526 0.14192575
-0.030850463 0.0010423332 0.14193532
-0.030544741 -0.0029829203 0.14149049
-0.030701177 -0.0076880162 0.14138111
-0.030031698 -0.012386803 0.14061189
-0.030252049 0.014016017 0.13831359
-0.030133469 0.0052510481 0.13778248
-0.030804584 0.00094658317 0.13734999
-0.031131251 -0.0027913961 0.13628849
-0.031523976 -0.0075103743 0.13637298
-0.030886786 -0.011840899 0.13591361
-0.032013416 -0.0035499106 0.13252956
-0.032222219 -0.0066880123 0.13222721
-0.031932134 -0.010406939 0.13228297
-0.0069071734 0.0034990518 0.18187422
-0.0065117907 -0.00032369801 0.18250254
-0.030024545 0.014156163 0.13528121
-0.029981785 0.0093853045 0.13596201
-0.030102151 0.005367036 0.13490871
-0.03068907 0.0016543543 0.13472527
-0.029680917 -0.013532629 0.13363051
-0.029789226 0.014339932 0.13127732
-0.030172246 0.0094412258 0.13063008
-0.029962318 0.005563749 0.13002747
-0.030270593 0.0014911818 0.13007784
-0.031252742 -0.0021161325 0.13006717
-0.032052297 -0.0065902425 0.12922934
-0.030693617 -0.011852519 0.12904948
-0.029016547 -0.015232703 0.12950414
-0.0305639 0.0084108394 0.12682483
-0.030866351 -0.0031224207 0.12650681
-0.031223927 -0.0066616978 0.1252552
-0.031114595 -0.010135605 0.12471932
-0.029978974 -0.013277641 0.12527472
-0.0031086546 -0.00061434408 0.18267843
-0.029181771 0.014498984 0.127909
-0.029285841 0.011096966 0.12782687
-0.029441101 0.014660549 0.12427494
-0.030378751 0.010037546 0.12458518
-0.030342579 0.0057824976 0.12458742
-0.030108538 0.0017139792 0.12419334
-0.030343244 -0.0021517724 0.12364757
-0.030761616 -0.0057004164 0.12244385
-0.030454619 -0.011836285 0.12285161
-0.029114895 -0.014741251 0.12231994
-0.029907295 0.014855408 0.11983705
-0.030547807 0.010097124 0.11916983
-0.031227555 0.0059849084 0.11953753
-0.030170815 0.0019321784 0.11845464
-0.029953275 -0.0019886063 0.11832279
-0.030505044 -0.0062456615 0.11833388
-0.031054718 -0.010333261 0.11859506
-0.029821822 -0.014247521 0.11761415
-0.030881064 0.010247549 0.11557335
-0.031030195 0.0068303663 0.11553276
-0.030900938 -0.0070091938 0.11410064
-0.031279717 -0.0099902712 0.11322117
-0.030790024 -0.013370483 0.11369663
0.0030959335 -0.00065027917 0.18298551
-0.029546909 0.015688321 0.11666059
-0.02988456 0.012938529 0.1168105
-0.029572301 -0.0034381934 0.11574835
-0.030426009 0.01110355 0.11310166
-0.030674918 0.0060658697 0.11268824
-0.029811809 0.002164322 0.11232346
-0.029658131 -0.0019358911 0.11199397
-0.030612383 -0.005575432 0.11197656
-0.030972566 -0.011455182 0.11069608
-0.029608369 -0.014678226 0.11068112
-0.030122485 0.010956591 0.10825998
-0.030539274 0.0064403587 0.10825777
-0.029800875 0.0023503506 0.10742748
-0.02978703 -0.0019445108 0.10678685
-0.030812707 -0.0058586444 0.1069153
-0.031130128 -0.0099694198 0.10698801
-0.029817071 -0.013892045 0.10623366
-0.031040721 -0.0064168344 0.10315377
-0.030902982 -0.0091590257 0.10290241
0.0076337201 0.0034745289 0.18285722
0.0073251897 -0.00066147896 0.18285176
-0.030256033 0.01135563 0.10579687
-0.03035295 0.0065653753 0.1051566
-0.03015789 0.0024521661 0.10478991
-0.030088358 -0.00097846228 0.10456419
-0.029817939 -0.014699891 0.10366827
-0.030256135 0.01150394 0.10235274
-0.030915346 0.0067042434 0.10170412
-0.030885356 0.002580896 0.10147941
-0.030912178 -0.0015422482 0.10130382
-0.030870233 -0.0054477169 0.10051513
-0.030546172 -0.0099588409 0.10001671
-0.029780082 -0.013899922 0.099727452
-0.029960735 0.011540023 0.098334968
-0.030992541 0.0065355836 0.097308278
-0.031326465 0.0027181725 0.097913802
-0.0310234 -0.001403918 0.097451031
-0.030519605 -0.0055248113 0.096812844
-0.030316422 -0.0099839261 0.095924318
-0.030138373 -0.013426554 0.095603406
-0.028326426 0.012821706 0.094578266
-0.02927552 0.00838657 0.094401419
-0.029570052 0.0028452405 0.094394326
-0.028727226 -0.0012807855 0.093457043
-0.028878808 -0.0054325243 0.09339112
-0.02929054 -0.0088930242 0.093586564
-0.028737085 -0.014416458 0.092836201
-0.028404389 0.012696955 0.091043472
-0.029374633 0.0076574031 0.090638757
-0.029496176 0.0029989104 0.090341568
-0.028954728 -0.0011433302 0.089665234
-0.029051747 -0.005301639 0.089552283
-0.029587269 -0.0094613004 0.089827538
-0.029225349 -0.013611422 0.089309216
-0.029935803 0.0070553222 0.086112082
-0.03003839 0.0031732763 0.085818052
-0.02992768 -0.0009865599 0.08552146
-0.030223029 -0.0051193605 0.084583282
-0.030262981 -0.0092800725 0.084421456
-0.029861264 -0.012995396 0.084556401
-0.031076483 -0.0049985652 0.081326902
-0.031386599 -0.0091649424 0.081408978
-0.03108808 -0.011937181 0.081008911
-0.028074503 0.01282937 0.088049054
-0.028699432 0.01004329 0.08796829
-0.029096553 0.012978191 0.084435284
-0.029544711 0.0092768874 0.083988726
-0.030197842 0.0039781691 0.082979023
-0.030111654 -0.00088283507 0.082671165
-0.0293613 -0.01432404 0.082032502
-0.029255748 0.013008685 0.079090595
-0.029522436 0.0091993576 0.078824937
-0.029643161 0.0040478967 0.079112768
-0.030027203 -0.00044988663 0.078368962
-0.030907171 -0.0049195453 0.078904212
-0.031259384 -0.009069277 0.078269303
-0.030180113 -0.013431014 0.077844262
-0.029607756 -0.0019783436 0.074059784
-0.030522568 -0.0047858213 0.074760973
-0.03089256 -0.0089389849 0.073885441
-0.030793445 -0.012264707 0.073028207
-0.029210227 0.014021574 0.076487243
-0.028917126 0.0077447151 0.075925112
-0.02862479 0.0056586177 0.075561345
-0.028340833 0.013496026 0.072612882
-0.028202329 0.0092961499 0.07228899
-0.028132541 0.0050943736 0.072027504
-0.028478317 0.00088169926 0.072144151
-0.029249055 -0.0044397814 0.0708974
-0.030339973 -0.0088381665 0.070329726
-0.029653583 -0.014016742 0.071497679
-0.029185755 0.013677197 0.06827569
-0.02910161 0.0094695147 0.06800139
-0.028698258 0.0052738292 0.067433834
-0.029272659 0.0010470877 0.067765296
-0.029600756 -0.0035711941 0.067441642
-0.029891713 -0.0087382346 0.066852927
-0.02919163 -0.013150299 0.066439748
-0.029621806 0.0054017003 0.064182997
-0.02974483 0.0011844567 0.064100325
-0.030251894 -0.0030021938 0.063346207
-0.030185733 -0.0084085623 0.062885344
-0.029474974 -0.012146901 0.063227773
-0.028895209 0.013946711 0.062098682
-0.028919987 0.0097302692 0.061666787
-0.02917661 0.0055369586 0.060680032
-0.029575519 0.0013018369 0.060855031
-0.030169232 -0.0028949885 0.060182571
-0.029981937 -0.0064392118 0.060874462
-0.0293801 -0.012065566 0.060394704
-0.028502993 0.010623457 0.057179093
-0.028939707 0.0056645968 0.057358742
-0.028812289 0.0014352944 0.057042837
-0.028669493 -0.0027946944 0.056712568
-0.029222898 -0.00728777 0.056193173
-0.02912266 -0.010890828 0.056242824
-0.027709059 -0.014074375 0.055287898
-0.027720809 0.01410386 0.058683932
-0.028021472 0.014257816 0.055074275
-0.028175917 0.0098382505 0.054159462
-0.028330462 0.005806468 0.053672493
-0.028081911 0.0015689195 0.053241968
-0.027991841 -0.0026738115 0.052960694
-0.028243201 -0.0065503637 0.052497566
-0.028081298 -0.011436463 0.052430749
-0.028413126 0.01445651 0.050421476
-0.028549893 0.010213833 0.049907386
-0.028527312 0.0059611551 0.049689829
-0.028451953 0.0017112858 0.049422383
-0.028828485 -0.0025477523 0.049584448
-0.028861489 -0.0065791239 0.048981965
-0.027781758 -0.011034487 0.048197925
-0.029294832 0.014155617 0.046257913
-0.029389041 0.010393675 0.045475125
-0.029318588 0.0061366861 0.04521215
-0.029217534 0.0018715254 0.045182407
-0.029347811 -0.0023792412 0.044849455
-0.029552579 -0.0068063838 0.044579804
-0.028747661 -0.0107153 0.044153929
-0.030237488 0.010530423 0.04208982
-0.030217664 -0.0029635828 0.04145366
-0.030159626 -0.0065120878 0.041235387
-0.02931169 0.0019550058 0.042911053
-0.028239165 -0.01224067 0.041228354
-0.028797779 0.014537209 0.039067209
-0.029364467 0.010664863 0.038872421
-0.029480133 0.0063759726 0.03905338
-0.029389195 0.0021068971 0.038770497
-0.029683726 -0.0019462719 0.03826803
-0.029708402 -0.0064045088 0.037636101
-0.028325915 -0.010524228 0.037428379
-0.026580386 -0.013599452 0.037453234
-0.02900362 0.010128587 0.034522414
-0.029243588 0.0065485029 0.034593999
-0.029167363 0.0022678443 0.034324944
-0.029363751 -0.002274991 0.033459842
-0.029567447 -0.0059881345 0.033490241
-0.028570788 -0.0091421437 0.033223569
-0.027468171 -0.012053509 0.034141243
-0.028864197 0.011271833 0.032841265
-0.028902514 0.006643049 0.03213644
-0.028721657 0.0023579297 0.031764686
-0.028740253 -0.00050279638 0.031653166
-0.029055579 -0.0076537956 0.031637728
-0.028287344 -0.010815871 0.031593382
-0.029463325 0.015194383 0.02907151
-0.029732108 0.011073855 0.028882921
-0.029568724 0.0067843408 0.028527558
-0.029236743 0.00249865 0.0280056
-0.029050929 -0.0017929389 0.027628064
-0.029321399 -0.0060928427 0.027701437
-0.028869817 -0.010382326 0.027061939
-0.027519312 -0.01375977 0.027005672
-0.029986484 0.014108135 0.024988592
-0.029425571 0.011262381 0.024302721
-0.029407945 0.0069559063 0.024091303
-0.028708884 -0.0023571639 0.022976935
-0.029705439 -0.0063942717 0.022353232
-0.029761229 -0.0099800788 0.02224791
-0.028580854 0.011431917 0.020236194
-0.028432999 0.0071164095 0.01989466
-0.028166721 0.0027250762 0.021588922
-0.028344972 -0.0015452338 0.02013737
-0.029156582 -0.0048807045 0.01972121
-0.02910299 -0.010629281 0.019409716
-0.027036617 -0.013646974 0.019079328
-0.027384536 0.014417218 0.018092632
-0.027646832 0.010160699 0.015997589
-0.027759638 0.0079890424 0.016013741
-0.027231779 0.0028706004 0.017421782
-0.028051155 -0.0017638082 0.015869796
-0.029557075 -0.0059089167 0.015652955
-0.029418621 -0.0098314174 0.014989674
-0.027096443 -0.012936058 0.014410615
-0.029136863 -0.005584944 0.01173085
-0.029223664 -0.0084282989 0.010242283
-0.02742408 0.011958457 0.014550686
-0.027333958 0.0069839545 0.013911486
-0.026913337 0.0029991597 0.013853133
-0.027431438 -0.00037590554 0.013862252
-0.027805516 0.011866604 0.009703815
-0.027678303 0.007522475 0.0093806386
-0.027364101 0.0031844301 0.0088683963
-0.028048191 -0.0011792304 0.0093691945
-0.029025333 -0.0052057244 0.0088761449
-0.028720634 -0.010328376 0.0089198947
-0.026707292 -0.013342892 0.0079030991
-0.028990898 0.011890118 0.0046223402
-0.02834487 0.0080509894 0.0051615238
-0.027630739 0.0026096869 0.0047376156
-0.028319376 -0.0012963631 0.0043921471
-0.029094663 -0.0055182655 0.0039579272
-0.028675983 -0.0095000686 0.0033521652
-0.027319193 -0.012629347 0.0037435889
-0.028147511 0.0070329113 0.0032679439
-0.027818237 0.0037536044 0.0033339262
-0.027952502 0.00049984845 0.0027787089
-0.026249068 -0.01370073 0.0020506382
-0.028633323 0.012513233 -0.0010239482
