# .PCD v0.7 - Point Cloud Data file format
VERSION 0.7
FIELDS x y z
SIZE 4 4 4
TYPE F F F
COUNT 1 1 1
WIDTH 379
HEIGHT 1
VIEWPOINT 0 0 0 1 0 0 0
POINTS 379
DATA ascii
-0.032693744 -0.012948141 0.18346721
-0.03602773 0.011864867 0.17942265
-0.035476625 0.0087675825 0.17984378
-0.035329521 0.0031243446 0.17980403
-0.035007119 -0.0017946572 0.17998755
-0.035587251 -0.0067973998 0.18049443
-0.035834014 -0.011267249 0.18099502
-0.03521359 -0.015714347 0.18016195
-0.036789417 -0.0033926968 0.17651469
-0.037461281 -0.0069729392 0.17648235
-0.037714064 -0.011042442 0.17585963
-0.036511302 -0.01530499 0.17626768
-0.029342711 0.012968408 0.18325496
-0.029306591 0.0086369812 0.18322212
-0.029553473 0.0040196585 0.18271783
-0.029672563 -0.001362881 0.18209979
-0.029595017 -0.0070982934 0.18252328
-0.029398859 -0.011270914 0.18353006
-0.033649564 0.013491601 0.18096164
-0.034024298 0.0087138731 0.1811015
-0.033759534 0.0044437828 0.18088749
-0.033472121 -0.00085512776 0.18067461
-0.032652974 -0.0059638084 0.18194449
-0.035844564 0.019154672 0.17627332
-0.035929263 0.013595933 0.17580289
-0.036009133 0.0089724828 0.17565057
-0.035650194 0.0043661087 0.17521986
-0.036401331 -0.00056997169 0.17530084
-0.037282407 -0.0053609409 0.17462391
-0.036235809 -0.015908565 0.1736128
-0.036446631 0.019262992 0.17090818
-0.035969079 0.013879512 0.17036468
-0.036129117 0.0092393905 0.17026532
-0.03626442 0.0046040188 0.17014986
-0.037041724 -0.00081490399 0.17041463
-0.037434578 -0.0062138592 0.17043245
-0.03798908 -0.010836776 0.17058799
-0.036680579 -0.015446734 0.16954193
-0.037861049 0.0038674003 0.16602251
-0.037957132 0.00017562836 0.16555735
-0.03786248 -0.0052252882 0.16526005
-0.037996292 -0.010662291 0.16602808
-0.037092149 -0.014982942 0.16543424
-0.038913071 -0.0027752002 0.1623784
-0.021906614 -0.0022055323 0.1827096
-0.021838665 -0.0060909898 0.18249506
-0.022453666 -0.011535678 0.18263096
-0.026158333 0.013674259 0.18376303
-0.025335014 0.0086470954 0.18348479
-0.025257409 0.0040334142 0.18250641
-0.024976492 -0.00060194574 0.18194503
-0.02524513 -0.0055274148 0.18219462
-0.035905421 0.014170125 0.16482383
-0.036288261 0.0095062852 0.16487148
-0.037047088 0.0060189473 0.16475645
-0.037526906 -0.010553092 0.16297036
-0.036412537 -0.015588004 0.16248077
-0.035887897 0.014432553 0.1598075
-0.035848379 0.0097518414 0.15997559
-0.036748111 0.0049021184 0.15966445
-0.037266374 0.00043802106 0.15958163
-0.037237346 -0.0051916414 0.15915117
-0.036015868 -0.010397729 0.15828562
-0.035503149 -0.015083518 0.15867069
-0.036485553 -0.004042909 0.15516275
-0.019550204 0.0087227337 0.18266186
-0.019096375 0.004024338 0.18286026
-0.019200385 -0.00048398995 0.18317962
-0.018318534 -0.0058086757 0.18295556
-0.036131322 0.014545925 0.15758908
-0.035187781 0.0099149644 0.15676209
-0.035743415 0.0067814565 0.15699556
-0.034924209 -0.014983598 0.15551001
-0.036202371 0.015313059 0.15377656
-0.035857141 0.010073915 0.15348917
-0.036125362 0.005388157 0.1534659
-0.035991073 0.00071731728 0.15317425
-0.035939276 -0.0049674404 0.15227336
-0.03586942 -0.010183413 0.15262279
-0.034731507 -0.014850445 0.15165976
-0.036701202 0.015842017 0.14931726
-0.036104977 0.0099740718 0.14916271
-0.036272347 0.0056023537 0.14889994
-0.036391139 0.0011403873 0.148085
-0.036030889 -0.0037619309 0.14833441
-0.036024094 -0.0094750859 0.14777184
-0.035012245 -0.013937239 0.14814717
-0.010398865 -0.0022818616 0.18300453
-0.010359824 -0.0038545209 0.18291059
-0.013265133 0.0040365346 0.18273264
-0.013882756 -0.00070626306 0.1833525
-0.013328135 -0.0054013189 0.18280607
-0.035893083 0.015663452 0.146258
-0.035566151 0.010824868 0.14629841
-0.035629034 0.0057559586 0.14565372
-0.035510778 -0.00050389807 0.14530504
-0.035507202 -0.0036341031 0.14516848
-0.035723627 -0.0083319992 0.14511436
-0.034097433 -0.014853541 0.14507368
-0.035406709 0.016146362 0.1421718
-0.035112143 0.010662522 0.14173564
-0.035684288 0.0059312782 0.14192575
-0.035992205 0.0012160554 0.14193532
-0.035635531 -0.0034800735 0.14149049
-0.03581804 -0.0089693516 0.14138111
-0.035036981 -0.014451269 0.14061189
-0.035294056 0.01635202 0.13831359
-0.035155714 0.0061262227 0.13778248
-0.03593868 0.0011043469 0.13734999
-0.036319792 -0.0032566288 0.13628849
-0.036777973 -0.0087621026 0.13637298
-0.036034584 -0.013814382 0.13591361
-0.037348986 -0.0041415622 0.13252956
-0.03759259 -0.0078026806 0.13222721
-0.037254155 -0.012141429 0.13228297
-0.0080583692 0.0040822271 0.18187422
-0.0075970888 -0.00037764767 0.18250254
-0.035028636 0.016515523 0.13528121
-0.034978747 0.010949522 0.13596201
-0.035119176 0.006261542 0.13490871
-0.035803914 0.0019300799 0.13472527
-0.034627736 -0.015788067 0.13363051
-0.034754097 0.016729921 0.13127732
-0.035200953 0.011014763 0.13063008
-0.034956038 0.0064910403 0.13002747
-0.035315692 0.001739712 0.13007784
-0.036461532 -0.0024688211 0.13006717
-0.037394345 -0.0076886159 0.12922934
-0.035809219 -0.013827939 0.12904948
-0.033852637 -0.017771486 0.12950414
-0.035657883 0.0098126456 0.12682483
-0.036010742 -0.003642824 0.12650681
-0.036427915 -0.0077719805 0.1252552
-0.036300361 -0.011824872 0.12471932
-0.034975469 -0.01549058 0.12527472
-0.0036267638 -0.00071673474 0.18267843
-0.034045398 0.016915482 0.127909
-0.034166813 0.01294646 0.12782687
-0.034347951 0.017103974 0.12427494
-0.035441875 0.011710471 0.12458518
-0.035399675 0.0067462469 0.12458742
-0.035126626 0.0019996422 0.12419334
-0.03540045 -0.002510401 0.12364757
-0.035888553 -0.0066504856 0.12244385
-0.035530388 -0.013808999 0.12285161
-0.033967376 -0.017198127 0.12231994
-0.034891844 0.01733131 0.11983705
-0.035639107 0.011779977 0.11916983
-0.036432147 0.0069823931 0.11953753
-0.035199285 0.0022542081 0.11845464
-0.034945488 -0.0023200405 0.11832279
-0.035589218 -0.007286605 0.11833388
-0.036230505 -0.012055472 0.11859506
-0.034792125 -0.016622107 0.11761415
-0.036027908 0.011955474 0.11557335
-0.036201894 0.007968761 0.11553276
-0.036051095 -0.0081773922 0.11410064
-0.036493003 -0.011655316 0.11322117
-0.035921693 -0.015598897 0.11369663
0.0036119223 -0.00075865904 0.18298551
-0.034471393 0.01830304 0.11666059
-0.03486532 0.015094951 0.1168105
-0.034501016 -0.0040112254 0.11574835
-0.03549701 0.012954142 0.11310166
-0.035787404 0.0070768478 0.11268824
-0.034780443 0.0025250423 0.11232346
-0.034601152 -0.0022585397 0.11199397
-0.035714447 -0.0065046703 0.11197656
-0.03613466 -0.013364378 0.11069608
-0.034543097 -0.017124597 0.11068112
-0.035142899 0.012782689 0.10825998
-0.035629153 0.0075137517 0.10825777
-0.034767687 0.0027420758 0.10742748
-0.034751534 -0.0022685961 0.10678685
-0.035948157 -0.0068350849 0.1069153
-0.036318481 -0.01163099 0.10698801
-0.034786582 -0.016207386 0.10623366
-0.036214173 -0.0074863066 0.10315377
-0.036053479 -0.01068553 0.10290241
0.0089060068 0.0040536169 0.18285722
0.0085460544 -0.00077172543 0.18285176
-0.035298705 0.013248235 0.10579687
-0.035411775 0.0076596043 0.1051566
-0.035184205 0.0028608604 0.10478991
-0.035103083 -0.0011415393 0.10456419
-0.034787595 -0.017149873 0.10366827
-0.035298824 0.013421264 0.10235274
-0.036067903 0.0078216176 0.10170412
-0.036032915 0.0030110455 0.10147941
-0.036064208 -0.0017992896 0.10130382
-0.036015272 -0.0063556698 0.10051513
-0.0356372 -0.011618648 0.10001671
-0.034743428 -0.016216576 0.099727452
-0.03495419 0.013463359 0.098334968
-0.036157966 0.0076248473 0.097308278
-0.036547542 0.0031712013 0.097913802
-0.036193967 -0.0016379044 0.097451031
-0.035606205 -0.0064456132 0.096812844
-0.035369158 -0.011647914 0.095924318
-0.035161436 -0.015664313 0.095603406
-0.033047497 0.014958657 0.094578266
-0.034154773 0.0097843315 0.094401419
-0.034498394 0.0033194474 0.094394326
-0.033515096 -0.0014942497 0.093457043
-0.033691943 -0.0063379449 0.09339112
-0.034172297 -0.010375194 0.093586564
-0.033526599 -0.016819201 0.092836201
-0.033138454 0.014813114 0.091043472
-0.034270406 0.0089336373 0.090638757
-0.034412205 0.0034987289 0.090341568
-0.033780515 -0.0013338852 0.089665234
-0.033893704 -0.0061852452 0.089552283
-0.03451848 -0.011038184 0.089827538
-0.034096241 -0.015879992 0.089309216
-0.034925103 0.0082312096 0.086112082
-0.035044789 0.0037021558 0.085818052
-0.034915626 -0.0011509866 0.08552146
-0.035260201 -0.005972587 0.084583282
-0.035306811 -0.010826752 0.084421456
-0.03483814 -0.015161294 0.084556401
-0.036255896 -0.0058316593 0.081326902
-0.036617696 -0.010692433 0.081408978
-0.036269426 -0.013926711 0.081008911
-0.032753587 0.014967598 0.088049054
-0.033482671 0.01171717 0.08796829
-0.033945978 0.015141223 0.084435284
-0.03446883 0.010823036 0.083988726
-0.035230815 0.0046411972 0.082979023
-0.035130262 -0.0010299743 0.082671165
-0.034254849 -0.01671138 0.082032502
-0.034131706 0.015176799 0.079090595
-0.034442842 0.010732584 0.078824937
-0.034583688 0.0047225463 0.079112768
-0.035031736 -0.00052486773 0.078368962
-0.036058366 -0.0057394695 0.078904212
-0.036469281 -0.010580823 0.078269303
-0.035210133 -0.015669517 0.077844262
-0.034542382 -0.0023080674 0.074059784
-0.035609663 -0.0055834581 0.074760973
-0.036041319 -0.010428816 0.073885441
-0.035925686 -0.014308825 0.073028207
-0.034078598 0.016358502 0.076487243
-0.033736646 0.0090355016 0.075925112
-0.033395588 0.0066017206 0.075561345
-0.033064306 0.015745364 0.072612882
-0.032902718 0.010845508 0.07228899
-0.032821298 0.0059434357 0.072027504
-0.033224702 0.0010286492 0.072144151
-0.034123898 -0.0051797447 0.0708974
-0.035396636 -0.010311194 0.070329726
-0.034595847 -0.016352866 0.071497679
-0.034050047 0.01595673 0.06827569
-0.033951879 0.011047767 0.06800139
-0.0334813 0.0061528007 0.067433834
-0.034151435 0.0012216024 0.067765296
-0.034534216 -0.0041663931 0.067441642
-0.034873664 -0.010194607 0.066852927
-0.034056902 -0.015342016 0.066439748
-0.034558773 0.0063019837 0.064182997
-0.034702301 0.0013818662 0.064100325
-0.035293877 -0.0035025594 0.063346207
-0.035216689 -0.0098099895 0.062885344
-0.034387469 -0.014171384 0.063227773
-0.033711076 0.016271163 0.062098682
-0.033739984 0.01135198 0.061666787
-0.034039378 0.0064597852 0.060680032
-0.034504771 0.0015188097 0.060855031
-0.035197437 -0.0033774865 0.060182571
-0.034978926 -0.0075124134 0.060874462
-0.034276783 -0.014076494 0.060394704
-0.033253491 0.012394033 0.057179093
-0.033762991 0.0066086962 0.057358742
-0.033614337 0.0016745102 0.057042837
-0.033447742 -0.003260477 0.056712568
-0.03409338 -0.0085023977 0.056193173
-0.033976436 -0.012705967 0.056242824
-0.032327235 -0.016420104 0.055287898
-0.032340944 0.016454503 0.058683932
-0.032691717 0.016634118 0.055074275
-0.032871902 0.011477958 0.054159462
-0.033052206 0.0067742127 0.053672493
-0.032762229 0.0018304061 0.053241968
-0.032657146 -0.0031194468 0.052960694
-0.032950401 -0.0076420908 0.052497566
-0.032761514 -0.013342541 0.052430749
-0.033148646 0.016865928 0.050421476
-0.033308208 0.011916138 0.049907386
-0.033281863 0.0069546807 0.049689829
-0.033193946 0.0019965 0.049422383
-0.033633232 -0.0029723779 0.049584448
-0.033671737 -0.0076756445 0.048981965
-0.032412052 -0.012873568 0.048197925
-0.034177303 0.016514886 0.046257913
-0.034287214 0.012125954 0.045475125
-0.034205019 0.0071594673 0.04521215
-0.034087121 0.0021834462 0.045182407
-0.034239113 -0.0027757813 0.044849455
-0.034478009 -0.0079407804 0.044579804
-0.033538938 -0.012501184 0.044153929
-0.035277069 0.012285493 0.04208982
-0.035253942 -0.0034575132 0.04145366
-0.035186231 -0.0075974357 0.041235387
-0.034196973 0.0022808402 0.042911053
-0.032945693 -0.014280781 0.041228354
-0.03359741 0.016960077 0.039067209
-0.034258544 0.012442339 0.038872421
-0.034393489 0.007438635 0.03905338
-0.034287393 0.0024580467 0.038770497
-0.034631014 -0.0022706506 0.03826803
-0.034659803 -0.007471927 0.037636101
-0.033046901 -0.012278266 0.037428379
-0.031010449 -0.015866026 0.037453234
-0.033837557 0.011816684 0.034522414
-0.03411752 0.0076399199 0.034593999
-0.03402859 0.0026458181 0.034324944
-0.03425771 -0.0026541562 0.033459842
-0.034495354 -0.0069861566 0.033490241
-0.033332586 -0.010665834 0.033223569
-0.032046199 -0.014062427 0.034141243
-0.033674896 0.013150472 0.032841265
-0.033719599 0.0077502239 0.03213644
-0.033508599 0.0027509178 0.031764686
-0.033530295 -0.00058659579 0.031653166
-0.033898175 -0.0089294277 0.031637728
-0.0330019 -0.012618516 0.031593382
-0.034373879 0.017726779 0.02907151
-0.034687459 0.012919497 0.028882921
-0.034496844 0.0079150647 0.028527558
-0.034109533 0.0029150913 0.0280056
-0.033892751 -0.0020917621 0.027628064
-0.034208298 -0.0071083163 0.027701437
-0.033681452 -0.012112714 0.027061939
-0.032105863 -0.016053066 0.027005672
-0.034984231 0.016459491 0.024988592
-0.034329832 0.013139443 0.024302721
-0.034309268 0.0081152245 0.024091303
-0.033493698 -0.0027500247 0.022976935
-0.034656346 -0.0074599837 0.022353232
-0.034721434 -0.011643425 0.02224791
-0.033344328 0.013337236 0.020236194
-0.033171833 0.0083024781 0.01989466
-0.032861173 0.0031792554 0.021588922
-0.033069134 -0.0018027726 0.02013737
-0.034016013 -0.0056941551 0.01972121
-0.033953488 -0.012400828 0.019409716
-0.031542718 -0.01592147 0.019079328
-0.031948626 0.016820088 0.018092632
-0.032254636 0.011854149 0.015997589
-0.032386243 0.0093205497 0.016013741
-0.031770408 0.0033490337 0.017421782
-0.032726347 -0.0020577763 0.015869796
-0.034483254 -0.0068937358 0.015652955
-0.034321725 -0.011469986 0.014989674
-0.031612515 -0.015092067 0.014410615
-0.033993006 -0.0065157679 0.01173085
-0.034094274 -0.0098330155 0.010242283
-0.03199476 0.013951533 0.014550686
-0.031889617 0.0081479475 0.013911486
-0.031398892 0.0034990194 0.013853133
-0.032003343 -0.00043855645 0.013862252
-0.032439768 0.013844371 0.009703815
-0.032291353 0.0087762214 0.0093806386
-0.031924784 0.0037151682 0.0088683963
-0.03272289 -0.0013757687 0.0093691945
-0.033862889 -0.006073345 0.0088761449
-0.033507407 -0.012049772 0.0089198947
-0.031158507 -0.015566707 0.0079030991
-0.033822715 0.013871804 0.0046223402
-0.033069015 0.0093928203 0.0051615238
-0.032235861 0.0030446346 0.0047376156
-0.033039272 -0.0015124235 0.0043921471
-0.033943772 -0.0064379764 0.0039579272
-0.033455312 -0.011083413 0.0033521652
-0.031872392 -0.014734238 0.0037435889
-0.032838762 0.0082050636 0.0032679439
-0.03245461 0.0043792049 0.0033339262
-0.032611251 0.00058315654 0.0027787089
-0.030623913 -0.015984185 0.0020506382
-0.033405542 0.014598772 -0.0010239482
