# .PCD v0.7 - Point Cloud Data file format
VERSION 0.7
FIELDS x y z
SIZE 4 4 4
TYPE F F F
COUNT 1 1 1
WIDTH 558
HEIGHT 1
VIEWPOINT 0 0 0 1 0 0 0
POINTS 558
DATA ascii
0.027326191 -0.030394791 0.18093786
0.029337903 -0.026293028 0.18148881
0.029854406 -0.021836447 0.18013474
0.031676628 -0.016828526 0.17884707
0.029367279 -0.031699989 0.17812622
0.032282092 -0.027869061 0.17870438
0.031974349 -0.022861719 0.17710257
0.030594908 -0.031874686 0.17404228
0.03221941 -0.028352141 0.17388433
0.03283935 -0.024192702 0.17434904
0.024035117 -0.018517589 0.18227357
0.025073921 -0.015077974 0.18261948
0.027909048 -0.010085756 0.18208224
0.029629514 -0.0045257234 0.18194401
0.030473346 -0.00023445021 0.18257859
0.024540005 -0.024918657 0.18180981
0.026217638 -0.020295471 0.18127373
0.029272813 -0.016739814 0.18072584
0.031544339 -0.011708175 0.18004709
0.032315388 -0.0061847605 0.17983353
0.033451468 -0.0016619014 0.17920208
0.034082916 0.0030756043 0.17822656
0.032420687 -0.018112723 0.17600599
0.033264607 -0.01267301 0.17494047
0.0340349 -0.007144874 0.17471763
0.03452548 -0.0024993382 0.17392743
0.035060752 0.0016988292 0.17552835
0.032125868 -0.027398292 0.17121524
0.032395042 -0.023100048 0.17143556
0.033017155 -0.018612485 0.1710279
0.033669628 -0.013913308 0.17005455
0.034592673 -0.0089663425 0.16935134
0.029502299 -0.032383621 0.16746607
0.031716201 -0.028269097 0.16757154
0.033114288 -0.023862571 0.16711307
0.033650503 -0.019126952 0.16605276
0.034657799 -0.014751303 0.16560414
0.030592425 -0.032508679 0.16324699
0.032504424 -0.028860252 0.16269976
0.033324495 -0.024747372 0.16259599
0.034654692 -0.019690452 0.16313365
0.035451397 -0.016690463 0.16272867
0.03142241 -0.031958729 0.15927762
0.032240599 -0.030611303 0.15937054
0.023319513 -0.00054367539 0.18233836
0.025264448 0.0020220289 0.18270087
0.018938895 -0.022102758 0.1817334
0.020605823 -0.018178899 0.18260732
0.021582993 -0.012885697 0.18252283
0.023411479 -0.0090431161 0.18201536
0.025022937 -0.00419934 0.18169266
0.034919012 -0.0009625433 0.17072546
0.034617648 0.0028650938 0.17259845
0.034690894 -0.0060620727 0.16747278
0.034740236 -0.0027080942 0.1674535
0.034727938 0.0023542978 0.16691104
0.03492149 -0.013087501 0.16320601
0.03500282 -0.0088809449 0.16387147
0.034587957 -0.0034067053 0.16265485
0.034973372 0.0012357086 0.16276783
0.03248449 -0.022885978 0.15970552
0.03383233 -0.019518457 0.15982753
0.034061529 -0.014391556 0.15915155
0.034384482 -0.010002113 0.15940136
0.029495258 -0.032200485 0.15633798
0.031669736 -0.02867285 0.15636986
0.031911109 -0.024001874 0.15536413
0.032636758 -0.019822726 0.15518481
0.033071071 -0.016049117 0.1555711
0.030000543 -0.03182371 0.15187952
0.03094653 -0.029181501 0.15185326
0.031622425 -0.025749544 0.15198672
0.014863495 -0.01519991 0.18218777
0.016095584 -0.011057382 0.18217921
0.017636847 -0.0065922476 0.18270919
0.01961441 -0.0021648603 0.18237108
0.034031793 -0.0015824446 0.1599476
0.035297886 0.0020912662 0.16032997
0.033221498 -0.0078954343 0.15636045
0.033326499 -0.0035747224 0.15651983
0.035074577 0.0020106966 0.155709
0.032788478 -0.018311486 0.15296704
0.032239452 -0.01415191 0.15264666
0.032455813 -0.009966692 0.15340734
0.0278107 -0.033239961 0.14976716
0.031355631 -0.028725129 0.1494447
0.031891547 -0.024095368 0.14955425
0.032334045 -0.01946638 0.14867356
0.032192014 -0.015148159 0.14917347
0.028065298 -0.033058934 0.14638621
0.030638363 -0.029706653 0.14525071
0.031785157 -0.024757799 0.14483136
0.032391407 -0.02139304 0.14459449
0.010587112 -0.001912886 0.18307358
0.011647621 0.0010505007 0.18283969
0.011308044 -0.0087284585 0.18239525
0.012563421 -0.0044535445 0.18300623
0.014915532 7.7821314e-05 0.18258861
0.032191753 -0.0018468983 0.15347388
0.033558059 0.0014538402 0.1525709
0.031496339 -0.012280263 0.14977321
0.030966174 -0.0084117344 0.14964479
0.031877369 -0.0030876407 0.14915338
0.033518575 0.0021720203 0.14858359
0.031619586 -0.013965785 0.14605695
0.031727593 -0.0091792708 0.14522946
0.032739021 -0.004514074 0.14445078
0.033213053 -0.00016143266 0.14406905
0.028582124 -0.031801861 0.14255977
0.031442869 -0.023688156 0.1418753
0.031874176 -0.019112196 0.14237505
0.031994201 -0.014592132 0.14135453
0.032380085 -0.009677426 0.14034638
0.03331586 -0.0056289565 0.14022365
0.029371236 -0.029804412 0.13866055
0.030417405 -0.024343543 0.13765028
0.031225599 -0.01983007 0.1373226
0.032038741 -0.014789423 0.13765314
0.032895025 -0.011748707 0.13726211
0.034540944 -0.007325137 0.13694224
0.029712295 -0.030007599 0.13341001
0.030791957 -0.025247131 0.13272798
0.070252731 -0.0082616508 0.073010802
0.0056275162 -0.006383406 0.18234521
0.0078143273 -0.002810735 0.18292257
0.0081516635 -0.0094932616 0.18198591
0.033714361 0.0024183867 0.14234254
0.032697305 -0.0098975096 0.13847646
0.034116339 -0.0044954456 0.13866875
0.033835247 0.00075705908 0.13785765
0.031515323 -0.018981565 0.13480112
0.031973198 -0.01489922 0.13479254
0.033266149 -0.01008922 0.13484719
0.034171361 -0.0053619375 0.13397145
0.034377642 -0.0010848548 0.13367245
0.034204401 0.0030187666 0.13359043
0.028324159 -0.032361556 0.13117549
0.031030133 -0.023243077 0.1310336
0.031140074 -0.019871132 0.13102037
0.031761866 -0.015044478 0.1299285
0.032956395 -0.010626772 0.12956399
0.034281123 -0.0058082752 0.12963873
0.029599691 -0.030526314 0.12759015
0.031350631 -0.025289578 0.12708354
0.031461552 -0.02049369 0.12621436
0.032159209 -0.016225282 0.12670976
0.030160228 -0.029808696 0.12311405
0.031672239 -0.025661677 0.1226002
0.058845542 -0.016829673 0.078569233
0.060799204 -0.012703743 0.079708695
0.062117595 -0.0083570611 0.079455674
0.063934103 -0.0043611638 0.078973472
0.060190096 -0.017526247 0.075799763
0.063178755 -0.014471035 0.076932967
0.065593518 -0.0094948104 0.076979399
0.067023836 -0.0049674753 0.076459587
0.067447126 -0.00022832304 0.074877203
0.069300793 0.0045829304 0.074246705
0.065640941 -0.015641805 0.072862327
0.068861671 -0.011090556 0.072968304
0.070065409 -0.0062386245 0.07291162
0.070367835 -0.0014384836 0.071705639
0.070722483 0.0033363365 0.070870697
0.066845044 -0.01593918 0.068163216
0.069729485 -0.011920379 0.067474544
0.070223577 -0.0067073517 0.067436635
0.070334665 -0.0015448872 0.067709148
0.068098903 -0.015405573 0.06388849
0.070011579 -0.012162653 0.0627262
0.070367947 -0.0077576432 0.063893974
0.003963423 -0.00085687346 0.18289563
0.033906084 0.00073945895 0.13090992
0.033286877 -0.008940801 0.12709618
0.034051061 -0.0058377092 0.12662333
0.034370631 -0.00076411292 0.12718302
0.031375345 -0.019499075 0.12337565
0.032131243 -0.015243316 0.12391225
0.032832626 -0.010634155 0.12347841
0.033690885 -0.0058568367 0.12254405
0.034071364 -0.0014171358 0.12205425
0.028210629 -0.031238992 0.12031454
0.031513445 -0.025756273 0.11963111
0.031843323 -0.020712297 0.12019348
0.03181624 -0.015814407 0.11888188
0.032351729 -0.010995959 0.11864072
0.033591166 -0.0059792041 0.11864781
0.029309263 -0.031069228 0.11599106
0.031739943 -0.026043363 0.11599261
0.031915858 -0.021031074 0.11452162
0.032135721 -0.017668825 0.11457551
0.029673267 -0.031206112 0.1110816
0.031673722 -0.026298085 0.11074626
0.032900795 -0.02197298 0.1107921
0.047889471 -0.018194323 0.086820662
0.049709707 -0.014750604 0.085741222
0.051904853 -0.010082481 0.085225224
0.053390238 -0.0055368459 0.084745228
0.050134059 -0.019803667 0.083271801
0.052324556 -0.015541908 0.083391368
0.054111596 -0.011127157 0.083170295
0.055898316 -0.0063767368 0.082635164
0.056736827 -0.0016785637 0.08208698
0.052918959 -0.020778954 0.079398334
0.056044482 -0.017444253 0.080010533
0.057342853 -0.01313781 0.080483139
0.059364814 -0.0070891418 0.080726445
0.061241705 -0.0018420797 0.079147637
0.061915249 0.0025707539 0.076853573
0.054385364 -0.02131577 0.074463427
0.0581531 -0.019088255 0.075248182
0.066272147 0.0022795722 0.075394809
0.067320101 0.0044105072 0.075424016
0.056078076 -0.021195021 0.070035875
0.05948288 -0.019355265 0.070304155
0.070560887 0.0044464283 0.067781746
0.057593398 -0.021958582 0.067394793
0.060991921 -0.019547265 0.065333903
0.06393794 -0.0178407 0.065646172
0.069857188 -0.0049038902 0.064512014
0.069108874 -0.0011103302 0.06361407
0.069898568 0.0037625171 0.063494742
0.062192462 -0.019020256 0.060702562
0.065495975 -0.017456813 0.061346233
0.069769852 -0.0064874049 0.06039083
0.068891756 -0.0015567783 0.060068071
0.07030347 0.0034746826 0.059854329
0.066094145 -0.016240416 0.056923568
0.069537826 -0.013062492 0.057248175
0.069939993 -0.0084221344 0.055703819
0.069561303 -0.013422276 0.051394224
0.070348091 -0.010772867 0.051772475
-0.0035525542 0.0027294352 0.18300667
0.034308001 0.00012808386 0.11978912
0.031895671 -0.014032541 0.11619073
0.031820811 -0.010136713 0.11540312
0.03233549 -0.0060119317 0.11541498
0.033099357 -0.00066612381 0.11569417
0.03190821 -0.015450947 0.1124711
0.031894885 -0.010789459 0.11126488
0.032087315 -0.0058629941 0.11130029
0.03215345 -0.0021259654 0.11261195
0.029096451 -0.032272212 0.10843223
0.031541523 -0.026381753 0.10817152
0.032511439 -0.021194521 0.1076439
0.032257292 -0.016538145 0.10769939
0.032266356 -0.011560621 0.10734463
0.028961515 -0.032171365 0.10494339
0.031473175 -0.027413063 0.10453165
0.03288376 -0.021979844 0.10372585
0.032606948 -0.017758213 0.10257286
0.030767625 -0.027366199 0.10010052
0.032811701 -0.022151001 0.099789739
0.036397077 -0.022626547 0.093974471
0.037649456 -0.019499782 0.093736529
0.038570911 -0.016201261 0.092858672
0.037800897 -0.024099931 0.090629816
0.040629838 -0.020490024 0.090337455
0.042582322 -0.016304467 0.089711308
0.043123044 -0.011594415 0.08894664
0.045289837 -0.0074183885 0.088441312
0.047415301 -0.0027906289 0.087586343
0.048811287 0.0018239021 0.087023973
0.040941346 -0.024460755 0.086302102
0.04385924 -0.022364033 0.08638519
0.045795035 -0.019522281 0.087066948
0.046863362 -0.01282824 0.086819768
0.048712365 -0.0086404979 0.086468279
0.050339632 -0.004138289 0.086104214
0.052457102 0.00038482435 0.084852993
0.041619819 -0.024959575 0.081950724
0.046129335 -0.023386912 0.081626892
0.05701381 0.0014318973 0.080980241
0.056845788 0.0048310272 0.080435574
0.047600605 -0.023726018 0.077072501
0.051033217 -0.022213491 0.07674545
0.05957732 0.003673153 0.078058541
0.049052261 -0.023755003 0.072315335
0.051860284 -0.022713048 0.073502064
0.052645225 -0.022434607 0.067930937
0.055090826 -0.022791583 0.063796997
0.058327489 -0.020711215 0.063459158
0.056803793 -0.022414465 0.059360325
0.059910856 -0.020405408 0.059468329
0.068795979 -0.00081951916 0.056990445
0.069968022 0.0031176247 0.057188272
0.057848744 -0.02259017 0.055623353
0.060225502 -0.019810412 0.054804921
0.064420596 -0.017124519 0.054192603
0.069379129 -0.0056013502 0.054260075
0.069139309 -0.0019375775 0.053341568
0.070349529 0.0034980271 0.053519666
0.072739527 0.006860802 0.053716958
0.064574428 -0.017028663 0.049569786
0.067976534 -0.015034988 0.049434721
0.069774918 -0.008558698 0.049502134
0.068315551 -0.0033881664 0.049063742
0.070367128 0.0049138032 0.04918611
0.066003978 -0.016939063 0.045510352
0.069150731 -0.01375543 0.045005739
0.069512352 -0.0088749975 0.045306921
0.066914849 -0.016601138 0.041975319
0.068306372 -0.014913426 0.041073143
0.069457039 -0.01072465 0.041817367
-0.0088919438 -0.00067414693 0.18341535
-0.0074390797 0.0039213244 0.1829533
0.032919604 -0.0052196411 0.10919338
0.033020679 -0.00062025338 0.11049908
0.032105286 -0.014658669 0.10478753
0.032749418 -0.011094676 0.10486102
0.032940432 -0.0059897108 0.10594285
0.033754956 -0.0013550455 0.10556632
0.026963959 -0.032697875 0.10123765
0.033246592 -0.015730985 0.10146004
0.033642866 -0.011996721 0.10101402
0.034318436 -0.0070491126 0.10086
0.035388824 -0.002434087 0.10036051
0.027480714 -0.032254785 0.09748131
0.031477518 -0.027781837 0.097749889
0.033499278 -0.022555415 0.097420335
0.034733906 -0.017839031 0.0977121
0.035656665 -0.01304369 0.096777201
0.037001912 -0.0084032146 0.096178889
0.03858462 -0.0036632651 0.096107244
0.039958097 0.00062824972 0.095642328
0.02908681 -0.03230593 0.092629552
0.032473121 -0.028407663 0.093674541
0.03469988 -0.024255086 0.09423691
0.036523096 -0.017850604 0.094972253
0.038696356 -0.013985593 0.093492389
0.040323682 -0.0099679381 0.093005776
0.041990347 -0.0054611014 0.09266907
0.043430336 -0.00085996184 0.092146099
0.044513807 0.0038952148 0.09132725
0.030032048 -0.032616142 0.088726342
0.033981096 -0.029272128 0.089026749
0.037110142 -0.025649654 0.088671386
0.041994944 -0.0099349599 0.090171635
0.04374655 -0.0059139822 0.089556515
0.045498203 -0.0018930435 0.088941336
0.047201049 0.002599109 0.088634014
0.035149679 -0.029325994 0.084305048
0.038307395 -0.026043154 0.084979236
0.036725067 -0.028283417 0.079597771
0.039316025 -0.026368074 0.07949847
0.042292111 -0.025506333 0.076587796
0.04507079 -0.024981458 0.075389326
0.045810815 -0.025050228 0.071409047
0.047838438 -0.024331518 0.066493809
0.049481396 -0.024891285 0.061365545
0.053324886 -0.023917731 0.060838878
0.050652519 -0.024712553 0.057069004
0.054418668 -0.023853755 0.057150483
0.055857666 -0.023632163 0.052427948
0.05881273 -0.020822063 0.05231303
0.059616238 -0.019965813 0.048083484
0.067851849 -0.0019342676 0.046636343
0.069034845 0.0025763027 0.046759665
0.06105892 -0.019698575 0.04317081
0.064056896 -0.01833681 0.043982923
0.069266222 -0.0079761427 0.042724252
0.068282202 -0.0031465907 0.042252243
0.069334954 0.0019970089 0.041404366
0.071680166 0.0069838222 0.041019857
0.065557003 -0.018091831 0.039123297
0.06899257 -0.013690727 0.038922787
0.069448307 -0.0088492483 0.038791478
0.068575025 -0.0045856312 0.038175523
0.072666287 0.0070880223 0.03779906
0.06693054 -0.017602287 0.034472823
0.068891011 -0.014251767 0.034375966
0.069943331 -0.0096819103 0.03377825
0.034684125 0.0032522082 0.098778903
0.036956653 0.0030401442 0.09640187
0.027603526 -0.033610068 0.086836755
0.028357817 -0.03260614 0.082200587
0.032054164 -0.03066157 0.081123769
0.032779898 -0.030030301 0.077531397
0.035725623 -0.028075259 0.07578814
0.033654377 -0.02972105 0.072837353
0.037519373 -0.026565464 0.072761297
0.03881675 -0.026253268 0.067917883
0.04085296 -0.026025308 0.063031971
0.04343576 -0.024906725 0.063010514
0.04386615 -0.025314473 0.058352172
0.047119755 -0.025080016 0.055055082
0.051302612 -0.025196869 0.052600026
0.053625606 -0.022632098 0.045818865
0.057474334 -0.021168204 0.044538796
0.05447254 -0.021736575 0.042416751
0.056878395 -0.020507984 0.040376544
0.059581175 -0.019935511 0.03701055
0.067964226 -0.0028678775 0.035257816
0.068364486 0.0019158199 0.035270572
0.070214123 0.0060290564 0.035007358
0.060589366 -0.019942982 0.032482326
0.063915305 -0.018612292 0.032024562
0.06948401 -0.0076087601 0.030290365
0.067974024 -0.0031055957 0.030996144
0.068043508 0.0015111323 0.031509697
0.064803563 -0.017641917 0.027763069
0.067633711 -0.013930823 0.028022468
0.069074541 -0.0092890132 0.02744478
0.068520673 -0.0050660446 0.026994765
0.06585519 -0.016855001 0.023476005
0.067217134 -0.013914924 0.023473799
0.06896773 -0.0093799029 0.02339673
0.069850266 -0.0062155407 0.023763955
0.030722573 -0.031316638 0.075346172
0.028539119 -0.032889418 0.070759237
0.031561054 -0.031170929 0.071422935
0.032414131 -0.030750886 0.066176355
0.035423286 -0.028385866 0.067546427
0.03365647 -0.030299136 0.062139869
0.037361994 -0.028192539 0.062463403
0.039195523 -0.027804103 0.057809711
0.041744389 -0.026201734 0.058112442
0.04021934 -0.028032545 0.052978575
0.043505821 -0.026130956 0.053016543
0.044976193 -0.025377741 0.048550606
0.047400579 -0.023960801 0.0440045
0.050054189 -0.023373865 0.042711616
0.052369811 -0.022390522 0.039355457
0.05254636 -0.022139365 0.034799159
0.055874392 -0.020903308 0.034864306
0.053481806 -0.021811418 0.031214118
0.057191871 -0.020813426 0.029579341
0.068245962 0.0021371283 0.028607666
0.069454767 0.0056782868 0.028466702
0.059703201 -0.019855548 0.025434256
0.062424827 -0.018810812 0.025652647
0.068206467 -0.0025895815 0.024868131
0.068885654 0.0013655499 0.024355471
0.070614122 0.0059177075 0.024043322
0.060120173 -0.019777339 0.020982504
0.063977234 -0.018402809 0.021175086
0.066941276 -0.013918168 0.02008152
0.068623289 -0.0093331616 0.020247161
0.06875167 -0.0040587038 0.0199458
0.069820642 0.00081192143 0.02003628
0.072038837 0.0053976849 0.019654334
0.065067835 -0.018346522 0.016250014
0.067993417 -0.014500021 0.016924441
0.06907431 -0.0096803717 0.01597625
0.06873247 -0.0053817816 0.015478551
0.066158354 -0.018299615 0.012606323
0.068222553 -0.014786682 0.011902452
0.069026411 -0.011002634 0.011473358
0.031241532 -0.031028356 0.058838069
0.032342985 -0.030154154 0.054933131
0.035450161 -0.029033717 0.055460632
0.033344086 -0.030171566 0.051183879
0.037020694 -0.029057942 0.050424755
0.038639132 -0.02846483 0.046230435
0.041906141 -0.026308559 0.045508265
0.042583726 -0.025406012 0.04109019
0.04530751 -0.023266412 0.040058732
0.044191781 -0.024740154 0.036583781
0.046152961 -0.023368185 0.036030352
0.048920434 -0.02295915 0.031729579
0.052060183 -0.022185596 0.029175699
0.052588917 -0.021652063 0.026226699
0.054938022 -0.021284424 0.023730218
0.056984235 -0.020304481 0.018640637
0.067831993 -0.001966944 0.016283214
0.060040001 -0.020007495 0.01461935
0.063341796 -0.019725546 0.012957871
0.067392945 -0.0032365508 0.012142003
0.067411989 0.0014652386 0.013114274
0.069206923 0.0059337877 0.013132095
0.060905516 -0.020521853 0.011251509
0.063279971 -0.019138705 0.0092592835
0.067552358 -0.014631401 0.0080782771
0.068390965 -0.0084123444 0.009239018
0.067599513 -0.0041969568 0.0083956122
0.064268336 -0.018161068 0.0048543811
0.067036994 -0.014540152 0.0043896437
0.068052091 -0.0096176732 0.0044102073
0.068651035 -0.0062886253 0.0047017336
0.065952852 -0.018716002 -0.0002951026
0.067644663 -0.014982808 -0.00032061338
0.068667114 -0.010770586 -0.00023299456
0.029593457 -0.031624638 0.053584099
0.031454485 -0.031262949 0.049637616
0.032991529 -0.030374007 0.044729829
0.036043979 -0.029840801 0.044754565
0.037554026 -0.029147079 0.040155411
0.041080721 -0.026924588 0.038124084
0.038137969 -0.028208945 0.035617769
0.041869678 -0.026004089 0.034612656
0.042989526 -0.025612865 0.030271292
0.046200812 -0.024091402 0.03053689
0.043966621 -0.025105093 0.02703619
0.047790036 -0.023217127 0.025468409
0.04866438 -0.023464549 0.021647096
0.052826315 -0.022021556 0.020184934
0.049669847 -0.022571171 0.017850876
0.053002451 -0.021397121 0.015824258
0.055959124 -0.02059143 0.012036681
0.067364506 0.002554439 0.0099110007
0.068169236 0.0057767499 0.0093452334
0.05776079 -0.021562399 0.0074406266
0.060977239 -0.020725785 0.007096231
0.066674627 -0.001763273 0.0056200624
0.06755536 0.0014596749 0.0061893463
0.067651331 0.0063976534 0.0065332055
0.058664877 -0.021720573 0.002314806
0.061603088 -0.020460263 0.0027727485
0.068213135 -0.0040635969 0.0023992062
0.068454184 2.5780872e-05 0.0020996332
0.067664534 0.0036792159 0.0011113882
0.028465465 -0.03146375 0.045555651
0.029596521 -0.03125621 0.041431189
0.031110356 -0.031201746 0.037289381
0.032287329 -0.031610101 0.033044636
0.035997603 -0.029289402 0.032241404
0.033986777 -0.031563893 0.030094326
0.036326326 -0.028695468 0.027891934
0.039506391 -0.02675751 0.02839005
0.037612364 -0.027926704 0.025207162
0.041070521 -0.025888054 0.022910953
0.042312481 -0.026018182 0.018596232
0.045813352 -0.024487745 0.018679798
0.043925229 -0.025695648 0.014397562
0.047685497 -0.023677906 0.014522672
0.048220187 -0.023865156 0.0097987056
0.051432524 -0.021442141 0.0097302794
0.049573466 -0.023700841 0.0052831769
0.052639131 -0.021898886 0.0049543977
0.054118261 -0.022571638 -6.8604946e-05
0.028015994 -0.032441087 0.035370469
0.030318638 -0.032665331 0.031909168
0.031909492 -0.031813756 0.026439607
0.034093708 -0.030064378 0.025369644
0.031488393 -0.031005558 0.021532118
0.035060793 -0.028575536 0.02130115
0.036649063 -0.028418938 0.016587913
0.039328754 -0.027268603 0.0166803
0.041055825 -0.026399527 0.012353003
0.043598168 -0.025879823 0.0077208281
0.045626618 -0.024966598 0.0068644285
0.046549525 -0.024627181 0.0031490922
0.026448915 -0.032175824 0.02875334
0.029251607 -0.031388 0.019918144
0.032529272 -0.029777162 0.018673599
0.031935375 -0.031505331 0.015604794
0.033947092 -0.029938772 0.015183091
0.032961223 -0.032156415 0.011252224
0.035554815 -0.029832099 0.0111081
0.038251586 -0.027136721 0.010371745
0.036795806 -0.030140402 0.0062496662
0.039550915 -0.027138144 0.0066466331
0.04117557 -0.026273971 0.0011070371
0.027446099 -0.031451806 0.016363919
0.02738839 -0.032051682 0.013291657
0.030609027 -0.032561429 0.0084332824
0.032324322 -0.032214992 0.0053218007
0.034843076 -0.031562999 0.0027478337
0.027863955 -0.031520516 0.001460433
