# .PCD v0.7 - Point Cloud Data file format
VERSION 0.7
FIELDS x y z
SIZE 4 4 4
TYPE F F F
COUNT 1 1 1
WIDTH 404
HEIGHT 1
VIEWPOINT 0 0 0 1 0 0 0
POINTS 404
DATA ascii
-0.010822766 -0.031018343 0.17955765
-0.0078452574 -0.030886786 0.17976055
-0.0031258001 -0.030790891 0.17959821
0.0015529384 -0.030761208 0.17986393
0.0056920084 -0.03113028 0.18060094
0.009777613 -0.031463489 0.18099743
0.01359879 -0.031377401 0.18127993
-0.01066939 -0.031977091 0.17784229
-0.0076231193 -0.032396182 0.17701474
-0.0036931145 -0.032141447 0.17639732
0.0009287963 -0.032843981 0.17668349
0.0055457768 -0.033955488 0.17727375
0.009482557 -0.034282617 0.17731571
0.013412951 -0.034448504 0.1772379
0.017997527 -0.034082141 0.17673048
0.0027803779 -0.033422623 0.17338982
0.0056593781 -0.03410089 0.17302448
0.0093081212 -0.034726791 0.17221773
0.013249238 -0.03516509 0.17234686
0.017841576 -0.034942493 0.17194545
0.010510329 -0.035327759 0.16897133
0.013138236 -0.035150323 0.16870299
0.018369904 -0.035378031 0.167698
-0.0067897872 -0.024839861 0.18207982
-0.0034694613 -0.025138889 0.18212539
0.00048968516 -0.024683731 0.18159029
0.0051284861 -0.02507988 0.18163827
0.010047593 -0.025297983 0.18226844
-0.014495743 -0.028245501 0.17951906
-0.011598054 -0.028033018 0.18066788
-0.0073201284 -0.027854051 0.1809054
-0.0036717972 -0.028367758 0.18066546
0.00062250398 -0.028043184 0.18108618
0.0057715597 -0.028028574 0.18193987
0.0090666935 -0.028206212 0.18189937
-0.014963262 -0.029766696 0.17611754
-0.012091098 -0.031462569 0.17571551
-0.0077088443 -0.032435622 0.17500535
-0.014507903 -0.030734234 0.17134103
-0.011681467 -0.031730175 0.17125919
-0.0078493599 -0.032815475 0.17165294
-0.0038906655 -0.032851238 0.17147806
0.0005400037 -0.032890882 0.17111623
0.0049747601 -0.033691816 0.17029324
-0.011148018 -0.032109208 0.16701633
-0.0080778114 -0.032945141 0.16627234
-0.0040917578 -0.033477187 0.166475
0.00053770147 -0.033645529 0.16636881
0.0051631918 -0.033888921 0.16631898
0.0089532109 -0.034259882 0.16618028
0.013053433 -0.034654856 0.16558802
0.017006027 -0.034901056 0.16557595
-0.0075425683 -0.033696108 0.16314346
-0.004230273 -0.033757824 0.16302329
-0.00025877252 -0.033771414 0.16283271
0.0039602434 -0.033688955 0.16218734
0.0090003088 -0.033733711 0.1623351
0.013372048 -0.034200568 0.16124484
0.017140867 -0.034713864 0.16083676
0.018096188 -0.034832392 0.15719467
-0.011306506 -0.022128377 0.18194076
-0.0076407464 -0.022155251 0.18251735
-0.003728641 -0.021966271 0.18238536
0.00022814902 -0.0207956 0.18133518
0.0051554278 -0.020757232 0.18123439
0.0095053436 -0.022053787 0.18239823
-0.013313975 -0.030626383 0.16844967
-0.015216009 -0.028734684 0.16388607
-0.012591704 -0.031325955 0.16465309
-0.015019758 -0.029851351 0.16056633
-0.011959143 -0.03172389 0.16026407
-0.0085427836 -0.032468472 0.15987319
-0.0043568527 -0.03328969 0.1599015
-0.00038036917 -0.033119407 0.15956858
0.0045376974 -0.032835551 0.15896872
0.0089007132 -0.032833304 0.15887886
0.011987852 -0.033163957 0.15867129
-0.011643655 -0.031984396 0.15585747
-0.0085395277 -0.032163262 0.15553033
-0.0045294049 -0.032549806 0.15562961
-0.00080747262 -0.032069921 0.15525407
0.0041416278 -0.031794447 0.15553421
0.009130192 -0.031977501 0.15383145
0.012737501 -0.032520123 0.15380692
0.016551249 -0.033768348 0.15435854
0.012626212 -0.03292644 0.15040892
0.017028902 -0.033473458 0.14937529
-0.0075180242 -0.016698616 0.18170714
-0.003496432 -0.016940884 0.18167219
0.00053404697 -0.016281826 0.18190542
0.0049251793 -0.016401682 0.18163276
-0.0021628328 -0.019406728 0.18154985
0.0018308057 -0.019161344 0.1811662
-0.014480419 -0.029867802 0.15776685
-0.0138394 -0.03104588 0.15357947
-0.0086466661 -0.032461166 0.15297598
-0.0046388903 -0.032632317 0.15290886
-0.00030065968 -0.032165103 0.15279052
0.0040441118 -0.031870876 0.15280753
0.0073773679 -0.031925492 0.15268272
-0.012381108 -0.031637549 0.14939904
-0.0088048317 -0.032481246 0.14926162
-0.0047807121 -0.032889504 0.14938298
-0.00078084215 -0.032647491 0.14899153
0.0037087542 -0.032210369 0.14859167
0.0082878442 -0.032299466 0.14807555
0.012561008 -0.032669052 0.1481066
0.015643844 -0.033499565 0.14759779
-0.0083042625 -0.032212004 0.14527091
-0.0049720989 -0.032816801 0.1446459
-0.00095223211 -0.032899365 0.14451128
0.0030515811 -0.03231699 0.14384663
0.007992683 -0.032782469 0.14340732
0.012400839 -0.033656001 0.14351001
0.016407283 -0.034116015 0.14367819
0.009609228 -0.033776522 0.13998121
0.012608126 -0.03395452 0.13950375
0.016547455 -0.034273472 0.13928238
-0.0035013859 -0.01307089 0.18165216
0.00055610976 -0.011253374 0.18198234
0.0042549032 -0.012107185 0.1819371
-0.01477962 -0.029410396 0.1465064
-0.013326294 -0.029769046 0.14210364
-0.009303201 -0.031369075 0.14222279
-0.0051035811 -0.032278419 0.14139488
-0.001067417 -0.032604985 0.14145637
0.0029481086 -0.032173533 0.14090997
0.0063047493 -0.032351121 0.14088559
-0.012668638 -0.030206833 0.13821018
-0.0092971595 -0.031174574 0.13787347
-0.0052749347 -0.031709995 0.1371567
-0.0012175473 -0.032371964 0.13749126
0.0028178107 -0.032429542 0.13733822
0.0073378533 -0.032881327 0.13730755
0.011925855 -0.033582434 0.13668501
0.015874561 -0.033624277 0.13623914
-0.0040720501 -0.031896524 0.13344631
-0.0010467449 -0.032216139 0.13308102
0.0028370796 -0.032980748 0.13262868
0.0073456988 -0.033470698 0.1322628
0.012055447 -0.033594031 0.13213062
0.016088994 -0.033661671 0.13198704
0.0078945011 -0.033502579 0.12844771
0.011264656 -0.033454351 0.12824208
0.015968621 -0.033484545 0.12755752
0.00084678933 -0.0063220942 0.18197304
-0.0035090861 -0.0090952432 0.18158066
-0.014224208 -0.029509153 0.13560927
-0.0094195539 -0.031142695 0.13500229
-0.012984293 -0.029790964 0.13121182
-0.0095903808 -0.030938182 0.13102406
-0.0056897206 -0.031500731 0.13105381
-0.0017640251 -0.031769924 0.13017356
0.0018704449 -0.03242857 0.12977138
-0.0088738361 -0.030976245 0.12654707
-0.0057054833 -0.031458888 0.12646967
-0.0016421537 -0.031405296 0.12622535
0.0025779621 -0.032002687 0.12579045
0.0062979865 -0.03303935 0.12598747
0.011177069 -0.033644047 0.12553144
0.015895346 -0.033670563 0.12512991
0.0070192614 -0.032728314 0.12209049
0.011517687 -0.033243861 0.12165806
0.015489332 -0.033486743 0.12018931
0.00024881482 -0.0027182784 0.18196374
-0.013613628 -0.028703418 0.12388933
-0.010330923 -0.030537589 0.1243301
-0.0058323694 -0.031149337 0.12333208
-0.0017633529 -0.030970113 0.12298343
0.00095838204 -0.031231387 0.12306726
-0.013261103 -0.02966702 0.11988145
-0.01007405 -0.031107442 0.11963707
-0.0059698755 -0.031656809 0.11989713
-0.0019001646 -0.031329378 0.11942327
0.0021726866 -0.030991521 0.11894077
0.0060494831 -0.031633921 0.1187377
0.010035405 -0.032389589 0.11857033
-0.0095457844 -0.031354871 0.11593938
-0.0061797076 -0.031719394 0.11469382
-0.0024073785 -0.031314868 0.11507124
0.0020017279 -0.03110872 0.11419553
0.0060674828 -0.031637602 0.11347204
0.010162201 -0.032507606 0.11400938
0.014923013 -0.033354521 0.11449605
0.010019743 -0.032905087 0.10968125
0.014606803 -0.033266492 0.10932916
0.00063032552 0.0024211919 0.18252829
-0.012947186 -0.02969747 0.1166535
-0.011332252 -0.030257924 0.11275768
-0.0062826644 -0.031669125 0.11215049
-0.0018980221 -0.031140141 0.11226797
0.0019003419 -0.031240635 0.11138833
-0.01027799 -0.030360205 0.10848689
-0.0064414032 -0.031630501 0.10821062
-0.0023410369 -0.031430431 0.1078409
0.001764528 -0.031447344 0.10765749
0.005877994 -0.032085247 0.10800582
0.009937942 -0.032962818 0.10709548
0.01333624 -0.033225212 0.10666782
-0.0057140538 -0.031533275 0.10350829
-0.0025172308 -0.031786323 0.10324466
0.0016033639 -0.032094598 0.10331273
0.0057134917 -0.032046933 0.10307294
0.010008615 -0.032358631 0.10271317
0.013903499 -0.032643761 0.10220969
0.014475509 -0.032544699 0.098153532
-0.0034550573 0.0069601536 0.18331945
0.00067125313 0.0068980288 0.18314505
-0.01174824 -0.029654555 0.10638171
-0.014961746 -0.028120944 0.10265106
-0.01156869 -0.029964209 0.10237277
-0.0071633821 -0.031611238 0.10167253
-0.0026195571 -0.03212985 0.10058898
0.0014963055 -0.032012448 0.10028875
0.0056100381 -0.031724811 0.099840581
0.0090429401 -0.031825252 0.099762917
-0.010981724 -0.030309524 0.098414242
-0.0068849991 -0.031429514 0.097211123
-0.0027441313 -0.031728182 0.097273707
0.0013829103 -0.031687617 0.097040474
0.0054921326 -0.031463079 0.096221626
0.0096045788 -0.031755872 0.095714331
0.013519103 -0.032139506 0.095297277
-0.0056288806 -0.031305876 0.094061852
-0.0028772424 -0.031052725 0.093707263
0.0012591647 -0.030919382 0.093391895
0.0057150372 -0.031250853 0.092474699
0.0097338548 -0.031994872 0.09114641
0.013739549 -0.032797899 0.090719342
0.014824905 -0.03314025 0.086731076
0.016893884 -0.033054419 0.086556017
-0.012988684 -0.028219445 0.095024526
-0.0097679943 -0.029302087 0.094490945
-0.011769408 -0.02833169 0.091068566
-0.0080403462 -0.029630797 0.090519309
-0.0030212435 -0.030033844 0.089817941
0.0011330034 -0.030076861 0.089658022
0.0049269306 -0.030362658 0.089230478
0.0080272611 -0.030742357 0.088919759
-0.0070476639 -0.030138323 0.086292505
-0.0029847112 -0.030255828 0.085572243
0.00096050545 -0.030356731 0.084900558
0.0051238206 -0.030509286 0.084838808
0.0092881611 -0.031196492 0.08525461
0.012963831 -0.032245312 0.085349441
0.0022224849 -0.031099372 0.081478894
0.0053369477 -0.031575833 0.08125633
0.0091381557 -0.031874094 0.08084172
0.013297735 -0.032107677 0.08085537
-0.013265235 -0.027890019 0.088743389
-0.013004422 -0.028550046 0.083947599
-0.0092703355 -0.029705644 0.084132493
-0.0046752151 -0.030126777 0.082948387
-0.012374186 -0.029345155 0.078968227
-0.0089936899 -0.030572636 0.079512417
-0.0041135172 -0.030819859 0.079505324
0.00058011553 -0.031140549 0.079321146
0.0046187928 -0.031451888 0.078451514
0.0090411939 -0.031579256 0.077549279
0.013209117 -0.031827196 0.07757777
-0.0091672847 -0.030387793 0.075295269
-0.0042652264 -0.030935833 0.07556361
0.00029844686 -0.030649168 0.074273407
0.0047794827 -0.030125856 0.074399889
0.0093947984 -0.031005928 0.073628008
0.013090246 -0.031356558 0.073096395
-0.014208524 -0.028321113 0.077723324
-0.013693935 -0.027994292 0.072742701
-0.0093033798 -0.029080715 0.072070301
-0.0051088547 -0.030071702 0.071758449
-0.00022255949 -0.030250363 0.071353137
0.0050293398 -0.029272864 0.07106185
0.0079252124 -0.030059747 0.070796013
-0.012730495 -0.028148737 0.06864655
-0.0094562843 -0.029440949 0.068313181
-0.0052697584 -0.029999461 0.067608118
-0.0010557781 -0.030366285 0.067749202
0.0038580033 -0.029931307 0.067732751
0.0087421816 -0.030309729 0.067238092
0.012940161 -0.030437658 0.067159414
-0.0089113237 -0.029701199 0.064420462
-0.0053929342 -0.029894676 0.06443584
-0.00091315329 -0.030509183 0.063973546
0.0033512542 -0.030629192 0.063423216
0.008303375 -0.030494673 0.062295258
0.012791768 -0.030453138 0.062047422
0.012674846 -0.031124864 0.058557928
-0.014253285 -0.027581029 0.066139579
-0.013596578 -0.027689645 0.062254906
-0.0099463621 -0.0291574 0.061309159
-0.0055109081 -0.029937439 0.061388791
-0.0016549039 -0.030211534 0.060949624
0.0029037851 -0.030615756 0.060599566
0.0057110712 -0.030500753 0.060361505
-0.0089774188 -0.029160056 0.057026982
-0.00595839 -0.029551558 0.057115734
-0.0011641298 -0.029523356 0.056866825
0.0024438996 -0.029666662 0.057145596
0.007462854 -0.030237028 0.05635345
0.011825081 -0.030888217 0.056074679
0.016396331 -0.031300768 0.055299044
0.012490272 -0.029944744 0.051229537
0.016233072 -0.030668838 0.051049173
-0.014101557 -0.026535325 0.058960974
-0.010314537 -0.02820049 0.054383278
-0.0054627913 -0.028631637 0.053420067
-0.0019294886 -0.028510043 0.053141832
0.0029645753 -0.028753025 0.053457558
0.005483211 -0.028911147 0.052657664
-0.013485489 -0.027143802 0.051166952
-0.010408763 -0.028306298 0.050133407
-0.0059535559 -0.028753025 0.049904287
-0.0016986781 -0.028903637 0.049851596
0.0027393177 -0.029040661 0.0493294
0.0067745447 -0.029171143 0.048931301
0.011013633 -0.029426081 0.048716903
0.014765458 -0.029821925 0.048224688
-0.010076306 -0.028958457 0.046308696
-0.0061302637 -0.029503584 0.045389652
-0.0018758795 -0.02940309 0.045098126
0.0022007015 -0.029711876 0.044944048
0.0066211 -0.029735992 0.044426918
0.010670192 -0.02965486 0.044163346
0.015111534 -0.030236926 0.044069171
-0.0048351176 -0.030591028 0.042171001
-0.0020025708 -0.030355811 0.041814268
0.002242421 -0.030548675 0.041279852
0.0064898091 -0.030523334 0.04074502
0.010738907 -0.030313816 0.04013747
0.014996078 -0.03038815 0.040014863
-0.013894488 -0.027092764 0.043854892
-0.010829092 -0.029038105 0.04358083
-0.013503077 -0.027477162 0.039558768
-0.010675346 -0.028875181 0.038663447
-0.0065441383 -0.030048251 0.039348662
-0.0021211086 -0.030241625 0.038542807
0.0021405162 -0.030336754 0.038229764
0.0063973302 -0.03043684 0.037816346
0.010644474 -0.030240502 0.03690362
0.014909088 -0.030366642 0.036832154
-0.010125931 -0.029070804 0.03458792
-0.0065717828 -0.02975183 0.034028709
-0.0022876721 -0.029548543 0.033847868
0.0019889458 -0.029688938 0.033578157
0.0062729972 -0.03004585 0.033732533
0.010516756 -0.029977646 0.032409787
0.014822276 -0.029785139 0.033089519
-0.01411493 -0.027381778 0.033653438
-0.011274056 -0.028819442 0.032797813
-0.0023399193 -0.029347913 0.032377899
0.0068774712 -0.029455917 0.02993536
0.014734728 -0.029559271 0.029681146
-0.013944546 -0.028653963 0.029020131
-0.011082711 -0.029536281 0.028689742
-0.0067801215 -0.029685209 0.028642535
-0.002489917 -0.029541697 0.028306782
0.0017990565 -0.0293262 0.027899921
0.0058709821 -0.02946491 0.027242601
0.01035828 -0.02998347 0.027095497
0.014646969 -0.029862285 0.026781917
-0.0098410556 -0.029078159 0.023893237
-0.0069408258 -0.029830966 0.024511397
-0.0040937406 -0.029136505 0.023692429
0.0023688343 -0.029277053 0.023541391
0.0063975635 -0.029961195 0.022608876
0.010203264 -0.030508468 0.02226758
0.014500178 -0.030305438 0.021871984
0.0093595432 -0.030728154 0.018221498
-0.014255216 -0.026936634 0.021962225
-0.011657848 -0.028183427 0.021791577
-0.0071118791 -0.028562717 0.02002418
-0.0025934184 -0.028209176 0.020276368
0.001333117 -0.028461559 0.020006359
0.004883402 -0.029319661 0.019884169
-0.010801088 -0.027517371 0.018063486
-0.0079791853 -0.028025918 0.016281068
0.0023482309 -0.028429322 0.015501797
0.0057156887 -0.029420922 0.01598835
0.010294171 -0.029913886 0.015197933
0.014351466 -0.029384494 0.015565217
0.0063310573 -0.029261367 0.012548268
0.0099390242 -0.029493315 0.012622237
-0.011875637 -0.026808245 0.014609158
-0.0069782631 -0.02749484 0.014073312
-0.0029931602 -0.027109368 0.014050424
0.00037888758 -0.027549863 0.013981164
-0.011389513 -0.026996562 0.0095902085
-0.0075180852 -0.027801225 0.0095054507
-0.0031726575 -0.027757492 0.0092675686
0.0011877461 -0.028424315 0.0097512603
0.0053103622 -0.029008321 0.0095390081
0.0098382281 -0.029019458 0.0088822842
0.014013831 -0.02850616 0.0089915991
-0.010575961 -0.028203607 0.0056769252
-0.0077074585 -0.028407762 0.0046618581
-0.0033565676 -0.028274111 0.0043323636
0.0010072748 -0.028691921 0.0045676231
0.0055193091 -0.029146876 0.0040118694
0.0096776849 -0.02926198 0.0036722422
0.01402256 -0.029099975 0.0033147931
0.010999503 -0.029297948 -0.00074023008
0.013902426 -0.02939466 -0.00076794624
-0.012688847 -0.026657224 0.0074792504
-0.012617999 -0.026557498 0.0033485889
