# .PCD v0.7 - Point Cloud Data file format
VERSION 0.7
FIELDS x y z
SIZE 4 4 4
TYPE F F F
COUNT 1 1 1
WIDTH 457
HEIGHT 1
VIEWPOINT 0 0 0 1 0 0 0
POINTS 457
DATA ascii
0.031645704 0.027791213 0.17741224
0.028788853 0.030417439 0.17858282
0.030593198 0.030939516 0.17552227
0.030836612 0.020592321 0.17943305
0.028768467 0.023260301 0.18113774
0.025175763 0.027349157 0.18186149
0.021256009 0.030709283 0.18177158
0.017300796 0.033235468 0.18093306
0.03232035 0.02192593 0.17707875
0.031500556 0.025266442 0.17831275
0.027560472 0.029267807 0.17967433
0.02383773 0.033001594 0.17764157
0.019500159 0.03513008 0.17644379
0.032545265 0.026268551 0.17358011
0.029373832 0.031757981 0.17346528
0.024789417 0.033666741 0.17294794
0.020553902 0.034860268 0.1723021
0.03297472 0.027721712 0.16931856
0.031127132 0.03192801 0.16957772
0.026263146 0.033566415 0.16853172
0.033021823 0.028396672 0.16561666
0.030073037 0.032374009 0.16515112
0.029178336 0.012542322 0.18257436
0.026618754 0.014828118 0.18302783
0.023794534 0.018144531 0.18323365
0.02049524 0.021738682 0.18284535
0.016340712 0.026487736 0.18267664
0.012422736 0.028617419 0.18306118
0.03152037 0.013164395 0.18004891
0.029648948 0.017293453 0.18076161
0.026216406 0.019940123 0.18194318
0.023150399 0.022882473 0.18215236
0.011504001 0.033739544 0.17892632
0.033206318 0.014789925 0.17610398
0.032370381 0.018469675 0.17617118
0.013203612 0.034268573 0.1739575
0.033270068 0.015886726 0.17134684
0.032846995 0.019838165 0.17098922
0.018704785 0.034861751 0.16976064
0.0329885 0.021328673 0.16666114
0.032817531 0.024468716 0.16701472
0.023314647 0.033453699 0.16620648
0.019871417 0.034211755 0.16590524
0.032006666 0.02542094 0.16234529
0.030487426 0.030361664 0.16215575
0.025440861 0.033080291 0.16231552
0.030268786 0.030274739 0.15737307
0.027125578 0.031836934 0.15774298
0.0073871175 0.023696013 0.18233937
0.027822101 0.0089192446 0.18227595
0.024704566 0.011925006 0.18339819
0.020648569 0.014990634 0.18319553
0.016864 0.01828664 0.18230656
0.013907528 0.021978239 0.18209431
0.031355079 0.010134868 0.17989075
0.033293426 0.012379171 0.17353848
0.033200677 0.013785976 0.16889197
0.01144933 0.033307165 0.16690487
0.032800086 0.014887385 0.16425437
0.03282173 0.018018074 0.16432303
0.016568102 0.032953601 0.16189331
0.012750725 0.033249944 0.16229391
0.032463662 0.019291656 0.16091406
0.031236429 0.02252803 0.15909594
0.022140916 0.03245569 0.15921193
0.019195782 0.032285918 0.15905565
0.031604126 0.024132129 0.15566194
0.031209588 0.028109148 0.15537417
0.023998303 0.031610418 0.15472943
0.020293968 0.032519065 0.15367734
0.032374442 0.025834398 0.15069902
0.031300422 0.029890902 0.15101796
0.02578138 0.032009874 0.15035784
0.021251325 0.033292513 0.15078017
0.032778103 0.026894923 0.14631552
0.031450182 0.029949263 0.14608449
0.027163159 0.031837624 0.14604527
0.019779455 0.0079675 0.18223134
0.016479431 0.010749625 0.18227214
0.013299323 0.014195257 0.18217891
0.0096432734 0.017774852 0.18178755
0.032674745 0.01291803 0.1619567
0.011248921 0.033640593 0.16005677
0.03236863 0.013382362 0.15736026
0.031587832 0.01713443 0.15703061
0.016252747 0.032233663 0.15673172
0.012415824 0.033688612 0.15582633
0.031928822 0.017938821 0.15331542
0.017010253 0.032502264 0.15201521
0.013562529 0.033145029 0.15181002
0.03206037 0.019670419 0.14830515
0.032356225 0.022277724 0.1496259
0.018862383 0.033240896 0.14743808
0.032154806 0.023985552 0.1451422
0.030930521 0.029220616 0.14267132
0.025592273 0.032763828 0.14340636
0.021113554 0.03364886 0.14375442
0.03095226 0.024699196 0.14060938
0.030293919 0.028664883 0.13885421
0.027390026 0.032047652 0.13836154
0.023592127 0.033842057 0.13909733
0.027554873 0.031991374 0.13463938
0.012468294 0.0072851749 0.18222654
0.0092782853 0.010217161 0.18238091
0.0055842968 0.013167341 0.1818513
0.031980477 0.011094697 0.15078193
0.03193447 0.015200878 0.14999819
0.01144407 0.033137854 0.1488663
0.032060973 0.012807128 0.14617023
0.031887054 0.016026326 0.14658201
0.012425319 0.032508783 0.14433372
0.031926572 0.017490773 0.14187133
0.031305112 0.021431889 0.1418148
0.017959207 0.033396475 0.14116645
0.014502635 0.033290289 0.14028361
0.031041596 0.022069756 0.13731807
0.019642672 0.033780478 0.13674212
0.015945219 0.033921752 0.13610336
0.031277124 0.023641989 0.13308477
0.030011812 0.027464012 0.13358185
0.027164785 0.031456172 0.13204604
0.02273101 0.033492465 0.13303775
0.018773658 0.03425416 0.13202658
0.031836033 0.024810426 0.12877527
0.03027669 0.027675815 0.12834188
0.027405342 0.031434864 0.12763578
0.024318403 0.032815862 0.12760031
0.03024254 0.028538574 0.12490487
0.027469225 0.031328917 0.12474829
0.0084021669 0.0026168742 0.18171331
0.0052238726 0.006207448 0.18259731
0.011105213 0.0042115408 0.18174875
0.031943344 0.010417104 0.13991821
0.031495411 0.013949935 0.13881883
0.011249908 0.032985065 0.13761604
0.031409286 0.017256415 0.13591009
0.013437567 0.033920906 0.1332114
0.010573464 0.033030063 0.13385773
0.031954616 0.018404715 0.13157409
0.031929728 0.021171592 0.13141698
0.020517372 0.033632647 0.12979341
0.015963409 0.033969816 0.12946132
0.012253018 0.034435235 0.12964427
0.03226544 0.022218887 0.12654844
0.021448573 0.033249773 0.12627897
0.018455431 0.033573586 0.12484008
0.032299973 0.02395528 0.12228292
0.031086259 0.027798787 0.12253422
0.027498001 0.031186258 0.1218136
0.023038955 0.032714751 0.12175068
0.030983757 0.027679767 0.11718625
0.02781643 0.030957267 0.11729497
0.031100456 0.028706089 0.11387491
0.028958883 0.031044234 0.11384511
0.0020709934 0.0030850836 0.18268993
0.030694198 0.013271708 0.13284343
0.030917101 0.010471695 0.13022768
0.030732341 0.014287825 0.12805423
0.013770706 0.033526909 0.12618062
0.030590309 0.016448693 0.12320444
0.014880914 0.033328421 0.12282246
0.010867692 0.033479981 0.12205058
0.032190707 0.020875126 0.12036622
0.020872306 0.032645844 0.1186229
0.016697655 0.03311006 0.11816555
0.032474529 0.023489991 0.11596709
0.02604547 0.031550642 0.11444056
0.022555387 0.03261172 0.11499548
0.018767033 0.033273619 0.11325824
0.032790314 0.023689751 0.1107887
0.031716947 0.027716093 0.11122787
0.028081719 0.031448007 0.11106306
0.023508165 0.032995246 0.11010987
0.033342622 0.02485585 0.10639071
0.032211144 0.028227186 0.10645562
0.029111886 0.031878565 0.10654837
0.025167467 0.033198919 0.10632265
0.031809717 0.028709026 0.10255337
0.029560616 0.030961161 0.10242397
-0.0027313579 -0.0017002986 0.18234468
0.030332614 0.0096121477 0.12662923
0.0298048 0.011426114 0.12235868
0.03052137 0.014850891 0.11756015
0.030749848 0.018410994 0.11646944
0.013735163 0.032953851 0.1152494
0.031485673 0.015472743 0.11252528
0.031607155 0.019061111 0.11335009
0.015590006 0.033450551 0.11161709
0.011637754 0.0340469 0.1107372
0.03181266 0.016654614 0.10837775
0.032040335 0.019667355 0.1075241
0.021673314 0.033550013 0.10717559
0.017727226 0.033911262 0.10738611
0.033150397 0.021853935 0.10381454
0.022694075 0.032823689 0.1028012
0.019185567 0.034010164 0.10249233
0.033081405 0.023559408 0.099204421
0.031970091 0.027224226 0.099365771
0.028012764 0.030670822 0.09887892
0.023784943 0.032015968 0.098538339
0.03351526 0.024310047 0.095374107
0.031835545 0.027436661 0.094593823
0.029116122 0.030440325 0.09467572
0.030653715 0.030224286 0.090807259
-0.0030259471 -0.0087978449 0.18225068
-0.0059681055 -0.0054573151 0.18268123
0.030537777 0.010211565 0.11633223
0.031378269 0.010956469 0.1116581
0.031900071 0.013987562 0.10712284
0.015123459 0.033714958 0.10364693
0.010257984 0.033562854 0.10484076
0.03220332 0.015733663 0.1026237
0.032927059 0.019519299 0.10055542
0.015700698 0.033339184 0.099832952
0.012108296 0.032950982 0.10160899
0.03508094 0.016849034 0.096657097
0.033556722 0.020836232 0.097211897
0.022122545 0.032271415 0.095953465
0.018892318 0.03339877 0.096095562
0.041116457 0.014211312 0.091892719
0.037986286 0.018128786 0.093083918
0.034557547 0.022630749 0.092876256
0.032788351 0.02678293 0.092249751
0.027725205 0.031180494 0.092280209
0.02349806 0.032262217 0.091757715
0.019121826 0.033248585 0.091775775
0.04381945 0.015995273 0.089025378
0.039888263 0.020020362 0.08884728
0.035534583 0.023583872 0.088188946
0.032658488 0.027554775 0.088587224
0.029214721 0.031190056 0.088238657
0.025297601 0.032420654 0.087279379
0.045876943 0.017810993 0.085151255
0.041397709 0.02091885 0.084361374
0.03617467 0.023371493 0.083942354
0.032387029 0.027426092 0.08356303
0.029557165 0.030517939 0.083537281
0.025982296 0.031950653 0.083022416
0.05180417 0.016748436 0.082028925
0.047757935 0.019430798 0.081078112
0.043507174 0.021244377 0.079838157
0.052578837 0.017119152 0.076645255
0.04882643 0.019393299 0.076316714
0.045324277 0.021210592 0.076567471
0.053852245 0.016922513 0.072242796
0.031701799 0.010640103 0.099147856
0.033466514 0.012442697 0.096531034
0.01422995 0.032410003 0.094579458
0.010894745 0.032275259 0.093048751
0.016118012 0.033082362 0.089594841
0.012967987 0.033132069 0.088240862
0.022547819 0.032487031 0.085339129
0.017760299 0.033082537 0.084914267
0.036028229 0.022446899 0.080862641
0.03201808 0.02640116 0.080267847
0.028435739 0.030228881 0.080024183
0.022871703 0.031789217 0.080472171
0.019445762 0.03301442 0.081150353
0.041106228 0.02158257 0.077315807
0.036184624 0.022463137 0.077200115
0.032130361 0.025970673 0.076838434
0.028560316 0.029562717 0.076213777
0.025083017 0.031280976 0.076608002
0.046435036 0.018975861 0.072657049
0.042744942 0.020637423 0.073054135
0.037406888 0.022725029 0.072965264
0.032361764 0.026887853 0.073479652
0.029175106 0.029962569 0.072731972
0.051799875 0.016632613 0.069033921
0.047713239 0.018416937 0.06837225
0.043553293 0.019993283 0.068782926
0.04861673 0.017888464 0.064545274
0.012152555 0.034044012 0.082460344
0.017409753 0.03314716 0.078024924
0.01346566 0.033875786 0.078155875
0.022225905 0.0314213 0.074104667
0.018800948 0.032138914 0.073298454
0.036257803 0.023111848 0.070206523
0.033363767 0.025498774 0.070644677
0.029175125 0.029778454 0.069583595
0.024154492 0.031698428 0.069683492
0.041350923 0.020541638 0.067257941
0.037816349 0.022124898 0.066517651
0.033061109 0.025358047 0.065429986
0.029530125 0.02990477 0.065777838
0.026136531 0.031677227 0.065226555
0.047561012 0.018406391 0.062656522
0.04306221 0.020198017 0.062464416
0.038483772 0.021711621 0.061910152
0.032840867 0.026047802 0.061569154
0.029964129 0.028931456 0.061411321
0.052617274 0.016044833 0.058625221
0.048218086 0.017883176 0.058399498
0.044194996 0.019470684 0.057951212
0.049603954 0.0169471 0.05434078
0.010994161 0.033443198 0.075155497
0.015624404 0.031825699 0.070877135
0.011249228 0.032925557 0.070952892
0.017304655 0.03172233 0.066690266
0.013764937 0.032838099 0.066227853
0.022964207 0.031293198 0.062621176
0.019028042 0.031652112 0.062532961
0.037172247 0.021344267 0.058862686
0.033411611 0.023819845 0.05838114
0.029947126 0.02788231 0.058512449
0.025793457 0.030348925 0.057619512
0.021104096 0.03118067 0.058703899
0.046234082 0.018226232 0.055062115
0.042484351 0.019854715 0.055059493
0.03810757 0.021266717 0.05446279
0.033715013 0.024118807 0.053813756
0.030374857 0.027733425 0.053778291
0.026593106 0.030446248 0.053601742
0.051389378 0.01616789 0.050857067
0.047575738 0.016954798 0.051029503
0.042936757 0.019207001 0.050481915
0.038382985 0.021600157 0.050414622
0.03407931 0.024869718 0.050815403
0.031006245 0.028144581 0.050236344
0.028077781 0.030633032 0.050176442
0.052008234 0.015866319 0.04638952
0.047816858 0.016428344 0.046023309
0.044134982 0.018615773 0.047068298
0.050528545 0.016890313 0.041343391
0.011765799 0.033148579 0.065219641
0.016914036 0.031833347 0.061377048
0.013516193 0.031834237 0.059776366
0.019133862 0.03110088 0.055689871
0.024792517 0.031373553 0.052398443
0.021270756 0.031120475 0.051583111
0.037989996 0.022212559 0.048084676
0.035139099 0.024739012 0.048579395
0.03154777 0.028524049 0.047654748
0.026453309 0.03118908 0.047408998
0.022629963 0.031325422 0.047934353
0.047125131 0.017181605 0.044626713
0.043101877 0.019759385 0.044983864
0.038630262 0.021404216 0.043843567
0.034752749 0.024472088 0.04317373
0.031466104 0.02819512 0.04349941
0.028302275 0.031078588 0.043324411
0.047657572 0.017446578 0.040916145
0.044083774 0.019611411 0.039918005
0.039886218 0.021258574 0.040343106
0.0492182 0.017176911 0.035689652
0.045733679 0.018664848 0.03619951
0.051408909 0.017113937 0.032548308
0.011611775 0.031476885 0.057005942
0.017031081 0.030741107 0.05256778
0.012234355 0.03108805 0.053452373
0.017910533 0.030637242 0.048869312
0.01395042 0.030469071 0.048999369
0.019832034 0.031085741 0.044900119
0.015248477 0.030960485 0.045337915
0.030923342 0.027474487 0.040398896
0.026203081 0.030974682 0.041027486
0.02072175 0.030992938 0.040287793
0.038683295 0.021321421 0.036920488
0.034860887 0.024171252 0.036759317
0.031285826 0.027597368 0.03647846
0.027443599 0.030438606 0.036301911
0.023349768 0.031377576 0.035797179
0.047113612 0.017409422 0.032117069
0.043787573 0.019095439 0.032843232
0.039264068 0.021274991 0.032573164
0.035051886 0.024026193 0.031504273
0.031561173 0.027092068 0.031281948
0.026479444 0.030811945 0.033193886
0.049083725 0.017095422 0.028673053
0.044096023 0.018750235 0.027794003
0.039913215 0.02110699 0.029169321
0.03561784 0.024423968 0.028902113
0.049912304 0.016832538 0.024201572
0.0453813 0.01869767 0.025384068
0.051537164 0.016887993 0.020252049
0.011239265 0.030860715 0.046635032
0.013156418 0.031097014 0.042037189
0.017656326 0.030560847 0.037101448
0.014377816 0.030510096 0.037526667
0.019821506 0.031099558 0.033870995
0.02995969 0.028212823 0.029643357
0.026457269 0.02941015 0.029190361
0.022226145 0.030846598 0.028846085
0.039298266 0.021335794 0.026034534
0.035139896 0.023728041 0.025452673
0.031115614 0.026450574 0.025699675
0.027248476 0.028404921 0.025198042
0.048035763 0.017608121 0.022169948
0.044093944 0.01865462 0.021784008
0.039524537 0.020227049 0.022001505
0.035519581 0.022669453 0.021408141
0.048848763 0.017153034 0.017702997
0.045086987 0.018275658 0.016673148
0.050896607 0.016702304 0.01344949
0.046695672 0.017933987 0.012888968
0.052194856 0.01608683 0.0088797212
0.01075717 0.030932132 0.038368285
0.01281492 0.031029686 0.035443485
0.013758304 0.031467289 0.031751573
0.010075795 0.032263242 0.031252861
0.018328916 0.030751258 0.02805829
0.014914168 0.03175512 0.026761591
0.029557658 0.026189217 0.021807373
0.025726847 0.028793979 0.022602916
0.021008905 0.031059396 0.023231685
0.016769942 0.032195255 0.021906376
0.038806703 0.019894499 0.019020259
0.034240138 0.023020569 0.019183159
0.030745244 0.026033895 0.019250214
0.026755814 0.029474065 0.019174099
0.022189934 0.031360418 0.018244743
0.042590443 0.018681969 0.01499182
0.039263375 0.020429373 0.015766025
0.034968372 0.022870842 0.014708638
0.031220332 0.026204076 0.014261842
0.027773593 0.029855814 0.014197767
0.024050293 0.031693298 0.014326513
0.04908745 0.016607597 0.010407329
0.044506859 0.018769804 0.011240244
0.040425982 0.020951796 0.010608137
0.035857625 0.022890782 0.010422111
0.032424089 0.025993044 0.010583699
0.027949285 0.029789537 0.0099397898
0.050146207 0.017065793 0.0073993802
0.045836076 0.018687457 0.0065401793
0.041881226 0.020996392 0.0072419047
0.051404558 0.016402895 0.0027444363
0.012365532 0.03173634 0.022739947
0.013990981 0.032550856 0.019387066
0.010327774 0.031965997 0.019434392
0.019930387 0.031608805 0.014515758
0.016540205 0.032385461 0.015276134
0.022008324 0.031570684 0.011060476
0.017859556 0.032546051 0.010845244
0.034921221 0.022795264 0.0068181157
0.030937472 0.025885245 0.0070137382
0.0276455 0.028706184 0.006375134
0.022832051 0.031124596 0.0074127913
0.043640189 0.018880025 0.0027563572
0.040539898 0.020587446 0.0035690665
0.035561174 0.022236567 0.0029688478
0.030840175 0.02515916 0.003056407
0.026603324 0.029345857 0.0044414997
0.049140058 0.016197329 -0.0010755658
0.044947669 0.017094262 -0.00053411722
0.040177576 0.019983847 4.4345856e-05
0.012497977 0.031350844 0.011781633
0.014174131 0.032211512 0.0084578991
0.010278177 0.031409185 0.0082147717
0.020571664 0.03093246 0.004373312
0.016472574 0.03177486 0.0039839149
0.033211756 0.022587888 0.00032216311
0.030680971 0.024819346 6.6757202e-06
0.026813814 0.028158741 0.00057941675
0.021984285 0.030502027 -7.9214573e-05
0.018557675 0.031827617 -0.001527667
0.013162881 0.031498194 0.0013577342
