# .PCD v0.7 - Point Cloud Data file format
VERSION 0.7
FIELDS x y z
SIZE 4 4 4
TYPE F F F
COUNT 1 1 1
WIDTH 1285
HEIGHT 1
VIEWPOINT 0 0 0 1 0 0 0
POINTS 1285
DATA ascii
-0.033974599 -0.0088352636 0.045119859
-0.032798596 -0.012352027 0.04863663
-0.032509461 -0.013230689 0.04863663
-0.033653606 -0.0088352636 0.04863663
-0.034265697 -0.0053184927 0.045119859
-0.03423772 -0.0018017218 0.045119859
-0.033976007 -0.0053184927 0.04863663
-0.033972338 -0.0018017218 0.04863663
-0.026178457 -0.02290234 0.052153394
-0.025475919 -0.023700632 0.052153394
-0.026397251 -0.02290234 0.055670165
-0.025475919 -0.023923397 0.055670165
-0.029054046 -0.019385569 0.052153394
-0.02899269 -0.019473292 0.052153394
-0.031205811 -0.015868798 0.052153394
-0.029243253 -0.019385569 0.055670165
-0.02899269 -0.019749552 0.055670165
-0.031363815 -0.015868798 0.055670165
-0.02691365 -0.02290234 0.059186935
-0.025475919 -0.024453469 0.059186935
-0.02752915 -0.02290234 0.062703706
-0.025475919 -0.025084808 0.062703706
-0.029688083 -0.019385569 0.059186935
-0.02899269 -0.020391345 0.059186935
-0.031786926 -0.015868798 0.059186935
-0.030241825 -0.019385569 0.062703706
-0.02899269 -0.021147199 0.062703706
-0.03228081 -0.015868798 0.062703706
-0.022814684 -0.026419103 0.052153394
-0.021959156 -0.027207293 0.052153394
-0.023007698 -0.026419103 0.055670165
-0.021959156 -0.02738931 0.055670165
-0.023513332 -0.026419103 0.059186935
-0.021959156 -0.027869426 0.059186935
-0.024126634 -0.026419103 0.062703706
-0.021959156 -0.028419487 0.062703706
-0.032613032 -0.012352027 0.052153394
-0.032509461 -0.01268959 0.052153394
-0.033434749 -0.0088352636 0.052153394
-0.032695904 -0.012352027 0.055670165
-0.032509461 -0.012982607 0.055670165
-0.033472888 -0.0088352636 0.055670165
-0.033770759 -0.0053184927 0.052153394
-0.033806376 -0.0018017218 0.052153394
-0.033798937 -0.0053184927 0.055670165
-0.033866066 -0.0018017218 0.055670165
-0.033025727 -0.012352027 0.059186935
-0.032509461 -0.014060676 0.059186935
-0.033759568 -0.0088352636 0.059186935
-0.03345624 -0.012352027 0.062703706
-0.032509461 -0.015312977 0.062703706
-0.034114387 -0.0088352636 0.062703706
-0.034046724 -0.0053184927 0.059186935
-0.034088876 -0.0018017218 0.059186935
-0.034313787 -0.0053184927 0.062703706
-0.034286156 -0.0018017218 0.062703706
-0.020600058 -0.029935874 0.066220477
-0.018442385 -0.031433247 0.066220477
-0.021034859 -0.029935874 0.069737241
-0.018442385 -0.031733625 0.069737241
-0.01461906 -0.033452645 0.066220477
-0.011408843 -0.034471281 0.066220477
-0.014925614 -0.033329628 0.066220477
-0.015112907 -0.033452645 0.069737241
-0.014925614 -0.033527523 0.069737241
-0.014925614 -0.033452645 0.068504654
-0.011408843 -0.034660622 0.069737241
-0.02143354 -0.029935874 0.073254012
-0.018442385 -0.032049641 0.073254012
-0.021770231 -0.029935874 0.076770782
-0.018442385 -0.032367446 0.076770782
-0.015725106 -0.033452645 0.073254012
-0.014925614 -0.033772513 0.073254012
-0.011408843 -0.034889221 0.073254012
-0.016359814 -0.033452645 0.076770782
-0.014925614 -0.034030229 0.076770782
-0.011408843 -0.035123967 0.076770782
-0.021968693 -0.029935874 0.080287553
-0.021959156 -0.029944003 0.080287553
-0.021959156 -0.029935874 0.080004513
-0.018442385 -0.032574512 0.080287553
-0.022033341 -0.029935874 0.083804317
-0.021959156 -0.029999249 0.083804317
-0.018442385 -0.032604538 0.083804317
-0.016759485 -0.033452645 0.080287553
-0.014925614 -0.034188062 0.080287553
-0.011408843 -0.035236441 0.080287553
-0.016779132 -0.033452645 0.083804317
-0.014925614 -0.034191057 0.083804317
-0.011408843 -0.035195634 0.083804317
-0.022042245 -0.029935874 0.087321088
-0.021959156 -0.030005194 0.087321088
-0.018442385 -0.032566376 0.087321088
-0.022150457 -0.029935874 0.090837859
-0.021959156 -0.030092195 0.090837859
-0.018442385 -0.032620043 0.090837859
-0.016679965 -0.033452645 0.087321088
-0.014925614 -0.034125924 0.087321088
-0.011408843 -0.03508734 0.087321088
-0.016773209 -0.033452645 0.090837859
-0.014925614 -0.034140542 0.090837859
-0.011408843 -0.035067022 0.090837859
-0.0078920722 -0.035091735 0.066220477
-0.0043753088 -0.03525833 0.066220477
-0.0078920722 -0.03526666 0.069737241
-0.0043753088 -0.035437018 0.069737241
-0.00085853785 -0.035217106 0.066220477
0.002658233 -0.035171852 0.066220477
-0.00085853785 -0.03540048 0.069737241
0.002658233 -0.035346784 0.069737241
-0.0078920722 -0.035437286 0.073254012
-0.0043753088 -0.035590112 0.073254012
-0.0078920722 -0.035619833 0.076770782
-0.0043753088 -0.035737224 0.076770782
-0.00085853785 -0.03557054 0.073254012
0.002658233 -0.035521671 0.073254012
-0.00085853785 -0.035720155 0.076770782
0.002658233 -0.035670869 0.076770782
0.0061750039 -0.035194784 0.066220477
0.0096917674 -0.035292439 0.066220477
0.0061750039 -0.035357751 0.069737241
0.0096917674 -0.035430156 0.069737241
0.013208538 -0.035357438 0.066220477
0.016725309 -0.035246782 0.066220477
0.013208538 -0.035480604 0.069737241
0.016725309 -0.035405651 0.069737241
0.0061750039 -0.035529904 0.073254012
0.0096917674 -0.035584226 0.073254012
0.0061750039 -0.035678744 0.076770782
0.0096917674 -0.035751253 0.076770782
0.013208538 -0.03563533 0.073254012
0.016725309 -0.035592064 0.073254012
0.013208538 -0.03583017 0.076770782
0.016725309 -0.035795763 0.076770782
-0.0078920722 -0.035691969 0.080287553
-0.0043753088 -0.035780489 0.080287553
-0.0078920722 -0.035596929 0.083804317
-0.0043753088 -0.035681993 0.083804317
-0.00085853785 -0.035756953 0.080287553
0.002658233 -0.035712838 0.080287553
-0.00085853785 -0.035676934 0.083804317
0.002658233 -0.03565488 0.083804317
-0.0078920722 -0.035465553 0.087321088
-0.0043753088 -0.03555461 0.087321088
-0.0078920722 -0.035460964 0.090837859
-0.0043753088 -0.035574906 0.090837859
-0.00085853785 -0.035580538 0.087321088
0.002658233 -0.035579823 0.087321088
-0.00085853785 -0.035620861 0.090837859
0.002658233 -0.035635933 0.090837859
0.0061750039 -0.035741128 0.080287553
0.0096917674 -0.035863958 0.080287553
0.0061750039 -0.035721458 0.083804317
0.0096917674 -0.035887778 0.083804317
0.013208538 -0.035977207 0.080287553
0.016725309 -0.035964228 0.080287553
0.013208538 -0.0360405 0.083804317
0.016725309 -0.036083683 0.083804317
0.0061750039 -0.035676487 0.087321088
0.0096917674 -0.03586401 0.087321088
0.0061750039 -0.035717815 0.090837859
0.0096917674 -0.035874978 0.090837859
0.013208538 -0.036047712 0.087321088
0.016725309 -0.036152139 0.087321088
0.013208538 -0.036069565 0.090837859
0.016725309 -0.036190711 0.090837859
-0.02801466 -0.02290234 0.066220477
-0.025475919 -0.02559451 0.066220477
-0.028348379 -0.02290234 0.069737241
-0.025475919 -0.025949374 0.069737241
-0.032665163 -0.015868798 0.066220477
-0.032509461 -0.016240217 0.066220477
-0.032509461 -0.015868798 0.064671531
-0.032947153 -0.015868798 0.069737241
-0.032509461 -0.016888045 0.069737241
-0.030719057 -0.019385569 0.066220477
-0.02899269 -0.021731444 0.066220477
-0.031063549 -0.019385569 0.069737241
-0.02899269 -0.022134237 0.069737241
-0.028596677 -0.02290234 0.073254012
-0.025475919 -0.026233077 0.073254012
-0.025495604 -0.026419103 0.076770782
-0.025475919 -0.026439369 0.076770782
-0.025475919 -0.026419103 0.076334409
-0.028730951 -0.02290234 0.076770782
-0.033133842 -0.015868798 0.073254012
-0.032509461 -0.017283045 0.073254012
-0.033230841 -0.015868798 0.076770782
-0.032509461 -0.017476887 0.076770782
-0.031291939 -0.019385569 0.073254012
-0.02899269 -0.02242969 0.073254012
-0.031402081 -0.019385569 0.076770782
-0.02899269 -0.022584245 0.076770782
-0.024626322 -0.026419103 0.066220477
-0.021959156 -0.028837323 0.066220477
-0.02499532 -0.026419103 0.069737241
-0.021959156 -0.029191017 0.069737241
-0.025289185 -0.026419103 0.073254012
-0.021959156 -0.029510558 0.073254012
-0.021959156 -0.029779404 0.076770782
-0.033814102 -0.012352027 0.066220477
-0.034382552 -0.0088352636 0.066220477
-0.034092855 -0.012352027 0.069737241
-0.034615144 -0.0088352636 0.069737241
-0.034481291 -0.0053184927 0.066220477
-0.03439717 -0.0018017218 0.066220477
-0.034627546 -0.0053184927 0.069737241
-0.034460001 -0.0018017218 0.069737241
-0.034294624 -0.012352027 0.073254012
-0.034816135 -0.0088352636 0.073254012
-0.034408908 -0.012352027 0.076770782
-0.034927737 -0.0088352636 0.076770782
-0.034783855 -0.0053184927 0.073254012
-0.034553941 -0.0018017218 0.073254012
-0.03492922 -0.0053184927 0.076770782
-0.034746647 -0.0018017218 0.076770782
-0.025599957 -0.026419103 0.080287553
-0.025475919 -0.026549987 0.080287553
-0.028759003 -0.02290234 0.080287553
-0.025641017 -0.026419103 0.083804317
-0.025475919 -0.02659566 0.083804317
-0.028748505 -0.02290234 0.083804317
-0.033217154 -0.015868798 0.080287553
-0.032509461 -0.017448984 0.080287553
-0.03311909 -0.015868798 0.083804317
-0.032509461 -0.01726114 0.083804317
-0.031387262 -0.019385569 0.080287553
-0.02899269 -0.022608824 0.080287553
-0.031316265 -0.019385569 0.083804317
-0.02899269 -0.022587761 0.083804317
-0.025678471 -0.026419103 0.087321088
-0.025475919 -0.026636757 0.087321088
-0.028753884 -0.02290234 0.087321088
-0.025820285 -0.026419103 0.090837859
-0.025475919 -0.026786074 0.090837859
-0.028884098 -0.02290234 0.090837859
-0.033061914 -0.015868798 0.087321088
-0.032509461 -0.017165072 0.087321088
-0.033160172 -0.015868798 0.090837859
-0.032509461 -0.017415136 0.090837859
-0.031285763 -0.019385569 0.087321088
-0.02899269 -0.022589326 0.087321088
-0.031424738 -0.019385569 0.090837859
-0.02899269 -0.022759415 0.090837859
-0.034391522 -0.012352027 0.080287553
-0.034929071 -0.0088352636 0.080287553
-0.034294408 -0.012352027 0.083804317
-0.034859661 -0.0088352636 0.083804317
-0.035002138 -0.0053184927 0.080287553
-0.03488509 -0.0018017218 0.080287553
-0.034970175 -0.0053184927 0.083804317
-0.034868628 -0.0018017218 0.083804317
-0.034222979 -0.012352027 0.087321088
-0.034780998 -0.0088352636 0.087321088
-0.034284998 -0.012352027 0.090837859
-0.034805603 -0.0088352636 0.090837859
-0.0348849 -0.0053184927 0.087321088
-0.034793522 -0.0018017218 0.087321088
-0.034879353 -0.0053184927 0.090837859
-0.034784082 -0.0018017218 0.090837859
0.02024208 -0.03324756 0.0029186271
0.023758851 -0.032879971 0.0029186271
0.02024208 -0.03354989 0.0064353961
0.02024208 -0.033452645 0.0051870998
0.021721125 -0.033452645 0.0064353961
0.023758851 -0.033226281 0.0064353961
0.027275614 -0.032156803 0.0029186271
0.030792385 -0.030988805 0.0029186271
0.027275614 -0.032503456 0.0064353961
0.030792385 -0.031327195 0.0064353961
0.033558294 -0.029935874 0.0029186271
0.034309149 -0.029941432 0.0064353961
0.034309149 -0.029935874 0.0063099992
0.034322903 -0.029935874 0.0064353961
0.034309149 -0.029639758 0.0029186271
0.037825927 -0.028117649 0.0029186271
0.037825927 -0.02844017 0.0064353961
0.041342691 -0.026537992 0.0029186271
0.041342691 -0.026419103 0.0019479189
0.04162465 -0.026419103 0.0029186271
0.044859469 -0.025009923 0.0029186271
0.041342691 -0.026797861 0.0064353961
0.042219907 -0.026419103 0.0064353961
0.044859469 -0.02528853 0.0064353961
0.048376232 -0.023364156 0.0029186271
0.048376232 -0.02290234 0.00052242167
0.049469382 -0.02290234 0.0029186271
0.048376232 -0.023724742 0.0064353961
0.050533459 -0.02290234 0.0064353961
0.051892996 -0.021905787 0.0029186271
0.051892996 -0.022417247 0.0064353961
0.055409774 -0.020333864 0.0029186271
0.055409774 -0.019385569 0.00047556497
0.057363153 -0.019385569 0.0029186271
0.058926538 -0.018477663 0.0029186271
0.055409774 -0.021138847 0.0064353961
0.058926538 -0.019569501 0.0064353961
0.058926538 -0.019385569 0.0056359507
0.061892584 -0.015868798 0.0029186271
0.059275702 -0.019385569 0.0064353961
0.062443316 -0.0170862 0.0064353961
0.062443316 -0.015868798 0.0039735679
0.063569888 -0.015868798 0.0064353961
0.062443316 -0.015204675 0.0029186271
0.064480454 -0.012352027 0.0029186271
0.065960079 -0.0095443651 0.0029186271
0.065960079 -0.0088352636 0.0020877998
0.065950379 -0.012352027 0.0064353961
0.065960079 -0.012329347 0.0064353961
0.066277072 -0.0088352636 0.0029186271
0.067228258 -0.0088352636 0.0064353961
0.067381218 -0.0053184927 0.0029186271
0.067666784 -0.0018017218 0.0029186271
0.067913726 -0.0053184927 0.0064353961
0.068058968 -0.0018017218 0.0064353961
0.02024208 -0.033783257 0.0099521652
0.023578614 -0.033452645 0.0099521652
0.023758851 -0.033425309 0.0099521652
0.02024208 -0.033947743 0.013468936
0.023758851 -0.033452645 0.010713521
0.027275614 -0.032635503 0.0099521652
0.030792385 -0.031407632 0.0099521652
0.02024208 -0.034053668 0.016985703
0.02024208 -0.034147412 0.020502474
0.034309149 -0.02999749 0.0099521652
0.034459442 -0.029935874 0.0099521652
0.034318015 -0.029935874 0.013468936
0.02024208 -0.03425777 0.024019241
0.023758851 -0.033908531 0.027536012
0.02585078 -0.033452645 0.027536012
0.023758851 -0.034062698 0.031052779
0.023758851 -0.034191549 0.03456955
0.026425898 -0.033452645 0.031052779
0.026771709 -0.033452645 0.03456955
0.027275614 -0.033299282 0.03456955
0.030792385 -0.031974308 0.03456955
0.034523919 -0.029935874 0.024019241
0.034841895 -0.029935874 0.027536012
0.035003453 -0.029935874 0.031052779
0.034309149 -0.030299231 0.03456955
0.035061359 -0.029935874 0.03456955
0.037825927 -0.028488822 0.0099521652
0.037825927 -0.028413892 0.013468936
0.041342691 -0.026869789 0.0099521652
0.042416662 -0.026419103 0.0099521652
0.044859469 -0.025397897 0.0099521652
0.041342691 -0.0268308 0.013468936
0.042355955 -0.026419103 0.013468936
0.044859469 -0.025399186 0.013468936
0.037825927 -0.028340295 0.016985703
0.037825927 -0.028361246 0.020502474
0.041342691 -0.02677837 0.016985703
0.042248711 -0.026419103 0.016985703
0.044859469 -0.025376357 0.016985703
0.041342691 -0.0267924 0.020502474
0.04228577 -0.026419103 0.020502474
0.044859469 -0.025387928 0.020502474
0.037825927 -0.028465405 0.024019241
0.037825927 -0.028546982 0.027536012
0.041342691 -0.026841462 0.024019241
0.042385072 -0.026419103 0.024019241
0.044859469 -0.025417767 0.024019241
0.041342691 -0.026859984 0.027536012
0.042406917 -0.026419103 0.027536012
0.044859469 -0.025436029 0.027536012
0.037825927 -0.028562784 0.031052779
0.037825927 -0.028557114 0.03456955
0.041342691 -0.026841678 0.031052779
0.042365208 -0.026419103 0.031052779
0.044859469 -0.025437765 0.031052779
0.041342691 -0.026849456 0.03456955
0.042411059 -0.026419103 0.03456955
0.044859469 -0.025472254 0.03456955
0.048376232 -0.02387882 0.0099521652
0.051101208 -0.02290234 0.0099521652
0.048376232 -0.023920864 0.013468936
0.051292509 -0.02290234 0.013468936
0.051892996 -0.022646911 0.0099521652
0.051892996 -0.022714958 0.013468936
0.055409774 -0.021509372 0.0099521652
0.058926538 -0.020125389 0.0099521652
0.055409774 -0.021599807 0.013468936
0.058926538 -0.020352751 0.013468936
0.048376232 -0.023924962 0.016985703
0.051283479 -0.02290234 0.016985703
0.048376232 -0.023933522 0.020502474
0.051299185 -0.02290234 0.020502474
0.051892996 -0.022703618 0.016985703
0.051892996 -0.022707522 0.020502474
0.055409774 -0.021540277 0.016985703
0.058926538 -0.020333014 0.016985703
0.055409774 -0.021532357 0.020502474
0.058926538 -0.020243943 0.020502474
0.060499609 -0.019385569 0.0099521652
0.062443316 -0.018178627 0.0099521652
0.064894602 -0.015868798 0.0099521652
0.0612102 -0.019385569 0.013468936
0.062443316 -0.018695965 0.013468936
0.065620348 -0.015868798 0.013468936
0.061303407 -0.019385569 0.016985703
0.062443316 -0.01879102 0.016985703
0.065819025 -0.015868798 0.016985703
0.061019033 -0.019385569 0.020502474
0.062443316 -0.01864408 0.020502474
0.065783054 -0.015868798 0.020502474
0.065960079 -0.014501706 0.0099521652
0.065960079 -0.012352027 0.0064636935
0.065960079 -0.015441708 0.013468936
0.067008793 -0.012352027 0.0099521652
0.067911297 -0.0088352636 0.0099521652
0.067609578 -0.012352027 0.013468936
0.068397626 -0.0088352636 0.013468936
0.068291038 -0.0053184927 0.0099521652
0.068376511 -0.0018017218 0.0099521652
0.068633437 -0.0053184927 0.013468936
0.068678021 -0.0018017218 0.013468936
0.065960079 -0.015688084 0.016985703
0.065960079 -0.015655592 0.020502474
0.067774445 -0.012352027 0.016985703
0.068642676 -0.0088352636 0.016985703
0.067833647 -0.012352027 0.020502474
0.068774551 -0.0088352636 0.020502474
0.0688961 -0.0053184927 0.016985703
0.068914354 -0.0018017218 0.016985703
0.069079742 -0.0053184927 0.020502474
0.069102049 -0.0018017218 0.020502474
0.048376232 -0.023977824 0.024019241
0.051477343 -0.02290234 0.024019241
0.048376232 -0.024044596 0.027536012
0.051739335 -0.02290234 0.027536012
0.051892996 -0.022769481 0.024019241
0.051892996 -0.022853725 0.027536012
0.055409774 -0.021602236 0.024019241
0.058926538 -0.020270437 0.024019241
0.055409774 -0.021699563 0.027536012
0.058926538 -0.02039738 0.027536012
0.048376232 -0.024084717 0.031052779
0.051892996 -0.02290491 0.031052779
0.051892996 -0.02290234 0.030751035
0.048376232 -0.024116039 0.03456955
0.051892996 -0.022917762 0.03456955
0.051901147 -0.02290234 0.031052779
0.051940858 -0.02290234 0.03456955
0.055409774 -0.021757148 0.031052779
0.058926538 -0.020455331 0.031052779
0.055409774 -0.021734096 0.03456955
0.058926538 -0.020387545 0.03456955
0.061040625 -0.019385569 0.024019241
0.062443316 -0.018645935 0.024019241
0.065865397 -0.015868798 0.024019241
0.061363354 -0.019385569 0.027536012
0.062443316 -0.018839806 0.027536012
0.065960079 -0.01609499 0.027536012
0.065960079 -0.015868798 0.025228385
0.066165224 -0.015868798 0.027536012
0.061533809 -0.019385569 0.031052779
0.062443316 -0.018954575 0.031052779
0.065960079 -0.01640673 0.031052779
0.061432526 -0.019385569 0.03456955
0.062443316 -0.018942058 0.03456955
0.065960079 -0.016549937 0.03456955
0.066466734 -0.015868798 0.031052779
0.066621467 -0.015868798 0.03456955
0.065960079 -0.015761748 0.024019241
0.068003595 -0.012352027 0.024019241
0.068939567 -0.0088352636 0.024019241
0.068297818 -0.012352027 0.027536012
0.069132954 -0.0088352636 0.027536012
0.069236308 -0.0053184927 0.024019241
0.069251508 -0.0018017218 0.024019241
0.069375619 -0.0053184927 0.027536012
0.069365129 -0.0018017218 0.027536012
0.068561003 -0.012352027 0.031052779
0.069319651 -0.0088352636 0.031052779
0.068694651 -0.012352027 0.03456955
0.069440097 -0.0088352636 0.03456955
0.069476843 -0.0065839365 0.031052779
0.069476843 -0.0053184927 0.030195564
0.069511876 -0.0053184927 0.031052779
0.069453597 -0.0018017218 0.031052779
0.069476843 -0.0023666397 0.031052779
0.069476843 -0.0084499344 0.03456955
0.069613129 -0.0053184927 0.03456955
0.069476843 -0.0018017218 0.032256037
0.069515169 -0.0018017218 0.03456955
0.023758851 -0.034293808 0.038086321
0.023758851 -0.034351557 0.041603088
0.026988275 -0.033452645 0.038086321
0.027275614 -0.033361055 0.038086321
0.030792385 -0.032010086 0.038086321
0.027108982 -0.033452645 0.041603088
0.027275614 -0.033398174 0.041603088
0.030792385 -0.032044232 0.041603088
0.02024208 -0.034855425 0.045119859
0.023758851 -0.034352027 0.045119859
0.02024208 -0.034802206 0.04863663
0.023758851 -0.034272894 0.04863663
0.027066283 -0.033452645 0.045119859
0.027275614 -0.0333841 0.045119859
0.030792385 -0.032037355 0.045119859
0.026778921 -0.033452645 0.04863663
0.027275614 -0.033291377 0.04863663
0.030792385 -0.031937309 0.04863663
0.034309149 -0.030315645 0.038086321
0.035094917 -0.029935874 0.038086321
0.034309149 -0.030372053 0.041603088
0.035242215 -0.029935874 0.041603088
0.034309149 -0.030418202 0.045119859
0.035394818 -0.029935874 0.045119859
0.034309149 -0.030366078 0.04863663
0.035315573 -0.029935874 0.04863663
0.02024208 -0.034730434 0.052153394
0.023758851 -0.034135334 0.052153394
0.02024208 -0.034690671 0.055670165
0.023758851 -0.034004733 0.055670165
0.026264913 -0.033452645 0.052153394
0.027275614 -0.033122167 0.052153394
0.030792385 -0.031740375 0.052153394
0.025736175 -0.033452645 0.055670165
0.027275614 -0.032940209 0.055670165
0.030792385 -0.03152515 0.055670165
0.02024208 -0.034704305 0.059186935
0.023758851 -0.033946209 0.059186935
0.02024208 -0.034763798 0.062703706
0.023758851 -0.034008019 0.062703706
0.025480933 -0.033452645 0.059186935
0.027275614 -0.032851592 0.059186935
0.030792385 -0.031404316 0.059186935
0.025684953 -0.033452645 0.062703706
0.027275614 -0.032919258 0.062703706
0.030792385 -0.031448297 0.062703706
0.034309149 -0.030204818 0.052153394
0.034945294 -0.029935874 0.052153394
0.034309149 -0.030010186 0.055670165
0.034483701 -0.029935874 0.055670165
0.034179747 -0.029935874 0.059186935
0.034309149 -0.029935874 0.057287976
0.034195915 -0.029935874 0.062703706
0.037825927 -0.028605454 0.038086321
0.037825927 -0.028739266 0.041603088
0.041342691 -0.026934035 0.038086321
0.042638272 -0.026419103 0.038086321
0.044859469 -0.025571868 0.038086321
0.041342691 -0.027091041 0.041603088
0.043028072 -0.026419103 0.041603088
0.044859469 -0.025718711 0.041603088
0.037825927 -0.028866783 0.045119859
0.037825927 -0.028865814 0.04863663
0.041342691 -0.027253933 0.045119859
0.043442771 -0.026419103 0.045119859
0.044859469 -0.025879093 0.045119859
0.041342691 -0.027308375 0.04863663
0.043673247 -0.026419103 0.04863663
0.044859469 -0.025991298 0.04863663
0.037825927 -0.028715901 0.052153394
0.037825927 -0.028505027 0.055670165
0.041342691 -0.027229846 0.052153394
0.043633506 -0.026419103 0.052153394
0.044859469 -0.026011579 0.052153394
0.041342691 -0.027082212 0.055670165
0.043319494 -0.026419103 0.055670165
0.044859469 -0.025937885 0.055670165
0.034309149 -0.029880531 0.059186935
0.037825927 -0.028353438 0.059186935
0.034309149 -0.029886611 0.062703706
0.037825927 -0.028324842 0.062703706
0.041342691 -0.026950091 0.059186935
0.042953014 -0.026419103 0.059186935
0.044859469 -0.025840506 0.059186935
0.041342691 -0.026899137 0.062703706
0.042799398 -0.026419103 0.062703706
0.044859469 -0.025805704 0.062703706
0.048376232 -0.024188563 0.038086321
0.051892996 -0.022933498 0.038086321
0.048376232 -0.024311163 0.041603088
0.051892996 -0.023006789 0.041603088
0.051985502 -0.02290234 0.038086321
0.052192196 -0.02290234 0.041603088
0.055409774 -0.021699108 0.038086321
0.058926538 -0.020287022 0.038086321
0.055409774 -0.021731086 0.041603088
0.058926538 -0.020265825 0.041603088
0.048376232 -0.024484694 0.045119859
0.051892996 -0.023168199 0.045119859
0.048376232 -0.024686716 0.04863663
0.052650928 -0.02290234 0.045119859
0.055409774 -0.021872789 0.045119859
0.058926538 -0.020334616 0.045119859
0.061126679 -0.019385569 0.038086321
0.062443316 -0.01881735 0.038086321
0.065960079 -0.01645764 0.038086321
0.060972944 -0.019385569 0.041603088
0.062443316 -0.018697269 0.041603088
0.065960079 -0.0162348 0.041603088
0.066540048 -0.015868798 0.038086321
0.06632404 -0.015868798 0.041603088
0.061023951 -0.019385569 0.045119859
0.062443316 -0.018657759 0.045119859
0.065960079 -0.016066357 0.045119859
0.065960079 -0.016013257 0.04863663
0.066157252 -0.015868798 0.045119859
0.066107973 -0.015868798 0.04863663
0.068665296 -0.012352027 0.038086321
0.069452152 -0.0088352636 0.038086321
0.068522558 -0.012352027 0.041603088
0.0693973 -0.0088352636 0.041603088
0.069476843 -0.0085996985 0.038086321
0.069655731 -0.0053184927 0.038086321
0.069568917 -0.0018017218 0.038086321
0.069476843 -0.0081973672 0.041603088
0.069669992 -0.0053184927 0.041603088
0.0696055 -0.0018017218 0.041603088
0.068434551 -0.012352027 0.045119859
0.069384426 -0.0088352636 0.045119859
0.068490595 -0.012352027 0.04863663
0.069476843 -0.0090198293 0.04863663
0.069476843 -0.0088352636 0.048023783
0.069508865 -0.0088352636 0.04863663
0.069476843 -0.0081709102 0.045119859
0.069694459 -0.0053184927 0.045119859
0.069644183 -0.0018017218 0.045119859
0.048376232 -0.024824969 0.052153394
0.048376232 -0.024849787 0.055670165
0.048376232 -0.024796464 0.059186935
0.048376232 -0.024764083 0.062703706
0.065960079 -0.016050346 0.052153394
0.065960079 -0.016062155 0.055670165
0.066145211 -0.015868798 0.052153394
0.066164374 -0.015868798 0.055670165
0.065960079 -0.016003191 0.059186935
0.065850079 -0.015868798 0.062703706
0.065960079 -0.015868798 0.061714292
0.066110939 -0.015868798 0.059186935
0.068621084 -0.012352027 0.052153394
0.069476843 -0.0099046901 0.052153394
0.069696069 -0.0088352636 0.052153394
0.068746909 -0.012352027 0.055670165
0.069476843 -0.010436349 0.055670165
0.069828421 -0.0088352636 0.055670165
0.065960079 -0.015776463 0.062703706
0.068837449 -0.012352027 0.059186935
0.069476843 -0.010803796 0.059186935
0.069951922 -0.0088352636 0.059186935
0.06883429 -0.012352027 0.062703706
0.069476843 -0.010966368 0.062703706
0.070077196 -0.0088352636 0.062703706
0.02024208 -0.03490743 0.066220477
0.023758851 -0.034216337 0.066220477
0.02024208 -0.035121717 0.069737241
0.023758851 -0.034496211 0.069737241
0.026412658 -0.033452645 0.066220477
0.027275614 -0.033165477 0.066220477
0.030792385 -0.031717442 0.066220477
0.027275614 -0.0334718 0.069737241
0.027275614 -0.033452645 0.069503278
0.027332515 -0.033452645 0.069737241
0.030792385 -0.032069206 0.069737241
0.02024208 -0.035342149 0.073254012
0.023758851 -0.034756586 0.073254012
0.02024208 -0.03556063 0.076770782
0.023758851 -0.035019487 0.076770782
0.027275614 -0.033736356 0.073254012
0.028101332 -0.033452645 0.073254012
0.030792385 -0.032356247 0.073254012
0.027275614 -0.033999905 0.076770782
0.028804235 -0.033452645 0.076770782
0.030792385 -0.032609105 0.076770782
0.034309149 -0.030056469 0.066220477
0.034309149 -0.029935874 0.064155497
0.034567446 -0.029935874 0.066220477
0.034309149 -0.03032361 0.069737241
0.035104305 -0.029935874 0.069737241
0.034309149 -0.030580536 0.073254012
0.035643488 -0.029935874 0.073254012
0.034309149 -0.030753747 0.076770782
0.035928577 -0.029935874 0.076770782
0.02024208 -0.035771787 0.080287553
0.023758851 -0.03528975 0.080287553
0.02024208 -0.035956219 0.083804317
0.023758851 -0.035548821 0.083804317
0.027275614 -0.034281932 0.080287553
0.029445216 -0.033452645 0.080287553
0.030792385 -0.032828309 0.080287553
0.027275614 -0.034540035 0.083804317
0.029814541 -0.033452645 0.083804317
0.030792385 -0.032936543 0.083804317
0.02024208 -0.036082283 0.087321088
0.023758851 -0.035696521 0.087321088
0.02024208 -0.036115356 0.090837859
0.023758851 -0.035645306 0.090837859
0.027275614 -0.034607053 0.087321088
0.02965945 -0.033452645 0.087321088
0.030792385 -0.032753661 0.087321088
0.027275614 -0.03435234 0.090837859
0.028954059 -0.033452645 0.090837859
0.030792385 -0.032114066 0.090837859
0.034309149 -0.030793108 0.080287553
0.035809502 -0.029935874 0.080287553
0.034309149 -0.030606925 0.083804317
0.035290346 -0.029935874 0.083804317
0.034309149 -0.029989265 0.087321088
0.034371555 -0.029935874 0.087321088
0.033124372 -0.029935874 0.090837859
0.034309149 -0.029935874 0.087523542
0.037825927 -0.028433561 0.066220477
0.037825927 -0.028652869 0.069737241
0.041342691 -0.026973642 0.066220477
0.04302758 -0.026419103 0.066220477
0.044859469 -0.025874093 0.066220477
0.041342691 -0.027161598 0.069737241
0.043626204 -0.026419103 0.069737241
0.044859469 -0.026041999 0.069737241
0.037825927 -0.028904192 0.073254012
0.037825927 -0.028987065 0.076770782
0.041342691 -0.027313806 0.073254012
0.043862537 -0.026419103 0.073254012
0.044859469 -0.026073076 0.073254012
0.041342691 -0.027168229 0.076770782
0.043127701 -0.026419103 0.076770782
0.037825927 -0.028754301 0.080287553
0.037825927 -0.028062202 0.083804317
0.041342691 -0.026625499 0.080287553
0.041743755 -0.026419103 0.080287553
0.040030882 -0.026419103 0.083804317
0.041342691 -0.026419103 0.081196174
0.041342691 -0.025539294 0.083804317
0.037825927 -0.026672594 0.087321088
0.034309149 -0.028644487 0.090837859
0.036048651 -0.026419103 0.090837859
0.037825927 -0.026419103 0.087795861
0.037825927 -0.023853905 0.090837859
0.038084179 -0.026419103 0.087321088
0.041342691 -0.023224004 0.087321088
0.041671932 -0.02290234 0.087321088
0.041342691 -0.02290234 0.087655261
0.042641163 -0.0088352636 0.090837859
0.044859469 -0.0088352636 0.089184947
0.042725116 -0.0053184927 0.090837859
0.044859469 -0.0053184927 0.089219436
0.042864263 -0.0018017218 0.090837859
0.044859469 -0.0018017218 0.089376606
0.048376232 -0.024798691 0.066220477
0.051892996 -0.023549177 0.066220477
0.048376232 -0.024840653 0.069737241
0.051892996 -0.023443334 0.069737241
0.05356954 -0.02290234 0.066220477
0.053165734 -0.02290234 0.069737241
0.055409774 -0.022069678 0.066220477
0.058926538 -0.020067468 0.066220477
0.055409774 -0.021760933 0.069737241
0.058926538 -0.01959084 0.069737241
0.048376232 -0.024728499 0.073254012
0.051892996 -0.023183808 0.073254012
0.051892996 -0.02290234 0.075135544
0.052474126 -0.02290234 0.073254012
0.055409774 -0.021189295 0.073254012
0.058115095 -0.019385569 0.073254012
0.058926538 -0.019385569 0.070890769
0.058926538 -0.018805288 0.073254012
0.056198791 -0.019385569 0.076770782
0.058926538 -0.016966134 0.076770782
0.060100392 -0.019385569 0.066220477
0.062443316 -0.017873146 0.066220477
0.065201595 -0.015868798 0.066220477
0.059242889 -0.019385569 0.069737241
0.062443316 -0.017136067 0.069737241
0.064192787 -0.015868798 0.069737241
0.062443316 -0.015968747 0.073254012
0.062567636 -0.015868798 0.073254012
0.060014591 -0.015868798 0.076770782
0.062443316 -0.015868798 0.073473454
0.065960079 -0.015289269 0.066220477
0.065960079 -0.014416471 0.069737241
0.068557799 -0.012352027 0.066220477
0.069476843 -0.010424815 0.066220477
0.067711666 -0.012352027 0.069737241
0.06594342 -0.012352027 0.073254012
0.065960079 -0.012352027 0.073228277
0.065960079 -0.012328818 0.073254012
0.062443316 -0.013021328 0.076770782
0.062896967 -0.012352027 0.076770782
0.056576431 -0.015868798 0.080287553
0.058926538 -0.015868798 0.078003488
0.058738008 -0.012352027 0.080287553
0.058926538 -0.012352027 0.080149479
0.058926538 -0.01187963 0.080287553
0.053452134 -0.012352027 0.083804317
0.055409774 -0.012352027 0.082607955
0.053699061 -0.0088352636 0.083804317
0.055409774 -0.0088352636 0.082880855
0.058926538 -0.0088352636 0.080788419
0.05367887 -0.0053184927 0.083804317
0.055409774 -0.0053184927 0.082897522
0.058926538 -0.0053184927 0.080968834
0.053930715 -0.0018017218 0.083804317
0.055409774 -0.0018017218 0.08307112
0.058926538 -0.0018017218 0.081158601
0.047584713 -0.012352027 0.087321088
0.048376232 -0.012352027 0.086866297
0.051892996 -0.012352027 0.084725134
0.047667101 -0.0088352636 0.087321088
0.048376232 -0.0088352636 0.086909302
0.051892996 -0.0088352636 0.084786914
0.047678396 -0.0053184927 0.087321088
0.048376232 -0.0053184927 0.086906493
0.051892996 -0.0053184927 0.084753878
0.047922 -0.0018017218 0.087321088
0.048376232 -0.0018017218 0.087049887
0.051892996 -0.0018017218 0.084884681
0.062443316 -0.012352027 0.077180184
0.059787542 -0.0088352636 0.080287553
0.062443316 -0.0088352636 0.078541026
0.060242057 -0.0053184927 0.080287553
0.062443316 -0.0053184927 0.079012938
0.060580298 -0.0018017218 0.080287553
0.062443316 -0.0018017218 0.079220071
-0.033157535 0.0017150491 0.0029186271
-0.032933213 0.00523182 0.0029186271
-0.033246949 0.0017150491 0.0064353961
-0.032986529 0.00523182 0.0064353961
-0.032660261 0.0087485835 0.0029186271
-0.032509461 0.0087485835 0.00098112971
-0.032509461 0.010895729 0.0029186271
-0.0327347 0.0087485835 0.0064353961
-0.032565609 0.012265354 0.0064353961
-0.032509461 0.012265354 0.0042803232
-0.032445885 0.012265354 0.0029186271
-0.032509461 0.014335826 0.0064353961
-0.032325767 0.015782118 0.0029186271
-0.032152943 0.019298896 0.0029186271
-0.032477975 0.015782118 0.0064353961
-0.032348536 0.019298896 0.0064353961
-0.025475919 0.030510843 0.0029186271
-0.025475919 0.030932337 0.0064353961
-0.021959156 0.031806052 0.0029186271
-0.018442385 0.032158554 0.0029186271
-0.021959156 0.032005265 0.0064353961
-0.018442385 0.032161638 0.0064353961
-0.014925614 0.032187447 0.0029186271
-0.011408843 0.032029122 0.0029186271
-0.014925614 0.032142997 0.0064353961
-0.011408843 0.032039061 0.0064353961
-0.0078920722 0.031881511 0.0029186271
-0.0043753088 0.031861588 0.0029186271
-0.0078920722 0.031926379 0.0064353961
-0.0043753088 0.031917572 0.0064353961
-0.00085853785 0.031869397 0.0029186271
0.002658233 0.031805694 0.0029186271
-0.00085853785 0.031952783 0.0064353961
0.002658233 0.031902075 0.0064353961
0.0061750039 0.031605527 0.0029186271
0.0096917674 0.031397521 0.0029186271
0.0061750039 0.031732485 0.0064353961
0.0096917674 0.031530514 0.0064353961
0.013208538 0.031267136 0.0029186271
0.016725309 0.031106874 0.0029186271
0.013208538 0.031371146 0.0064353961
0.016725309 0.031235084 0.0064353961
-0.0331733 0.0017150491 0.0099521652
-0.032932542 0.00523182 0.0099521652
-0.033149503 0.0017150491 0.013468936
-0.032965906 0.00523182 0.013468936
-0.032741286 0.0087485835 0.0099521652
-0.032632202 0.012265354 0.0099521652
-0.032830819 0.0087485835 0.013468936
-0.032760397 0.012265354 0.013468936
-0.033293679 0.0017150491 0.016985703
-0.033145547 0.00523182 0.016985703
-0.033549108 0.0017150491 0.020502474
-0.033397265 0.00523182 0.020502474
-0.0330396 0.0087485835 0.016985703
-0.032949261 0.012265354 0.016985703
-0.033273928 0.0087485835 0.020502474
-0.033153124 0.012265354 0.020502474
-0.032543056 0.015782118 0.0099521652
-0.032509461 0.015782118 0.0082869902
-0.032509461 0.016899869 0.0099521652
-0.032673836 0.015782118 0.013468936
-0.032554761 0.019298896 0.013468936
-0.032509461 0.019298896 0.01247618
-0.032426193 0.019298896 0.0099521652
-0.032509461 0.020241126 0.013468936
-0.03284815 0.015782118 0.016985703
-0.032736309 0.019298896 0.016985703
-0.033017263 0.015782118 0.020502474
-0.032877721 0.019298896 0.020502474
-0.032509461 0.022095233 0.016985703
-0.032509461 0.022800639 0.020502474
-0.033828583 0.0017150491 0.024019241
-0.033662729 0.00523182 0.024019241
-0.034038313 0.0017150491 0.027536012
-0.033844057 0.00523182 0.027536012
-0.033489555 0.0087485835 0.024019241
-0.033330169 0.012265354 0.024019241
-0.033623148 0.0087485835 0.027536012
-0.033429947 0.012265354 0.027536012
-0.034155946 0.0017150491 0.031052779
-0.033918835 0.00523182 0.031052779
-0.034240436 0.0017150491 0.03456955
-0.033992197 0.00523182 0.03456955
-0.03367899 0.0087485835 0.031052779
-0.0334833 0.012265354 0.031052779
-0.033740252 0.0087485835 0.03456955
-0.033538967 0.012265354 0.03456955
-0.033161581 0.015782118 0.024019241
-0.032985866 0.019298896 0.024019241
-0.033258036 0.015782118 0.027536012
-0.03309314 0.019298896 0.027536012
-0.032608792 0.02281566 0.024019241
-0.032509461 0.02281566 0.020561814
-0.032509461 0.023360282 0.024019241
-0.032744355 0.02281566 0.027536012
-0.032509461 0.024092808 0.027536012
-0.031602286 0.026332438 0.024019241
-0.033304773 0.015782118 0.031052779
-0.033149071 0.019298896 0.031052779
-0.033347454 0.015782118 0.03456955
-0.033167914 0.019298896 0.03456955
-0.032889202 0.02281566 0.031052779
-0.032509461 0.025019124 0.031052779
-0.032919832 0.02281566 0.03456955
-0.032509461 0.025351197 0.03456955
-0.021959156 0.032192171 0.0099521652
-0.018442385 0.032234833 0.0099521652
-0.021959156 0.032320946 0.013468936
-0.018442385 0.032299295 0.013468936
-0.014925614 0.032111987 0.0099521652
-0.011408843 0.031938016 0.0099521652
-0.014925614 0.032119319 0.013468936
-0.011408843 0.031901389 0.013468936
-0.021959156 0.032357246 0.016985703
-0.018442385 0.032329664 0.016985703
-0.021959156 0.032403588 0.020502474
-0.018442385 0.032404602 0.020502474
-0.014925614 0.032164797 0.016985703
-0.011408843 0.031947866 0.016985703
-0.014925614 0.032243311 0.020502474
-0.011408843 0.032069921 0.020502474
-0.029015645 0.029849201 0.024019241
-0.02899269 0.029849201 0.023798354
-0.02899269 0.029869005 0.024019241
-0.025475919 0.031879768 0.024019241
-0.021959156 0.032530174 0.024019241
-0.018442385 0.032510772 0.024019241
-0.018442385 0.03266947 0.027536012
-0.014925614 0.03236185 0.024019241
-0.011408843 0.032253638 0.024019241
-0.014925614 0.032569483 0.027536012
-0.011408843 0.032502159 0.027536012
-0.018442385 0.032886609 0.031052779
-0.018442385 0.033107638 0.03456955
-0.014925614 0.032790184 0.031052779
-0.011408843 0.032766283 0.031052779
-0.014925614 0.03300409 0.03456955
-0.011408843 0.033004478 0.03456955
-0.0078920722 0.031800702 0.0099521652
-0.0043753088 0.031778112 0.0099521652
-0.0078920722 0.031719178 0.013468936
-0.0043753088 0.031660691 0.013468936
-0.00085853785 0.031809181 0.0099521652
0.002658233 0.031779066 0.0099521652
-0.00085853785 0.031655148 0.013468936
0.002658233 0.03162469 0.013468936
-0.0078920722 0.031774029 0.016985703
-0.0043753088 0.031710625 0.016985703
-0.0078920722 0.031947255 0.020502474
-0.0043753088 0.031900257 0.020502474
-0.00085853785 0.031665102 0.016985703
0.002658233 0.031607568 0.016985703
-0.00085853785 0.031854883 0.020502474
0.002658233 0.031796396 0.020502474
0.0061750039 0.031646803 0.0099521652
0.0096917674 0.031494409 0.0099521652
0.0061750039 0.031534046 0.013468936
0.0096917674 0.031442359 0.013468936
0.013208538 0.031362414 0.0099521652
0.016725309 0.031243816 0.0099521652
0.013208538 0.031360433 0.013468936
0.016725309 0.03127265 0.013468936
0.0061750039 0.031543776 0.016985703
0.0096917674 0.031493723 0.016985703
0.0061750039 0.031730875 0.020502474
0.0096917674 0.031682491 0.020502474
0.013208538 0.031443402 0.016985703
0.016725309 0.031362042 0.016985703
0.013208538 0.031634361 0.020502474
0.016725309 0.031548634 0.020502474
-0.0078920722 0.032199696 0.024019241
-0.0043753088 0.032183558 0.024019241
-0.0078920722 0.032487616 0.027536012
-0.0043753088 0.032497212 0.027536012
-0.00085853785 0.032155216 0.024019241
0.002658233 0.032097578 0.024019241
-0.00085853785 0.032472655 0.027536012
0.002658233 0.032398701 0.027536012
-0.0078920722 0.032766357 0.031052779
-0.0043753088 0.032765031 0.031052779
-0.0078920722 0.032995582 0.03456955
-0.0043753088 0.032972768 0.03456955
-0.00085853785 0.032725379 0.031052779
0.002658233 0.032626972 0.031052779
-0.00085853785 0.032910109 0.03456955
0.002658233 0.032774806 0.03456955
0.0061750039 0.032018304 0.024019241
0.0096917674 0.031957373 0.024019241
0.0061750039 0.032301381 0.027536012
0.0096917674 0.032218412 0.027536012
0.013208538 0.031912088 0.024019241
0.016725309 0.031851143 0.024019241
0.013208538 0.032180279 0.027536012
0.016725309 0.032152459 0.027536012
0.0061750039 0.032500282 0.031052779
0.0096917674 0.032383606 0.031052779
0.0061750039 0.032594547 0.03456955
0.0096917674 0.032432765 0.03456955
0.013208538 0.032335147 0.031052779
0.016725309 0.032348454 0.031052779
0.013208538 0.032342568 0.03456955
0.016725309 0.032333374 0.03456955
-0.034309834 0.0017150491 0.038086321
-0.034073114 0.00523182 0.038086321
-0.034286439 0.0017150491 0.041603088
-0.034064211 0.00523182 0.041603088
-0.033802632 0.0087485835 0.038086321
-0.033592626 0.012265354 0.038086321
-0.033804785 0.0087485835 0.041603088
-0.033603817 0.012265354 0.041603088
-0.03411153 0.0017150491 0.045119859
-0.033922061 0.00523182 0.045119859
-0.033878904 0.0017150491 0.04863663
-0.033730201 0.00523182 0.04863663
-0.033708282 0.0087485835 0.045119859
-0.033523202 0.012265354 0.045119859
-0.033556204 0.0087485835 0.04863663
-0.033400491 0.012265354 0.04863663
-0.033400223 0.015782118 0.038086321
-0.033193327 0.019298896 0.038086321
-0.033431374 0.015782118 0.041603088
-0.03323333 0.019298896 0.041603088
-0.032931864 0.02281566 0.038086321
-0.032509461 0.025350407 0.038086321
-0.032948323 0.02281566 0.041603088
-0.032509461 0.02522777 0.041603088
-0.033379424 0.015782118 0.045119859
-0.0332461 0.019298896 0.045119859
-0.033280589 0.015782118 0.04863663
-0.03323812 0.019298896 0.04863663
-0.032973215 0.02281566 0.045119859
-0.03374638 0.0017150491 0.052153394
-0.033614367 0.00523182 0.052153394
-0.033819638 0.0017150491 0.055670165
-0.033681553 0.00523182 0.055670165
-0.033456728 0.0087485835 0.052153394
-0.033320498 0.012265354 0.052153394
-0.033516128 0.0087485835 0.055670165
-0.033372581 0.012265354 0.055670165
-0.03403946 0.0017150491 0.059186935
-0.033911325 0.00523182 0.059186935
-0.034221172 0.0017150491 0.062703706
-0.034122214 0.00523182 0.062703706
-0.033734072 0.0087485835 0.059186935
-0.033560351 0.012265354 0.059186935
-0.033957146 0.0087485835 0.062703706
-0.033760127 0.012265354 0.062703706
-0.03324084 0.015782118 0.052153394
-0.033207849 0.019298896 0.052153394
-0.033274442 0.015782118 0.055670165
-0.033168487 0.019298896 0.055670165
-0.033402834 0.015782118 0.059186935
-0.033221558 0.019298896 0.059186935
-0.033583779 0.015782118 0.062703706
-0.033417825 0.019298896 0.062703706
-0.033203296 0.02281566 0.062703706
-0.032509461 0.025941223 0.062703706
-0.021959156 0.033238456 0.038086321
-0.018442385 0.033231005 0.038086321
-0.021959156 0.033073321 0.041603088
-0.018442385 0.033173829 0.041603088
-0.014925614 0.033157557 0.038086321
-0.011408843 0.033156633 0.038086321
-0.014925614 0.033151537 0.041603088
-0.011408843 0.033161089 0.041603088
-0.021959156 0.032830656 0.045119859
-0.018442385 0.032952502 0.045119859
-0.021959156 0.032599077 0.04863663
-0.018442385 0.032673582 0.04863663
-0.014925614 0.03296265 0.045119859
-0.011408843 0.033002079 0.045119859
-0.014925614 0.032679215 0.04863663
-0.011408843 0.032753408 0.04863663
-0.021959156 0.032447726 0.052153394
-0.018442385 0.032445788 0.052153394
-0.021959156 0.032376543 0.055670165
-0.018442385 0.03237997 0.055670165
-0.014925614 0.032456681 0.052153394
-0.011408843 0.032580808 0.052153394
-0.014925614 0.032433495 0.055670165
-0.011408843 0.032588229 0.055670165
-0.021959156 0.032424822 0.059186935
-0.018442385 0.032488734 0.059186935
-0.021959156 0.032651886 0.062703706
-0.018442385 0.032671645 0.062703706
-0.014925614 0.032592714 0.059186935
-0.011408843 0.032775328 0.059186935
-0.014925614 0.03281185 0.062703706
-0.011408843 0.033005163 0.062703706
-0.0078920722 0.033147037 0.038086321
-0.0043753088 0.03311044 0.038086321
-0.0078920722 0.03317228 0.041603088
-0.0043753088 0.033151433 0.041603088
-0.00085853785 0.033029184 0.038086321
0.002658233 0.03286238 0.038086321
-0.00085853785 0.033066764 0.041603088
0.002658233 0.032884255 0.041603088
-0.0078920722 0.033060223 0.045119859
-0.0043753088 0.033084825 0.045119859
-0.0078920722 0.03287062 0.04863663
-0.0043753088 0.032947779 0.04863663
-0.00085853785 0.033020526 0.045119859
0.002658233 0.032840163 0.045119859
-0.00085853785 0.032923758 0.04863663
0.002658233 0.032764137 0.04863663
0.0061750039 0.032621071 0.038086321
0.0096917674 0.032386735 0.038086321
0.0061750039 0.032600254 0.041603088
0.0096917674 0.032282963 0.041603088
0.013208538 0.032232523 0.038086321
0.016725309 0.032149062 0.038086321
0.013208538 0.032046407 0.041603088
0.016725309 0.031918377 0.041603088
0.0061750039 0.032537058 0.045119859
0.0096917674 0.032172874 0.045119859
0.0061750039 0.032469034 0.04863663
0.0096917674 0.032104969 0.04863663
0.013208538 0.031877175 0.045119859
0.016725309 0.031709775 0.045119859
0.013208538 0.031810462 0.04863663
0.016725309 0.031612918 0.04863663
-0.0078920722 0.03273432 0.052153394
-0.0043753088 0.032847404 0.052153394
-0.0078920722 0.032763213 0.055670165
-0.0043753088 0.032892272 0.055670165
-0.00085853785 0.032847673 0.052153394
0.002658233 0.032705605 0.052153394
-0.00085853785 0.032884598 0.055670165
0.002658233 0.032736346 0.055670165
-0.0078920722 0.032953814 0.059186935
-0.0043753088 0.033060446 0.059186935
-0.0078920722 0.033152893 0.062703706
-0.0043753088 0.03320466 0.062703706
-0.00085853785 0.033019021 0.059186935
0.002658233 0.032848358 0.059186935
-0.00085853785 0.033121362 0.062703706
0.002658233 0.032930434 0.062703706
0.0061750039 0.032437831 0.052153394
0.0096917674 0.032116443 0.052153394
0.0061750039 0.03249304 0.055670165
0.0096917674 0.032219693 0.055670165
0.013208538 0.031844869 0.052153394
0.016725309 0.031633198 0.052153394
0.013208538 0.031971559 0.055670165
0.016725309 0.03174749 0.055670165
0.0061750039 0.032613158 0.059186935
0.0096917674 0.03237465 0.059186935
0.0061750039 0.032705605 0.062703706
0.0096917674 0.032515243 0.062703706
0.013208538 0.03216961 0.059186935
0.016725309 0.031963348 0.059186935
0.013208538 0.032360494 0.062703706
0.016725309 0.032179862 0.062703706
-0.034304328 0.0017150491 0.066220477
-0.034206461 0.00523182 0.066220477
-0.034323156 0.0017150491 0.069737241
-0.034214467 0.00523182 0.069737241
-0.034066144 0.0087485835 0.066220477
-0.033896867 0.012265354 0.066220477
-0.034099702 0.0087485835 0.069737241
-0.033975128 0.012265354 0.069737241
-0.034394566 0.0017150491 0.073254012
-0.034267209 0.00523182 0.073254012
-0.034577608 0.0017150491 0.076770782
-0.034406602 0.00523182 0.076770782
-0.03414702 0.0087485835 0.073254012
-0.034053043 0.012265354 0.073254012
-0.034261942 0.0087485835 0.076770782
-0.034187391 0.012265354 0.076770782
-0.033763058 0.015782118 0.066220477
-0.033653803 0.019298896 0.066220477
-0.033903476 0.015782118 0.069737241
-0.033848159 0.019298896 0.069737241
-0.033457026 0.02281566 0.066220477
-0.03367532 0.02281566 0.069737241
-0.034031786 0.015782118 0.073254012
-0.034023415 0.019298896 0.073254012
-0.034183569 0.015782118 0.076770782
-0.034153305 0.019298896 0.076770782
-0.033850078 0.02281566 0.073254012
-0.033928677 0.02281566 0.076770782
-0.034718864 0.0017150491 0.080287553
-0.034532644 0.00523182 0.080287553
-0.034726195 0.0017150491 0.083804317
-0.034571014 0.00523182 0.083804317
-0.0343902 0.0087485835 0.080287553
-0.034319341 0.012265354 0.080287553
-0.03442207 0.0087485835 0.083804317
-0.03433609 0.012265354 0.083804317
-0.034670509 0.0017150491 0.087321088
-0.034532476 0.00523182 0.087321088
-0.034662809 0.0017150491 0.090837859
-0.034518383 0.00523182 0.090837859
-0.034379758 0.0087485835 0.087321088
-0.03428603 0.012265354 0.087321088
-0.034372002 0.0087485835 0.090837859
-0.034272607 0.012265354 0.090837859
-0.034282703 0.015782118 0.080287553
-0.034205992 0.019298896 0.080287553
-0.034276854 0.015782118 0.083804317
-0.03418779 0.019298896 0.083804317
-0.033980601 0.02281566 0.080287553
-0.0332008 0.026332438 0.080287553
-0.033985913 0.02281566 0.083804317
-0.033246771 0.026332438 0.083804317
-0.034213755 0.015782118 0.087321088
-0.034120042 0.019298896 0.087321088
-0.034196027 0.015782118 0.090837859
-0.034122303 0.019298896 0.090837859
-0.033939656 0.02281566 0.087321088
-0.033261344 0.026332438 0.087321088
-0.033951081 0.02281566 0.090837859
-0.033212952 0.026332438 0.090837859
-0.021959156 0.033079207 0.066220477
-0.018442385 0.032943726 0.066220477
-0.023658842 0.033365965 0.069737241
-0.021959156 0.033365965 0.068788506
-0.020535663 0.033365965 0.069737241
-0.018442385 0.033190578 0.069737241
-0.014925614 0.03299278 0.066220477
-0.011408843 0.033138454 0.066220477
-0.014925614 0.033069313 0.069737241
-0.011408843 0.033146188 0.069737241
-0.021959156 0.033435985 0.069737241
-0.018833242 0.033365965 0.073254012
-0.018442385 0.033324525 0.073254012
-0.018442385 0.033365965 0.074415952
-0.014925614 0.033135086 0.073254012
-0.011408843 0.033144295 0.073254012
-0.016523361 0.033365965 0.076770782
-0.014925614 0.033298716 0.076770782
-0.011408843 0.033251598 0.076770782
-0.018442385 0.033466384 0.076770782
-0.032509461 0.028203338 0.087321088
-0.032509461 0.0280018 0.090837859
-0.031332336 0.029849201 0.087321088
-0.02899269 0.03184098 0.087321088
-0.025748305 0.033365965 0.087321088
-0.031164072 0.029849201 0.090837859
-0.02899269 0.031687394 0.090837859
-0.025475919 0.033348829 0.090837859
-0.025475919 0.033365965 0.090307578
-0.025475919 0.033444807 0.087321088
-0.014925614 0.033365965 0.077902623
-0.011408843 0.033365965 0.078976467
-0.018442385 0.033625364 0.080287553
-0.021959156 0.033837959 0.083804317
-0.018442385 0.033758402 0.083804317
-0.014925614 0.033506826 0.080287553
-0.011408843 0.033443749 0.080287553
-0.014925614 0.033669829 0.083804317
-0.011408843 0.033614308 0.083804317
-0.025416337 0.033365965 0.090837859
-0.021959156 0.033971459 0.087321088
-0.018442385 0.033873752 0.087321088
-0.021959156 0.033994853 0.090837859
-0.018442385 0.033976793 0.090837859
-0.014925614 0.033769578 0.087321088
-0.011408843 0.033699006 0.087321088
-0.014925614 0.033847436 0.090837859
-0.011408843 0.033748031 0.090837859
-0.0078920722 0.033237278 0.066220477
-0.0043753088 0.033229679 0.066220477
-0.0078920722 0.033208877 0.069737241
-0.0043753088 0.033170313 0.069737241
-0.00085853785 0.033112526 0.066220477
0.002658233 0.032933727 0.066220477
-0.00085853785 0.03305383 0.069737241
