# .PCD v0.7 - Point Cloud Data file format
VERSION 0.7
FIELDS x y z
SIZE 4 4 4
TYPE F F F
COUNT 1 1 1
WIDTH 1380
HEIGHT 1
VIEWPOINT 0 0 0 1 0 0 0
POINTS 1380
DATA ascii
0.053677738 0.012757481 0.79048902
0.055247564 0.012534111 0.79185843
-0.016574983 0.017149257 0.79415882
-0.01341439 0.017674312 0.79118896
0.052727498 0.01790333 0.79201144
0.055448141 0.016274743 0.79473335
-0.012691136 0.022114506 0.79209435
-0.0075024795 0.024267394 0.79023337
0.048756447 0.023046674 0.79037094
0.052040894 0.021050116 0.79361665
-0.007085138 0.026860138 0.79296595
-0.0028397946 0.0284748 0.7913835
0.043505512 0.027425528 0.79072744
0.047190458 0.027301533 0.79295009
-0.0013666659 0.031479098 0.79291111
0.0018683532 0.03281758 0.79130489
0.0050238804 0.033813875 0.79003352
0.038910944 0.033077672 0.79000026
0.042836331 0.032507006 0.79073948
0.046852104 0.032116894 0.79348338
0.0029746192 0.036631655 0.79374671
0.0070792432 0.03763267 0.79184622
0.012035267 0.039367545 0.79088348
0.018059384 0.039247334 0.79092795
0.023023395 0.039145529 0.79085344
0.026766222 0.039339125 0.79031682
0.032865889 0.038562126 0.7902891
0.037491694 0.037541132 0.79112786
0.042398192 0.037380952 0.7922048
0.046148513 0.037312858 0.79411668
0.0089952601 0.041849401 0.79377788
0.012430563 0.042771645 0.79260749
0.0176068 0.042774189 0.79265553
0.022788631 0.042789768 0.79294813
0.027197527 0.042747077 0.79214817
0.032386024 0.042769317 0.79256111
0.037598241 0.042074542 0.79337788
0.041069519 0.041848529 0.79375559
0.013201184 0.04582651 0.79446673
0.017153393 0.046321284 0.79450011
0.022830218 0.046192318 0.79440016
0.027567882 0.046407856 0.79429352
0.030968726 0.045807295 0.79413342
-0.020558748 -0.047025852 0.79645836
-0.018084815 -0.047632754 0.79544938
-0.022509599 -0.04246337 0.79737973
-0.018675324 -0.04437137 0.79533333
0.05398408 -0.044352774 0.79500002
-0.023689358 -0.037822068 0.79763216
-0.027313821 -0.031550992 0.79849702
-0.024611689 -0.033279523 0.79543495
-0.028137032 -0.027670069 0.79720861
0.063091092 -0.025211973 0.79766673
-0.028741524 -0.022591371 0.79681128
0.063066043 -0.022234393 0.79735011
-0.030664861 -0.016326914 0.79853857
-0.029068213 -0.019226778 0.79560012
0.06389121 -0.017808829 0.79835558
-0.030692823 -0.014855015 0.79926682
-0.02905935 -0.011823335 0.79535741
0.063073844 -0.012594722 0.79744858
-0.028095009 -0.0068971631 0.79603338
0.062538952 -0.0083880387 0.79693723
-0.027815299 -0.002766036 0.79685736
0.063154042 -0.002957118 0.79846263
-0.026916133 1.2861817e-05 0.79776675
-0.023918889 0.0029781209 0.79705012
0.061590962 0.0017930905 0.7974931
-0.021940717 0.0074267932 0.79714447
0.058532581 0.0081612887 0.79636669
0.060177743 0.0074417391 0.79848886
-0.020878328 0.012533211 0.79851335
0.057656627 0.01213483 0.7979334
-0.020589348 0.017445585 0.79762888
-0.017943762 0.018516611 0.79578227
0.056474492 0.017842608 0.79875839
-0.016733667 0.021760449 0.7970705
-0.014228856 0.022950664 0.79552639
0.052941322 0.023145305 0.79713738
0.055736527 0.021561043 0.79886675
-0.012138887 0.026713623 0.79741627
-0.0088932114 0.028738726 0.79598105
0.049611822 0.027414402 0.79621673
0.052010201 0.027504077 0.79883337
-0.011317066 0.031242644 0.79945016
-0.0072789886 0.032369398 0.7978915
-0.0028561049 0.033081707 0.79597783
0.049070287 0.032928266 0.7970534
0.051284675 0.032717712 0.79914445
-0.0057236794 0.036805946 0.79914165
-0.0023680576 0.037127431 0.79805928
0.0014989342 0.037924536 0.7961067
0.0050605503 0.039982043 0.79580009
0.047896847 0.03738638 0.79730016
-0.0012531049 0.041277453 0.79938328
0.0019616641 0.042512253 0.7978062
0.0067130942 0.043300055 0.79631114
0.03768649 0.044392053 0.79524446
0.04269661 0.043473374 0.79647785
0.046039164 0.042354289 0.79864454
0.0025254332 0.047355939 0.79889524
0.0072993655 0.047474731 0.79732227
0.012270738 0.047812462 0.79588568
0.018167345 0.048361357 0.79564452
0.022859685 0.048248719 0.79541343
0.026947957 0.048486177 0.79566669
0.032834567 0.047708355 0.79626673
0.037771311 0.047458705 0.79703712
0.041799817 0.047035959 0.79826683
0.0084350947 0.050926805 0.79912508
0.012530078 0.051284235 0.79890007
0.017932104 0.051847354 0.79820615
0.022789748 0.052488148 0.79768491
0.027522789 0.052487906 0.79767895
0.032556545 0.051859144 0.79838794
0.037368406 0.051538855 0.79901117
0.040888682 0.050601706 0.79986668
0.019248078 0.055037867 0.79946673
0.022976443 0.056031067 0.79948884
0.027446212 0.056023296 0.79937774
0.0304159 0.05501033 0.79906678
-0.023260932 -0.04611988 0.80000001
-0.026310565 -0.03579206 0.80200005
-0.026244951 -0.034214649 0.80000001
-0.030811746 -0.02536043 0.80236363
-0.030800186 -0.021620993 0.80206251
0.064809486 -0.021578912 0.80051666
0.066425323 -0.02087331 0.80200005
-0.030791387 -0.018632714 0.80183339
0.066310935 -0.017858848 0.80061907
-0.035307005 -0.011929499 0.80250001
-0.03155759 -0.011925767 0.80227441
0.064835116 -0.012648568 0.80083323
0.066459179 -0.012674228 0.80240875
-0.030786315 -0.0074430592 0.80170149
0.064889401 -0.0081867781 0.80150378
0.065796465 -0.0074577993 0.80346721
-0.030793913 -0.0029705677 0.80189937
0.064842336 -0.0022214991 0.80092227
0.066853568 -0.0026772716 0.80354214
-0.030849904 1.2951945e-05 0.8033573
-0.027378058 0.00257241 0.80197185
-0.024752941 0.0044773617 0.80000001
0.063977711 0.0028098871 0.80177802
0.066504851 0.0022529929 0.80296016
-0.026361451 0.0074871909 0.80355138
-0.024430394 0.007841764 0.8016417
0.062734984 0.0074786488 0.80262226
0.065812737 0.0067406385 0.80365014
-0.026356814 0.012714832 0.80340999
-0.023818327 0.012776532 0.80199564
0.058829442 0.014157481 0.80040568
0.062029276 0.012712345 0.80316401
-0.023313096 0.017662033 0.80178338
0.058513388 0.018269841 0.80118328
0.062031992 0.017942052 0.8032074
0.065092951 0.017959422 0.80401808
-0.017292893 0.023823364 0.80000001
0.057850946 0.022593319 0.80160958
0.062555268 0.022553233 0.80295426
0.065963723 0.021408372 0.80245686
-0.012873825 0.029162072 0.80355561
0.054411873 0.02758936 0.80129993
0.057236731 0.027355144 0.80318344
0.062123954 0.025451085 0.80441123
-0.011361109 0.03360527 0.8025614
-0.0090957675 0.034274466 0.80079484
0.053706318 0.032830995 0.80190557
0.056629043 0.031938504 0.80448896
-0.0081253843 0.037364472 0.80318332
0.04992234 0.03727258 0.80119991
0.052176151 0.037144091 0.80301434
-0.0062377029 0.041866638 0.80354291
-0.0029378398 0.04305537 0.80133748
0.048090577 0.04290127 0.80055332
0.050130028 0.041917056 0.80453342
-0.0023819292 0.047791801 0.80264074
0.00061143254 0.048394222 0.80026662
0.043417927 0.048666101 0.80065554
0.047007862 0.047780238 0.80245185
-0.00088555209 0.05088428 0.80433345
0.0021094761 0.052278914 0.8027482
0.0067778397 0.052751977 0.80143744
0.01256233 0.053653434 0.80099994
0.01553133 0.053586461 0.80000007
0.033443812 0.053599849 0.80019987
0.038962647 0.053168505 0.80116671
0.042709775 0.052451152 0.80253744
0.047080327 0.05159156 0.803689
0.0030146523 0.056573641 0.80438679
0.007351731 0.057523392 0.80301666
0.012587443 0.057491373 0.80256939
0.016931782 0.057661019 0.80209392
0.022275435 0.058427937 0.80107659
0.02731204 0.058600564 0.8016904
0.032398555 0.057454839 0.80203885
0.037291568 0.057501938 0.80270481
0.041823126 0.055314407 0.80348337
0.0084157558 0.061963309 0.80442011
0.012906568 0.061915539 0.80380011
0.017095612 0.062033698 0.8033945
0.022335052 0.062769063 0.80323339
0.027571877 0.062754162 0.80304813
0.032096677 0.06281548 0.80382973
0.036105532 0.062335894 0.80407792
0.022520769 0.066161178 0.80452013
0.027614707 0.065842785 0.80428892
0.030639211 0.06589555 0.80493349
-0.032829553 -0.011606544 0.80597919
0.068199076 -0.01271937 0.80528301
-0.035504986 -0.0074932803 0.8070001
-0.033197675 -0.0074817534 0.80579209
0.067583151 -0.0071156989 0.80688435
-0.035534319 -0.0029905699 0.80766672
-0.033217017 -0.0029852598 0.80626106
0.067585662 -0.0044900486 0.80691606
-0.032564897 0.00051442249 0.8087334
-0.02950827 0.0030196197 0.80764455
0.068199836 0.0022593983 0.80529183
-0.027978649 0.0075181089 0.80697089
0.066690028 0.0080015967 0.80519623
0.065934747 0.012442228 0.80644625
0.066880852 0.015783731 0.8075
0.066690363 0.023978218 0.80519998
0.059221033 0.028490556 0.80573338
0.062076621 0.027658835 0.8076852
0.06540522 0.025560679 0.80787504
-0.012940094 0.033068676 0.80769187
0.058483832 0.033054896 0.80739039
0.060979966 0.030868739 0.80913335
-0.011455717 0.03764743 0.80924445
-0.0099016726 0.038226739 0.80560005
0.054210823 0.038481649 0.80571121
0.056739196 0.037205715 0.80783325
-0.0089170644 0.042545825 0.80698889
0.053001087 0.042350903 0.80709982
0.056490049 0.041431736 0.80966663
-0.0069185505 0.047358487 0.80798662
0.052183386 0.047314733 0.80726099
-0.0021440105 0.052552626 0.80697775
0.047204424 0.053974941 0.80580002
0.05170843 0.052476436 0.80867505
-0.00088909984 0.057097387 0.80755544
0.0016165742 0.058202475 0.80553341
0.039649766 0.059911165 0.80500025
0.042920344 0.057416409 0.80600011
0.046878658 0.056886148 0.80759043
-0.00089102064 0.060984224 0.80930007
0.0019718087 0.062814102 0.80765325
0.0066283965 0.063625082 0.80597144
0.012257038 0.064063847 0.80543339
0.017135648 0.064425759 0.805278
0.038693566 0.06347841 0.80592227
0.042557023 0.062157907 0.80888671
0.045897093 0.060228739 0.80926669
0.0028828979 0.066266671 0.80946672
0.007400394 0.066921227 0.80826664
0.012855611 0.06743563 0.80766666
0.017177513 0.067590229 0.80726671
0.022298882 0.068322353 0.80580002
0.02766913 0.068220891 0.80586672
0.032377549 0.067685269 0.80617505
0.037508599 0.067596078 0.80734444
0.041399878 0.066299424 0.80986679
0.018728277 0.070760645 0.80919993
0.023042874 0.071793661 0.80764431
0.027565598 0.072001487 0.80833328
0.032000236 0.071344301 0.80898666
0.03684777 0.070778139 0.80940008
0.024269635 0.075803243 0.80946678
-0.031860322 0.0022731931 0.81000006
-0.029603466 0.0060419478 0.81024998
-0.017065404 0.028240047 0.81287032
-0.014487733 0.028641423 0.81000006
0.064249329 0.028723117 0.81231028
0.066663757 0.027511975 0.81220436
-0.01637214 0.032095622 0.81353855
-0.01450788 0.032452933 0.81112647
0.063038073 0.032801859 0.81229317
0.066949189 0.030818611 0.81444079
-0.016086616 0.036374696 0.81446683
-0.013772058 0.03778873 0.81228894
0.058981024 0.038016386 0.81069344
0.062366605 0.037612569 0.8131429
-0.016091444 0.042447403 0.81471139
-0.013007598 0.04229705 0.81181484
0.058632653 0.042545132 0.81243813
0.061344214 0.041652121 0.81396687
-0.016080689 0.047719471 0.81416678
-0.013018418 0.047624499 0.81252766
-0.0096639227 0.047979511 0.81086695
0.056955293 0.047405936 0.81234461
-0.016596936 0.051538199 0.81466681
-0.012283537 0.052257676 0.81406683
-0.0075030071 0.052737474 0.81191516
-0.003915526 0.0535364 0.8105002
0.053588819 0.054354522 0.81146663
0.055597406 0.052577972 0.81316674
-0.0064560561 0.05698793 0.81314439
-0.003163228 0.057360951 0.81127793
0.048998259 0.058068939 0.81063354
0.051963743 0.057270728 0.81266677
0.055305943 0.056070559 0.81446677
-0.0054559126 0.060640559 0.81480032
-0.0026001842 0.062548444 0.81250834
0.044486519 0.064134613 0.81106687
0.047573786 0.062455066 0.81211114
0.050753124 0.060620714 0.81453365
-0.0021615366 0.066634603 0.81395561
0.0019175512 0.068402611 0.81182867
0.0074262973 0.069422245 0.81115007
0.011193493 0.06932383 0.81000006
0.043163307 0.068095304 0.81106693
0.047767498 0.067524612 0.81307262
0.002442173 0.071762465 0.8137334
0.0076492806 0.072461434 0.81292117
0.012723552 0.07244961 0.811252
0.017062731 0.07259313 0.81075013
0.020767322 0.073364012 0.8102445
0.02932141 0.073844098 0.81000018
0.032754079 0.073543295 0.81083351
0.037687927 0.072827064 0.81125009
0.042737573 0.072696611 0.81232005
0.047163542 0.072167113 0.81374449
0.0097418018 0.075809799 0.81493342
0.013072675 0.076341607 0.81413335
0.01730586 0.077171586 0.81329638
0.021999462 0.07741975 0.81237781
0.027851351 0.076969728 0.81117046
0.032459751 0.077135377 0.81291848
0.036860399 0.077033475 0.81384176
0.04164638 0.075787045 0.8146891
0.018859427 0.08035101 0.81486684
0.023394842 0.081137098 0.81405723
0.027578827 0.080673911 0.81430006
-0.031450607 0.022865672 0.81900007
-0.025348559 0.023634866 0.81925011
-0.022549883 0.0237383 0.81752002
-0.019231044 0.022865672 0.81900007
-0.029923161 0.025912669 0.81900007
-0.023447644 0.027073897 0.8195653
-0.019202093 0.028154533 0.81776708
-0.023832763 0.030507971 0.8196668
-0.018427961 0.032698803 0.81724268
0.066447869 0.033410005 0.81605422
-0.020777075 0.039659623 0.81973338
-0.018007332 0.037852749 0.81731862
0.064633444 0.038776055 0.81716681
0.066213593 0.037288662 0.81786013
-0.020749241 0.042651623 0.81863528
-0.018418415 0.042557631 0.81683332
0.062692091 0.042930886 0.81668347
-0.020738913 0.047197517 0.81822777
-0.01839688 0.047061056 0.81587416
0.06101951 0.047474809 0.81774598
-0.018423913 0.051691741 0.8170734
-0.013082419 0.053932589 0.81648898
0.057938199 0.052617788 0.8173067
0.060171265 0.051030055 0.81866193
-0.011138795 0.057587661 0.81755251
-0.0079954239 0.058667749 0.81546688
0.053901415 0.059226438 0.81620014
0.056443907 0.058121413 0.81773341
-0.010067191 0.060958091 0.81906688
-0.0071895928 0.06254147 0.81735009
0.052592888 0.062479757 0.81654173
0.055976741 0.062074997 0.81871665
-0.0060904566 0.066685475 0.81829339
-0.0030306738 0.068949416 0.81626672
0.05189243 0.06711404 0.81750214
-0.0054862662 0.070122629 0.81933349
-0.0022365595 0.072865203 0.8180334
0.0017646337 0.074031502 0.81621671
0.0051834928 0.074312091 0.81513339
0.048787754 0.073842965 0.8155334
0.051756129 0.072322704 0.81836718
0.0025346596 0.076567143 0.81897706
0.0072739865 0.077692144 0.81733346
0.012408325 0.07850457 0.8153668
0.038653914 0.078912608 0.81566674
0.042751998 0.077976339 0.81644458
0.047430482 0.077143885 0.81835562
0.051060535 0.076231502 0.81946677
0.0082607381 0.081886128 0.8188417
0.012827422 0.082173228 0.81790382
0.017185295 0.082227215 0.81655008
0.021625901 0.082897171 0.81605339
0.02832368 0.082897119 0.81605327
0.032606501 0.082042076 0.81660002
0.037229873 0.082161188 0.8177852
0.042055845 0.081706166 0.81895012
0.013875115 0.0859093 0.81968886
0.017430589 0.086869039 0.8191483
0.022139922 0.087373093 0.81867886
0.027192591 0.087426431 0.81865788
0.03269529 0.08683493 0.81882977
0.037078958 0.086446702 0.81927633
0.041136697 0.085398525 0.81966662
0.020505877 0.090002023 0.8199333
-0.027731344 0.019891271 0.82200003
-0.030799288 0.024478506 0.82200003
-0.027966542 0.022591641 0.82137781
-0.020809179 0.0221579 0.82100004
-0.026438629 0.027009204 0.82144922
-0.021453088 0.027848363 0.82220805
-0.019254524 0.025944307 0.82000005
-0.025484726 0.032189861 0.82365078
-0.022168746 0.032305114 0.82171828
-0.026019355 0.037583467 0.82436752
-0.022512315 0.037273858 0.82215118
0.066602744 0.039801542 0.82266659
-0.022761738 0.042463407 0.82236755
0.06505616 0.042854816 0.82251114
0.06346038 0.04739872 0.82171088
0.065152831 0.047514375 0.82373339
-0.020864097 0.050544471 0.82316679
0.058749843 0.054935034 0.82013333
0.062207628 0.052002937 0.82201546
0.065200292 0.050616112 0.82433343
-0.016243309 0.055086862 0.82239997
-0.013927035 0.058079623 0.82144988
0.058840584 0.058076758 0.82139987
0.061001644 0.056912575 0.82298881
-0.011381794 0.062705413 0.82199985
0.058306139 0.063049659 0.82249326
0.060490124 0.061250806 0.82299995
-0.010499417 0.066993095 0.82299995
-0.0081797652 0.067615405 0.82126641
0.054178786 0.067924902 0.82039982
0.056597352 0.067307912 0.82217771
-0.010137661 0.070590511 0.82480019
-0.0070401127 0.071898565 0.82220936
-0.0039659296 0.074840873 0.82093322
0.053870883 0.072602153 0.82152867
0.056328818 0.07166028 0.82386672
-0.0055177398 0.075890668 0.82403338
-0.0024411345 0.078042172 0.822474
0.0018510392 0.078785844 0.82066661
0.049093377 0.078885607 0.82064438
0.052815478 0.07732296 0.82297778
0.056007631 0.075193323 0.82480013
-0.0012914006 0.082384996 0.82383335
0.0021600716 0.082582705 0.82198507
0.0059835566 0.083208382 0.82061833
0.042708915 0.083959058 0.8204999
0.047582354 0.082700036 0.82176954
0.051326375 0.08199209 0.82373339
0.0024736382 0.0864802 0.82415998
0.0077400426 0.087096803 0.82260603
0.012362902 0.087550484 0.8207776
0.038113382 0.088527128 0.82039988
0.042199831 0.087524705 0.82121885
0.047246084 0.087158807 0.82319397
0.009341809 0.090998955 0.82435554
0.013054006 0.092128217 0.82256663
0.017479243 0.092460506 0.82143873
0.022070544 0.093203798 0.82125908
0.027608676 0.092970878 0.8212716
0.032789405 0.092225268 0.82119375
0.037407558 0.092489809 0.82169431
0.042072576 0.091871589 0.8230074
0.046121851 0.091376089 0.82406676
0.012929464 0.095859632 0.82439947
0.017532622 0.09733963 0.82394177
0.0221375 0.097316355 0.82374448
0.027195921 0.097244896 0.82406676
0.032902103 0.096198492 0.82401681
0.037537683 0.096644737 0.8245557
0.041623741 0.095588863 0.82426673
-0.028124914 0.028695628 0.82600003
-0.027897894 0.032314401 0.82685012
-0.030288521 0.03702376 0.82900006
-0.028064003 0.037250891 0.82719815
-0.025554836 0.043031674 0.82591671
-0.024012391 0.043796524 0.82584441
0.06763728 0.043437637 0.82781333
0.07023757 0.044753302 0.82935315
-0.025588354 0.046933904 0.82700002
-0.023098428 0.047350764 0.82620013
0.06765148 0.047650646 0.82610005
0.071231358 0.047813803 0.82891679
-0.021772325 0.051642075 0.82850003
-0.019418893 0.053856604 0.82700002
0.063750423 0.053756751 0.82546675
0.066612251 0.051966663 0.82753348
-0.014773907 0.059937555 0.82600009
0.063089855 0.057692517 0.82688344
0.065558858 0.055520039 0.8288669
-0.014179145 0.063408002 0.82717353
0.061688371 0.063373275 0.82670671
-0.013257327 0.06773293 0.82738107
0.059154201 0.067602433 0.82577777
0.061227072 0.067379571 0.82776672
-0.011458695 0.072363794 0.82753342
-0.0086028744 0.073688842 0.8251335
0.058628418 0.072628699 0.82704002
0.060945794 0.071738735 0.82920021
-0.010188191 0.077111296 0.8289113
-0.0072718584 0.077489525 0.82678336
0.054047149 0.079417266 0.82617784
0.057538915 0.077357799 0.82744181
-0.0061682002 0.082345203 0.82882679
-0.0033754681 0.083310857 0.82617331
0.05352949 0.0833297 0.82723814
0.05702712 0.082458735 0.82842857
-0.0020152521 0.087565824 0.82779056
0.001785785 0.08874733 0.82599998
0.0052479305 0.089052305 0.8252666
0.049870703 0.089030728 0.8250668
0.053122327 0.087781109 0.8277483
0.056295082 0.087146096 0.82903349
-0.00091322331 0.091048472 0.82946676
0.0023688595 0.092225388 0.8279044
0.0069678086 0.092608564 0.82655561
0.048384007 0.092456132 0.82595557
0.051862478 0.092448719 0.82818884
0.003212152 0.096199669 0.82953352
0.0077928766 0.096928336 0.82816243
0.012959915 0.098651022 0.82637119
0.017574767 0.099877685 0.82592267
0.022202529 0.099905871 0.82615548
0.028046388 0.099562421 0.82585371
0.032962915 0.099063069 0.82553345
0.037602287 0.099116363 0.8259778
0.04223793 0.09772332 0.82625717
0.046770506 0.096862532 0.82805002
0.050920639 0.095696583 0.82963347
0.0099161565 0.10031256 0.82951862
0.012999497 0.10125595 0.82881784
0.017830018 0.1031227 0.82884455
0.022249004 0.10319887 0.82791114
0.027641155 0.10315255 0.82753891
0.033032764 0.10311911 0.82726866
0.037697993 0.10322056 0.82808155
0.042559072 0.10195591 0.82875848
0.045466494 0.10024178 0.82893354
0.022596132 0.10707492 0.82930678
0.027305285 0.10738999 0.82905853
0.032666273 0.10732063 0.82916206
0.037751861 0.10722392 0.82926685
0.040874559 0.10652947 0.82986677
-0.030325059 0.035524461 0.83000004
0.070320599 0.043261629 0.83033335
-0.02574306 0.049539186 0.83200002
-0.024133217 0.049420096 0.83000004
0.071926884 0.046388004 0.83100003
-0.025789471 0.052728504 0.83350003
-0.023169281 0.053180162 0.83244944
0.068031758 0.053327478 0.83074069
0.070450269 0.052626446 0.83186442
-0.02225888 0.05766065 0.83433872
-0.018185183 0.057491813 0.83228403
0.064208649 0.058782838 0.83139986
0.067540988 0.05746188 0.83185202
0.070536308 0.057338823 0.83288044
-0.022196287 0.061092068 0.83477753
-0.018010888 0.062010646 0.83320749
0.064213797 0.062654279 0.83146656
0.067450561 0.06200476 0.83313012
0.070602901 0.060493886 0.83366674
-0.017573718 0.06646347 0.83351427
-0.014900306 0.069748335 0.83306688
0.063609838 0.068393789 0.83166677
0.067326196 0.067236997 0.83334821
0.070587844 0.06668327 0.83348894
-0.013317252 0.073461555 0.83123344
0.063136376 0.072961807 0.83184761
0.067543581 0.072954692 0.83428901
0.070693217 0.072216973 0.83473337
-0.012170923 0.07704246 0.83233333
0.059461422 0.078761682 0.83006674
0.062287867 0.07721062 0.832362
0.067546904 0.076062471 0.83433342
0.070670202 0.076074176 0.83446157
-0.010238991 0.082145102 0.83304453
-0.0082820011 0.082380474 0.83151668
0.059129938 0.082698412 0.83084196
0.061894197 0.081892669 0.83363992
-0.0068242536 0.086515471 0.8333599
-0.0040216469 0.089055941 0.83246672
0.058512654 0.087819792 0.83228576
0.061362326 0.085429154 0.83486658
-0.0022121633 0.092946284 0.83264798
0.00063435361 0.094225176 0.83026677
0.054483939 0.0931364 0.83088332
0.057190709 0.092682034 0.83305329
-0.0014367383 0.096670806 0.83359772
0.0016693072 0.098020963 0.83188885
0.0052784551 0.098834746 0.8300668
0.048652153 0.098890305 0.83053339
0.052101552 0.098029554 0.83259046
0.055852927 0.096196435 0.83396655
0.0032273503 0.10130212 0.83342218
0.0074142115 0.10240629 0.83283895
0.012639689 0.10315056 0.83062476
0.047390718 0.10237423 0.83215833
0.05120346 0.10243708 0.83424431
0.0099769393 0.10636143 0.83460313
0.013261971 0.10676741 0.83321905
0.017693765 0.10777455 0.83152282
0.021931997 0.10931608 0.83051211
0.026965775 0.10970061 0.83050001
0.032440368 0.10987893 0.83184999
0.037854321 0.10983416 0.8315112
0.04248172 0.10702332 0.83102965
0.04681984 0.10675447 0.83334285
0.014644764 0.11022896 0.83449996
0.017743705 0.11195607 0.83387285
0.022382656 0.11233756 0.83286524
0.027047561 0.11235698 0.83300883
0.032272059 0.1122582 0.83419585
0.037981704 0.11311533 0.83431661
0.042849801 0.11196601 0.83442491
0.045777317 0.11024217 0.83459979
-0.025835885 0.052824333 0.83500004
-0.025853075 0.057522774 0.83555555
-0.024278598 0.056707483 0.83500004
-0.025897766 0.060735762 0.83700001
-0.022986909 0.06267789 0.83521312
-0.022341656 0.066774659 0.837412
-0.01844833 0.068781048 0.83543319
0.069164053 0.069915786 0.83506674
0.070740901 0.069935016 0.83529621
-0.021269469 0.070258498 0.83915985
-0.017924035 0.072720177 0.83827841
-0.014969069 0.073185585 0.83691102
0.071824588 0.072050497 0.8358174
-0.017200436 0.077439144 0.83916008
-0.013417652 0.07868892 0.8375001
0.064540714 0.078518949 0.8356998
0.067793168 0.078343265 0.83737141
0.070890814 0.078647405 0.83706641
-0.018150331 0.081234515 0.8396666
-0.012483416 0.082281321 0.83760005
0.064153939 0.082797512 0.83573329
0.067936361 0.08252199 0.83913767
0.071053095 0.082729675 0.83898258
-0.010824755 0.086292356 0.83822227
-0.0082068788 0.088242806 0.83699989
0.063256085 0.087371707 0.83673334
0.06759119 0.086315311 0.83970994
0.071122333 0.085933991 0.83980006
-0.0067258137 0.091719024 0.83760005
-0.0040369146 0.094056539 0.83562672
0.059590183 0.09303353 0.83621329
0.062967613 0.091799445 0.83808333
-0.0061366088 0.096982308 0.8385222
-0.0030019153 0.09856233 0.8364889
0.057040956 0.098514684 0.83671433
0.061147232 0.097041249 0.83903342
-0.0020958486 0.10172608 0.83798337
0.0016801875 0.10332356 0.8372333
0.053659838 0.10267147 0.83615559
0.056914866 0.10291543 0.83814079
0.060144354 0.10153168 0.83960003
0.0029859217 0.10763506 0.83847785
0.0071868836 0.10747254 0.83599728
0.011543905 0.10878824 0.83535707
0.048958737 0.10806451 0.83576649
0.052178238 0.10749532 0.83738524
0.055435754 0.10697731 0.83943331
0.0032502918 0.1113852 0.83931112
0.0068945433 0.11229894 0.83835554
0.012138144 0.11230211 0.83732206
0.016216371 0.11344032 0.83528572
0.024004914 0.11499145 0.83526647
0.027120482 0.11499145 0.83526665
0.033346545 0.11341959 0.83513331
0.038015857 0.1149639 0.8350665
0.041130681 0.11496392 0.8350665
0.047619253 0.11220017 0.83617491
0.051458996 0.1123057 0.83841115
0.0076856092 0.11556052 0.83940005
0.012574748 0.11650486 0.83916861
0.0178193 0.11684843 0.8374294
0.0222845 0.11691031 0.83648324
0.027333431 0.11723235 0.83646655
0.032618344 0.11748824 0.83644152
0.038058996 0.11820551 0.83601469
0.042767096 0.11751141 0.83660668
0.047536597 0.11694964 0.83815551
0.050729003 0.11554217 0.83926672
0.014740115 0.12032123 0.8399334
0.017857559 0.12022257 0.83924437
0.023064883 0.12224892 0.83886677
0.027071904 0.12261719 0.83815157
0.032657433 0.12308213 0.83745557
0.03812309 0.1230778 0.83742213
0.042660762 0.12262769 0.83834165
0.046814252 0.12022097 0.8392334
0.024117958 0.12646046 0.83920014
0.026857182 0.1268535 0.83921683
0.0319441 0.12646382 0.83922225
0.037158068 0.12645042 0.83913332
0.041370381 0.12657097 0.83993334
-0.024459515 0.068084106 0.84122223
-0.023109186 0.0722619 0.84203398
-0.019735884 0.073497675 0.84049988
-0.026052471 0.075195119 0.84200001
-0.022775685 0.077352226 0.84223843
-0.017779117 0.078198805 0.84061444
-0.02214276 0.0815183 0.84259999
-0.017097641 0.083005905 0.8417843
-0.013468383 0.084458873 0.84066659
0.068043813 0.08365719 0.84046656
-0.015093528 0.086350381 0.84386957
-0.012452693 0.088308834 0.84258193
0.068409793 0.088571534 0.84110582
0.071190082 0.087579526 0.84060001
-0.011157631 0.092612796 0.84371114
-0.0087634344 0.093045309 0.84053338
0.064924337 0.093841694 0.84066647
0.067483366 0.092562221 0.84325093
-0.010380203 0.095844261 0.84453338
-0.0083917202 0.097568683 0.84246665
0.06345205 0.097507618 0.84193331
0.065960869 0.096557401 0.84390008
-0.0065775304 0.10208589 0.84158671
-0.002809471 0.1042307 0.84121335
0.061888792 0.10260692 0.8420167
-0.0062777949 0.10639615 0.84349346
-0.00249944 0.10812834 0.84231865
0.00064190914 0.10785013 0.84015554
0.05759085 0.10824777 0.84150475
0.061213385 0.10828618 0.84354448
-0.0056581334 0.11082995 0.84499991
-0.0023062015 0.11277774 0.84340012
0.0016873152 0.11312294 0.84062201
0.05397357 0.11265876 0.84104443
0.057057887 0.1127431 0.84314179
-0.0009292243 0.11697949 0.84400004
0.0022125191 0.1174747 0.84191841
0.0066946745 0.11783464 0.84129536
0.012023887 0.11861007 0.84165007
0.052672654 0.11770307 0.84215826
0.056170784 0.11745487 0.84459984
0.003794485 0.12095153 0.84433335
0.0073317429 0.12125352 0.84370005
0.012221503 0.12248295 0.84307271
0.017894166 0.12281311 0.84094447
0.0210144 0.12271382 0.84026659
0.044517476 0.1234853 0.84019989
0.047935955 0.12252398 0.8412571
0.052092195 0.12213715 0.8432191
0.013462834 0.12674718 0.84407616
0.017919995 0.1269086 0.84217042
0.022144793 0.12757878 0.84068567
0.027299916 0.12879102 0.84082216
0.032005426 0.12826903 0.84082204
0.037652779 0.12796326 0.84086668
0.043569069 0.12741369 0.84205562
0.047397468 0.12690549 0.84363824
0.051059444 0.12572296 0.84473336
0.014829034 0.1304782 0.84499991
0.018485455 0.13137998 0.84405565
0.02265959 0.13196346 0.8431834
0.027573671 0.1319603 0.84316683
0.032106634 0.13181382 0.8434816
0.037160475 0.13172863 0.84393996
0.041593909 0.13219158 0.84446663
0.024284655 0.13519382 0.84499991
0.027436513 0.13519382 0.84499991
0.032557014 0.13558146 0.84496653
0.038465038 0.13518316 0.84493321
0.041616689 0.13518316 0.84493321
-0.026145294 0.077034906 0.84500003
-0.021468179 0.083519556 0.84700006
-0.021468181 0.085095145 0.84700006
-0.016730318 0.087459981 0.84702289
0.071575738 0.089626111 0.84515387
-0.01517645 0.093137711 0.8485058
-0.013552689 0.092855603 0.84592849
0.07077416 0.092958882 0.84686583
-0.01518556 0.097932123 0.84901518
-0.012183482 0.097857155 0.84665757
0.067487516 0.098177008 0.84658432
0.071644321 0.098047853 0.84829932
-0.011622636 0.10147604 0.84893346
-0.008832477 0.10244664 0.84715563
0.063713171 0.10380571 0.84540004
0.066536196 0.10200769 0.84787792
0.073510408 0.10270462 0.84929514
-0.0083108544 0.10721901 0.8475334
0.063726567 0.10697321 0.84557778
-0.0067356606 0.1120427 0.84824467
-0.0040860609 0.11486828 0.84579986
0.058959868 0.11476869 0.84506649
0.062467139 0.11230557 0.84680957
-0.0056788903 0.11597046 0.84810019
-0.0027775711 0.11822312 0.84728903
0.05842204 0.11841369 0.84640008
0.06145845 0.11726028 0.84846687
-0.00093494949 0.12243915 0.84920025
0.0020306699 0.12323231 0.84785849
0.0066440613 0.12375753 0.84633332
0.054280896 0.12352721 0.84583336
0.05753611 0.12295098 0.84728163
0.060855918 0.12169649 0.84953362
0.0030235369 0.12636296 0.84903365
0.0069723409 0.12776898 0.84787422
0.01105957 0.12811723 0.84601337
0.049532823 0.12820652 0.84556663
0.05296988 0.12782061 0.84691679
0.05660012 0.12689458 0.84906691
0.0085743908 0.1312297 0.84986681
0.012846828 0.13205571 0.8479144
0.016962269 0.13335395 0.84662223
0.044407777 0.13213922 0.84556663
0.048024401 0.13232403 0.84674823
0.052107539 0.13188079 0.84896696
0.018577114 0.13676901 0.84826678
0.022558039 0.13724564 0.84674168
0.027471835 0.1371402 0.84609169
0.031877168 0.13783099 0.84574664
0.03673064 0.13709545 0.84581661
0.042738564 0.13750574 0.84632605
0.047885962 0.13702239 0.8478002
0.019661756 0.14065999 0.84953362
0.023204418 0.14092234 0.8487336
0.027547307 0.14126377 0.84841138
0.032282621 0.14200474 0.84811872
0.037030265 0.14201199 0.84816325
0.042565372 0.14200383 0.84811687
0.047117304 0.14116476 0.84940022
0.033931915 0.14544654 0.84980023
0.036303736 0.14542371 0.84966695
0.041820943 0.14532103 0.84906691
-0.018710215 0.088018298 0.85088646
-0.017957997 0.091687933 0.85177857
0.072106503 0.093458354 0.85142106
-0.017631607 0.097534016 0.85243887
0.073585279 0.096482843 0.85016006
-0.016448893 0.10194734 0.85287738
-0.012382969 0.10400702 0.85219699
0.068341859 0.10392669 0.85067779
0.071353279 0.1030224 0.85191113
-0.01527472 0.10645027 0.85400003
-0.011439757 0.10727315 0.852965
-0.008862827 0.10912257 0.85006678
0.067178555 0.10756667 0.85183346
0.073359579 0.1069412 0.85369015
-0.010507622 0.1113333 0.85490018
-0.0084841372 0.11290695 0.85177499
0.06669455 0.11270851 0.85327226
-0.007566357 0.11738699 0.85266668
0.064115129 0.11712139 0.85073346
0.065872528 0.11742493 0.85294443
-0.0061177551 0.12196362 0.85416675
-0.0034781774 0.12226987 0.85131997
0.063080944 0.12228442 0.85205239
0.065956622 0.12075245 0.85403341
-0.0015745156 0.12655325 0.85243332
0.0022365705 0.12849174 0.85092777
0.058262795 0.12841028 0.85214162
0.061757047 0.12666945 0.85321999
0.0026414883 0.1317921 0.85350835
0.0068039992 0.13326167 0.85147911
0.011354964 0.13407928 0.85039169
0.053456113 0.1334635 0.85151672
0.057588898 0.13146368 0.85395014
0.0038406244 0.13514 0.85460013
0.0076611512 0.13760254 0.85409343
0.012568541 0.13792403 0.85214996
0.017040323 0.13870908 0.8504889
0.049835455 0.13927619 0.85073322
0.05264964 0.13748467 0.85223812
0.013211955 0.142591 0.85373336
0.017920664 0.1427705 0.85151243
0.022537403 0.1433415 0.85044014
0.027609849 0.14395607 0.85033339
0.048597816 0.14284948 0.85128003
0.051628508 0.14261436 0.85414171
0.0149975 0.14626808 0.85460019
0.018571367 0.14656839 0.85403341
0.023118744 0.14736247 0.85287505
0.027680891 0.14750139 0.85252964
0.032208666 0.14750007 0.85138321
0.037410457 0.14780501 0.85167134
0.041968167 0.14821108 0.85205549
0.046604615 0.14743344 0.85328758
0.029344346 0.15104903 0.85466683
0.032510538 0.15174249 0.85409456
0.037314225 0.15184419 0.85466689
0.041688636 0.15141261 0.85447514
-0.01770496 0.10351293 0.85598356
-0.016127095 0.10522059 0.8569231
-0.01265147 0.10883061 0.85606354
0.069250122 0.10980294 0.85536677
0.072173223 0.1086081 0.85597789
-0.01182061 0.11263007 0.85751611
0.069376059 0.11319041 0.85692233
0.072304189 0.11259813 0.85847843
-0.010542943 0.11809062 0.85777378
-0.008921911 0.11940096 0.85573369
0.068598621 0.11800792 0.85717779
0.071559161 0.11747946 0.859146
-0.0082999524 0.12313523 0.85734683
0.067833558 0.12285159 0.85760015
-0.0063910885 0.12749214 0.85876006
-0.0037410192 0.12794295 0.85696673
0.064108051 0.12778869 0.85593355
0.066738367 0.12744254 0.85896671
-0.0013430766 0.13189766 0.85676676
0.0011858355 0.13325582 0.85611129
0.058947962 0.13302515 0.85633349
0.062499985 0.13189158 0.85758895
-0.00094617944 0.1358991 0.85939997
0.0022544269 0.13727418 0.8580001
0.0062397961 0.13850832 0.85576683
0.054898027 0.13766161 0.85545027
0.058013663 0.13695772 0.85726672
0.061524495 0.13581477 0.85886663
0.003328183 0.14124644 0.8595112
0.0068555316 0.14227371 0.85806674
0.011028241 0.14408538 0.85580039
0.053330109 0.14330271 0.8558836
0.056698341 0.14215207 0.85854286
0.0081333267 0.14597885 0.85913342
0.011625309 0.14727771 0.85782868
0.017085727 0.1491102 0.85657161
0.021406213 0.14968067 0.85593361
0.048532404 0.14964572 0.85573363
0.051574368 0.14781938 0.85700959
0.05568001 0.14600897 0.85931128
0.01268116 0.15113044 0.85965019
0.01747077 0.15255791 0.85868329
0.023035331 0.15308847 0.85717785
0.027616087 0.15320067 0.85669184
0.032578629 0.15444928 0.85588914
0.037358835 0.15441319 0.85568905
0.042490661 0.15386614 0.85618675
0.046998706 0.15303186 0.85685939
0.051909346 0.15177646 0.85878092
0.01748866 0.15511294 0.85956675
0.023497643 0.15709056 0.8594501
0.028081011 0.15795258 0.85869998
0.032650169 0.15797894 0.85775566
0.03746175 0.158032 0.85804451
0.042300839 0.15817331 0.85881484
0.046058405 0.1571781 0.85920006
0.050347071 0.15509489 0.85946679
0.028714199 0.16232708 0.85966676
0.032713924 0.16228299 0.85943347
0.038343027 0.16156511 0.8598668
0.076143049 0.11294895 0.86115563
-0.012238204 0.11901882 0.86452019
0.073786199 0.11703645 0.86176258
0.076365083 0.11649175 0.86366671
-0.011410256 0.12199049 0.86279058
0.069711588 0.12495039 0.8610667
0.072575659 0.12143227 0.86168438
-0.011019145 0.1273424 0.86370844
-0.0085772686 0.12856965 0.86116672
0.069138415 0.12860151 0.86192018
0.071487263 0.1260511 0.86311674
-0.010622744 0.13023779 0.86426675
-0.0068501774 0.13268012 0.86272234
-0.003518119 0.13329688 0.86117333
0.064332277 0.13397197 0.86071128
0.067990474 0.13272333 0.86250478
0.071603224 0.13107993 0.86451685
-0.0065925503 0.13585159 0.86418355
-0.0025604358 0.13779123 0.86290568
0.00065783481 0.13935538 0.86099994
0.06289304 0.13797675 0.86114168
0.067529261 0.13688795 0.86396128
-0.00095091341 0.14220223 0.86370015
0.0017286203 0.14319588 0.86162227
0.05843861 0.14409326 0.86059988
0.061786141 0.14280683 0.86249632
0.06513004 0.14148082 0.86420023
0.0030695163 0.14752953 0.86196667
0.006541614 0.14781754 0.86053348
0.057425261 0.14797415 0.86144447
0.061308876 0.14722882 0.86333901
0.0034767673 0.15216984 0.86327505
0.0070864293 0.15230343 0.86175936
0.01124763 0.15270039 0.86038673
0.053615205 0.15367469 0.8604669
0.056532394 0.15229252 0.86299533
0.060280833 0.15109135 0.8640002
0.0075009763 0.15617478 0.8632251
0.012109826 0.15691993 0.86180001
0.017511126 0.15723336 0.86066675
0.022311537 0.15840296 0.86006677
0.026319636 0.15999036 0.86000019
0.048251022 0.15789427 0.86020017
0.052069228 0.15705176 0.86142856
0.013555796 0.16159438 0.86430013
0.017762464 0.16187304 0.86228186
0.023126138 0.16169344 0.86054826
0.027292218 0.16389152 0.860322
0.032743953 0.16483231 0.86022234
0.037173461 0.16290699 0.86061674
0.042401075 0.16255224 0.86085558
0.047269359 0.16192828 0.86179262
0.051216185 0.16189134 0.8633067
0.018373273 0.16545826 0.86348897
0.0227316 0.16628458 0.86300963
0.027992271 0.16760181 0.86211973
0.032803684 0.16753793 0.86179036
0.037453316 0.1666638 0.86244905
0.042507529 0.1661713 0.86301666
0.04576968 0.16552426 0.86383355
0.028061368 0.17083007 0.86425436
0.032888919 0.17037897 0.86400586
-0.016353359 0.11478604 0.86900002
-0.013118185 0.11726505 0.86940324
0.074913017 0.11915372 0.86549991
-0.013385244 0.12288756 0.86914414
0.073331326 0.12323293 0.86588335
0.07514739 0.12356439 0.86820805
-0.012831453 0.12761614 0.86831075
0.072996445 0.12778185 0.86669171
0.07527943 0.12944375 0.86973339
-0.016627515 0.13313736 0.86920261
-0.012483351 0.13253678 0.86747146
-0.0090219975 0.13361797 0.8653335
0.072967924 0.13256712 0.86635846
0.075887352 0.13232338 0.86740917
-0.011493355 0.13582361 0.86914718
-0.0077444725 0.13739325 0.86680681
0.068432607 0.13842566 0.86520016
0.071819827 0.13685159 0.86712235
0.075932458 0.13725002 0.8679297
-0.0058228541 0.14074729 0.8696
-0.003036835 0.14246613 0.86740482
0.067261964 0.14201079 0.86743337
0.070294507 0.14053148 0.8682667
-0.0017671632 0.14704934 0.86860836
0.00066180801 0.14744827 0.86620009
0.062835872 0.14900738 0.86590016
0.065821014 0.1465423 0.86799169
-0.00095766637 0.15049338 0.86983335
0.0014700124 0.15166563 0.86730003
0.058781505 0.15379578 0.86565018
0.062401168 0.15268819 0.8678571
0.0038965759 0.15727107 0.86705005
0.0071270005 0.15853392 0.86661118
0.010342697 0.15934841 0.86520022
0.053959999 0.15949574 0.86600018
0.057273149 0.15730356 0.86723346
0.061456889 0.15604854 0.86923337
0.0079576708 0.1616804 0.86908334
0.011517051 0.16312139 0.86691916
0.015182351 0.16416407 0.8651334
0.053613499 0.16329485 0.86692512
0.055794355 0.16255091 0.86941671
0.013084096 0.16698945 0.86866665
0.016851729 0.1682146 0.86803895
0.022463348 0.16915479 0.8659668
0.039380066 0.16897248 0.86503345
0.042665586 0.16920255 0.86621124
0.047774173 0.1680105 0.86732507
0.052280631 0.16762367 0.86876184
0.055767622 0.16651435 0.8689999
0.018502949 0.17227805 0.8695333
0.022523405 0.17283471 0.8682639
0.028146256 0.17351854 0.86684132
0.033030245 0.17354222 0.86776382
0.037849531 0.17256609 0.86691093
0.042756718 0.17279533 0.86806673
0.047687989 0.17306755 0.86943698
0.023358941 0.17625386 0.86919999
0.028220482 0.17765714 0.8691417
0.033896692 0.17706592 0.86921722
0.037718356 0.17741491 0.86922848
0.042585939 0.17743242 0.86931425
-0.020488963 0.11769278 0.87257147
-0.017472547 0.11738598 0.87286937
-0.013973864 0.11926657 0.87221748
-0.020534249 0.12039274 0.8745001
-0.017264647 0.12196195 0.87408489
-0.013967711 0.12489097 0.87183338
-0.01678974 0.12745854 0.87356895
-0.013960768 0.12725952 0.8714
0.075906992 0.12797225 0.8707239
-0.017211933 0.13163283 0.87138337
-0.012340968 0.137863 0.87181139
-0.0090779522 0.13930565 0.87069994
0.072921693 0.13929498 0.87063342
-0.0071439696 0.14248984 0.8723467
0.068886109 0.14420329 0.87093353
0.072226644 0.14249571 0.87204438
0.07628154 0.14193463 0.87191719
-0.0058583436 0.14730126 0.87489998
-0.0038070416 0.14804669 0.87210006
0.068302788 0.14791051 0.87177342
0.070753291 0.14632566 0.8739332
-0.0022648652 0.15234724 0.87304002
0.00066546252 0.1531233 0.87098336
0.067165099 0.15233894 0.87229162
0.0014799185 0.15751298 0.87286109
0.06300237 0.15788402 0.87192219
0.066386312 0.15657181 0.87365538
0.00351801 0.16209634 0.87349993
0.0059453715 0.16246141 0.87110013
0.058327004 0.1620208 0.8709113
0.061354972 0.16210467 0.87354982
0.0076415827 0.16700777 0.87278092
0.010948128 0.16789646 0.87057799
0.05259876 0.16998169 0.87020016
0.058051325 0.16731915 0.87199038
0.060977768 0.16747123 0.87398881
0.0088215703 0.1707956 0.87436664
0.012058054 0.1720818 0.87263328
0.016372556 0.1726193 0.8712557
0.052627817 0.17277367 0.87067425
0.057625994 0.17206815 0.87257034
0.061041322 0.17089982 0.87490004
0.013172922 0.17625768 0.87456661
0.016746257 0.17725347 0.87312496
0.021550115 0.17869647 0.87097168
0.026093856 0.17917754 0.87031126
0.032484017 0.17877772 0.87046683
0.038808055 0.17971475 0.87030005
0.043699324 0.17980424 0.8707335
0.047759309 0.178185 0.8707335
0.052937359 0.17727411 0.87194288
0.05646513 0.17672405 0.87351662
0.018190566 0.18170212 0.87401664
0.021806493 0.18249469 0.87197775
0.027694343 0.1829821 0.87113959
0.033171974 0.18319842 0.87146682
0.037803732 0.18267922 0.87120014
0.042898428 0.18228041 0.87095577
0.047820274 0.18246442 0.87183338
0.052272066 0.18151438 0.8737666
0.021855691 0.18615639 0.87393874
0.026925378 0.18721262 0.87317485
0.032440025 0.18771924 0.87364435
0.038464922 0.18623838 0.87355983
0.043012947 0.1860158 0.87327766
0.047622144 0.18604383 0.87417328
0.051255051 0.18556124 0.87496668
-0.021365307 0.12210949 0.87514377
-0.020597646 0.12565973 0.87720001
-0.017699735 0.12744707 0.87546456
-0.012431024 0.14212784 0.87812084
-0.0083132777 0.14416957 0.87565011
0.072510153 0.14495391 0.87546664
-0.0085048713 0.14742184 0.87852669
0.0732309 0.14747888 0.87756664
0.076918155 0.14638907 0.87919164
-0.006698709 0.15190989 0.87801677
-0.0034136651 0.1539371 0.87561667
0.06922093 0.15467207 0.87516671
0.071477868 0.15146604 0.87781668
-0.0058910032 0.15712382 0.87977761
-0.0026023909 0.15746227 0.87710422
0.068122573 0.158216 0.87676674
0.071228251 0.15549096 0.87979984
-0.0022798539 0.16156659 0.87902004
0.0013229081 0.16334847 0.87629336
0.063730121 0.16328715 0.87596673
0.067610651 0.16188598 0.87897778
-0.00096808851 0.16521655 0.87929988
0.0023073016 0.16746725 0.87823337
0.0055777552 0.16888914 0.87713349
0.063639022 0.16803961 0.87695569
0.066680826 0.1664499 0.87933314
0.0039493809 0.17084423 0.87879997
0.0072125862 0.17297637 0.87717628
0.062857881 0.17303279 0.87746197
0.066320784 0.1710775 0.87999976
0.0077721979 0.17736655 0.8787182
0.011568584 0.17830078 0.87661123
0.058897901 0.17816207 0.87699336
0.062592506 0.17670472 0.87949151
0.0088700587 0.18154697 0.87917227
0.012140522 0.18305996 0.87858146
0.016031038 0.18290129 0.87625343
0.054069947 0.18371277 0.87650013
0.057827488 0.18288608 0.8787291
0.061397169 0.18008088 0.87999976
0.01325079 0.1871178 0.87973315
0.017042859 0.18782122 0.87791866
0.021914275 0.18910424 0.8763001
0.034975406 0.18902509 0.87593341
0.0382539 0.18908024 0.87618893
0.043145675 0.18903227 0.87596673
0.048496187 0.18878895 0.87672514
0.053078741 0.18786585 0.87812865
0.056452133 0.18737637 0.87966645
0.018298116 0.19258897 0.87918323
0.021968594 0.1928322 0.87842602
0.026845451 0.19256179 0.87719274
0.031757619 0.19258301 0.87728906
0.037292767 0.19259891 0.87804246
0.042924304 0.1929315 0.87813693
0.048165102 0.19276649 0.87812978
0.051509544 0.19302632 0.87931103
0.02241757 0.19685236 0.87996644
0.026910271 0.1974642 0.87930471
0.031436857 0.1968077 0.87976646
0.036769517 0.19705471 0.87977314
0.042494643 0.19795527 0.87941104
0.048215751 0.19787389 0.8790518
0.051549904 0.19645056 0.87999976
0.043880846 0.20267965 0.87979984
0.048197247 0.20270304 0.87871861
0.051526468 0.20208822 0.87959981
0.043870598 0.20672309 0.87959605
0.048217654 0.20605874 0.87908882
-0.015769783 0.14352365 0.88167858
-0.014112793 0.14421304 0.88088876
-0.012480042 0.14759485 0.8815071
0.078294471 0.14871092 0.88083804
-0.011505719 0.15234672 0.8824476
-0.0091787362 0.15231587 0.8803665
0.073940828 0.15272644 0.88083982
0.077994056 0.1526141 0.88208735
-0.010862105 0.15618742 0.88374084
-0.0083753653 0.15753761 0.88208914
0.073331125 0.15788354 0.88287914
0.07819967 0.15729395 0.88441467
-0.0064571626 0.16141854 0.88237762
-0.0037087358 0.1633448 0.88096648
0.069637485 0.16297305 0.88043308
0.072497949 0.16201526 0.88325346
-0.0026167133 0.16731705 0.8817482
0.069112517 0.16771369 0.88210666
0.071535893 0.16602449 0.88360012
-0.0015234061 0.1716115 0.88415557
0.001846383 0.17240712 0.88141423
0.067544051 0.17222309 0.88167769
0.0028678114 0.17679574 0.88266701
0.0055986336 0.1777097 0.88041657
0.064226881 0.17815875 0.88128883
0.066599645 0.17755198 0.88370007
0.0039729048 0.18090644 0.88403451
0.006779856 0.18229505 0.88165617
0.063385084 0.18232596 0.88195157
0.0085045593 0.1870306 0.88382846
0.011081888 0.18798335 0.88123322
0.054836486 0.18991704 0.88006645
0.05919794 0.18726783 0.88146669
0.062417876 0.18722709 0.88281673
0.012672377 0.19196932 0.88304764
0.01627294 0.19328646 0.88049978
0.054053579 0.19250605 0.88067484
0.057293631 0.19175756 0.88250667
0.060051329 0.19166452 0.88435006
0.013873141 0.19581716 0.88453346
0.016890811 0.19742045 0.88224274
0.021693479 0.19919369 0.88054645
0.026933763 0.19973965 0.88006651
0.031871796 0.19900993 0.88045812
0.036799133 0.19942491 0.88048315
0.053029571 0.19740836 0.88184434
0.055949204 0.19667307 0.88468349
0.01837148 0.20157224 0.88271427
0.022048334 0.20336977 0.88161194
0.026961539 0.20322417 0.88097847
0.032173604 0.20235279 0.88228095
0.03688636 0.20277636 0.88259441
0.041183669 0.20341271 0.880611
0.052860349 0.20248048 0.88131654
0.055060785 0.20219977 0.88366652
0.018788688 0.20532408 0.88296157
0.020424746 0.20685835 0.88250005
0.026969023 0.20737557 0.8812108
0.03150548 0.20681229 0.88330442
0.037480809 0.20658512 0.8836723
0.040924519 0.20730829 0.88092482
0.045824196 0.20799349 0.88035637
0.053520139 0.20695777 0.88204813
0.056751613 0.20728804 0.88433331
0.040239379 0.21047711 0.88390923
0.076662838 0.15900807 0.88571668
-0.0075827721 0.16311906 0.88567573
0.073890619 0.16363432 0.88548893
0.077044986 0.16290705 0.88631117
-0.0067774924 0.1669029 0.88827837
-0.004279267 0.16973209 0.88579303
0.07259798 0.16821852 0.88649988
0.076871715 0.16659962 0.88812464
-0.0059544928 0.1703963 0.88925934
-0.0030474435 0.17333035 0.88734704
0.068363614 0.17455843 0.88519996
0.07162936 0.17244674 0.88765228
0.075305969 0.17038491 0.88919997
-0.0018065297 0.17678577 0.8881166
0.0012273503 0.17914544 0.88616848
0.068495773 0.17819582 0.88691086
0.071148343 0.17697123 0.88904995
-0.00097891479 0.18029588 0.88913327
0.0023317395 0.18296905 0.88739079
0.067638092 0.18306027 0.88649982
0.070315093 0.18192255 0.889
0.0027509672 0.18646984 0.88899994
0.0062988652 0.18834837 0.88654935
0.066599198 0.18778339 0.88641661
0.070339702 0.18694954 0.88931108
0.0039966432 0.1910862 0.88931674
0.0075054048 0.19298242 0.88757485
0.01059513 0.19373925 0.88631654
0.058528602 0.1945522 0.88626653
0.062213134 0.19272225 0.8869465
0.066641726 0.19210073 0.88865328
0.0070736646 0.19728185 0.8890143
0.012259591 0.19778538 0.88721091
0.057268471 0.19839047 0.88721323
0.062014863 0.19594613 0.88885003
0.065404788 0.19534253 0.88986671
0.0089732446 0.20020337 0.88940012
0.012691344 0.20123409 0.88847494
0.016208697 0.20306054 0.88598382
0.057067141 0.20265093 0.88924998
0.01393941 0.2050188 0.8887586
0.017227931 0.20801973 0.88745213
0.022133142 0.20744435 0.88500005
0.033700854 0.20835403 0.88536662
0.035902485 0.20862848 0.88536662
0.056984782 0.20566034 0.88796663
0.032091457 0.21109563 0.88650638
0.037030116 0.21098028 0.88602203
-0.0084897885 0.1688589 0.89425868
0.077886313 0.16893175 0.89025903
-0.0065357536 0.1727742 0.89300513
0.073766351 0.17397305 0.89063346
0.077256218 0.17269035 0.89256209
0.080629066 0.1719553 0.89305413
-0.0059894701 0.1763889 0.89448297
-0.0038918627 0.17788951 0.89157516
0.07335823 0.17771725 0.89071679
0.076459996 0.17775416 0.89298362
-0.0026490591 0.18265425 0.89257628
0.072966933 0.18233442 0.8910113
0.076879561 0.18288787 0.89371461
-0.0014018659 0.1875909 0.8943398
0.0015113745 0.18820766 0.89135355
0.073034316 0.18747844 0.891828
0.0765187 0.18703645 0.89368141
-0.0014006118 0.19330765 0.89385611
0.001867249 0.1925756 0.89128911
0.068789646 0.19304393 0.89071679
0.072336346 0.19281022 0.89346969
-0.002644957 0.19737148 0.89155936
0.0023435429 0.1973477 0.89144832
0.06255836 0.19842111 0.89068353
0.067472115 0.19778928 0.89250058
0.072989874 0.19695596 0.89468908
0.075458437 0.19724873 0.89100003
0.0023454868 0.20071615 0.89167792
0.0073424908 0.20262589 0.89277637
0.011488361 0.20317954 0.89156687
0.058870528 0.20232332 0.89144462
0.062305108 0.2026767 0.89300376
0.067378372 0.20290951 0.8940345
0.009029408 0.20645094 0.89496678
0.012615546 0.20763642 0.89290547
0.059030466 0.20702863 0.89386684
0.060722452 0.20628175 0.89423358
0.013186264 0.21119823 0.8939209
0.015618743 0.21027191 0.88999999
-0.011046143 0.16886446 0.89871424
-0.0089476686 0.17253882 0.89826345
0.079165049 0.17489113 0.89533347
-0.0073501719 0.17763692 0.89743555
0.079184368 0.17743281 0.89555204
0.080912866 0.17589375 0.89619732
-0.00684821 0.18200488 0.8975668
-0.0043243915 0.18484285 0.89513332
0.079217188 0.18083934 0.89592314
-0.0060151783 0.18717349 0.8983224
-0.0034943616 0.18840386 0.89623189
0.075800098 0.18981718 0.89503467
-0.0065739541 0.19164495 0.89840251
-0.0037728734 0.19256566 0.89620799
0.071672283 0.19826725 0.89560002
0.075860709 0.19580065 0.89575005
-0.00098559412 0.20150897 0.89520001
0.0031895251 0.20328771 0.89570016
0.0056924303 0.20483187 0.89516675
0.072102688 0.20227431 0.89648932
0.0040326715 0.20532762 0.89733338
0.0082050553 0.20754194 0.89608335
0.010708494 0.20830947 0.89579993
0.062847234 0.20768663 0.89598686
