# .PCD v0.7 - Point Cloud Data file format
VERSION 0.7
FIELDS x y z
SIZE 4 4 4
TYPE F F F
COUNT 1 1 1
WIDTH 1362
HEIGHT 1
VIEWPOINT 0 0 0 1 0 0 0
POINTS 1362
DATA ascii
0.012368613 0.0033099677 0.77543831
0.016502704 0.0043404279 0.77553362
0.027943317 0.0032217901 0.77634096
0.031971648 0.0016429399 0.77799177
0.036200684 0.0014630378 0.7792334
0.0044711367 0.0062947446 0.77930003
0.0078537241 0.0072547644 0.77847779
0.012194574 0.0072455457 0.77752596
0.017044766 0.0073646973 0.77627903
0.022302398 0.0079521025 0.77602243
0.027407221 0.0072412598 0.77712226
0.031483561 0.0072615976 0.77937508
0.035497606 0.0079901954 0.77975011
0.0093226125 0.01016749 0.77986681
0.01222653 0.010163434 0.77955562
0.017294681 0.010876591 0.77867091
0.022370253 0.011597514 0.77838528
0.027241264 0.011126918 0.77930009
0.032583851 0.010889425 0.77962238
0.035972521 0.01064638 0.77953345
-0.00085876178 -0.076887786 0.78000009
0.00059610081 -0.076907508 0.78020018
0.0064167059 -0.06529972 0.78023338
0.027235141 -0.066200987 0.78108686
0.031278424 -0.066287652 0.78334528
0.0037602738 -0.062837712 0.78272396
0.0078816302 -0.062482223 0.78130758
0.011945535 -0.06181271 0.78018677
0.023023579 -0.062155318 0.78084677
0.026880603 -0.06260749 0.78287429
0.0049831821 -0.057567336 0.78363359
0.007883925 -0.057413328 0.78153902
0.012055386 -0.058224566 0.78023767
0.019507172 -0.059476383 0.78000015
0.023169979 -0.058090255 0.78087234
0.027441915 -0.057318918 0.78222466
0.032563269 -0.056646295 0.78349185
0.036183983 -0.055900443 0.7841112
0.0033557287 -0.05210815 0.78313345
0.007511647 -0.053354427 0.78065014
0.029344587 -0.05261742 0.78048348
0.032659549 -0.052317467 0.78142238
0.036690652 -0.052215792 0.78301919
-0.0057358756 -0.045673687 0.78382236
-0.0021762629 -0.04687804 0.78280675
0.0022145915 -0.048260666 0.78111124
0.032618046 -0.049347136 0.78043348
0.037793677 -0.047998387 0.78210574
0.041536391 -0.046286847 0.78391683
-0.0072337496 -0.042077046 0.78267598
-0.0026066494 -0.042965416 0.78054011
0.00059625355 -0.044989944 0.7804001
0.039421503 -0.043068562 0.78065568
0.042877935 -0.042159159 0.78172237
0.047081642 -0.041393545 0.78376019
0.050364137 -0.040863957 0.78479993
-0.011106849 -0.036475025 0.78460002
-0.0074241795 -0.0378001 0.7818141
0.04378235 -0.038706053 0.78053349
0.047289971 -0.037826803 0.78235948
0.050321352 -0.037912011 0.78413337
-0.011720208 -0.032474231 0.78364784
-0.0075642625 -0.032831591 0.78125346
0.047682196 -0.033878956 0.78082234
0.051400095 -0.032202244 0.78321487
-0.012360432 -0.027474534 0.78285027
-0.0083225053 -0.027762802 0.78072929
0.048604149 -0.027557084 0.78004456
0.051665101 -0.027637403 0.78231132
-0.012536871 -0.022547618 0.78243917
-0.0091104545 -0.022980625 0.78068346
0.052526772 -0.022586413 0.78208786
-0.012118 -0.017658595 0.78230494
-0.0092310244 -0.017412893 0.7806251
0.053081583 -0.017436504 0.78168267
-0.01181017 -0.01236188 0.78267515
-0.0091091571 -0.011845782 0.7805779
0.052953392 -0.011982299 0.78158349
-0.011818589 -0.0072714747 0.78323346
-0.0086270776 -0.0067654676 0.78085566
0.052352708 -0.0072572329 0.7816723
-0.011106849 -0.0029062822 0.78459996
-0.0076225251 -0.0027636602 0.78178197
-0.0037701139 -0.0014391129 0.7804001
0.042805254 -0.0014391333 0.78041124
0.0473832 -0.0027103685 0.78089601
0.052042216 -0.0030476253 0.78359675
-0.011106849 1.2649534e-05 0.78460008
-0.0069703814 0.0014703397 0.78308201
-0.0024647214 0.0026306983 0.78159022
0.00059633004 0.0036424086 0.78050005
0.033708282 0.0032790808 0.7804085
0.038482852 0.0024351738 0.78129274
0.042683762 0.0023647449 0.78229243
0.047063638 0.0019087506 0.78345007
0.050347023 1.264846e-05 0.78453332
-0.0052536917 0.0058506797 0.78460002
-0.0019061186 0.0070883199 0.78306687
0.0022140255 0.0075979521 0.78082246
0.033480514 0.0072688311 0.78018677
0.037440084 0.0070713796 0.78123826
0.042041287 0.0071670334 0.78342444
0.045941897 0.0058481935 0.78426671
-0.00086338579 0.010223985 0.78420007
0.0029937236 0.012073519 0.78241217
0.0077478574 0.012562227 0.78109401
0.012247007 0.013086349 0.78087044
0.017338593 0.013807815 0.78062087
0.022423834 0.014526837 0.78025562
0.027837934 0.01390933 0.78050202
0.032625269 0.013807611 0.78061122
0.03735394 0.012932647 0.78137797
0.040896535 0.011674589 0.78366691
0.0049855136 0.016784821 0.78400016
0.008084313 0.017314944 0.78325027
0.012275418 0.01748495 0.78269649
0.017359972 0.017460344 0.78159475
0.022449657 0.017450459 0.78115201
0.027552398 0.017452706 0.7812584
0.032638665 0.017445054 0.78093344
0.037056353 0.017467607 0.78193158
0.040054586 0.016774457 0.78355014
0.0093744146 0.02043533 0.78420001
0.012592609 0.021020941 0.78426665
0.017485656 0.021391632 0.78358543
0.022513628 0.021142805 0.78337806
0.027624486 0.021870403 0.78332239
0.032719344 0.021857666 0.78285575
0.03614819 0.020899205 0.78334469
0.029898226 -0.065737695 0.78546673
0.032926951 -0.065935783 0.78783339
0.0014810585 -0.061542798 0.78787816
0.029957863 -0.06294053 0.78703332
0.032918453 -0.062497325 0.78759575
0.03587525 -0.060089875 0.78804553
-0.00086908648 -0.057255164 0.78937787
0.002200963 -0.057610717 0.78694856
0.029918527 -0.05993389 0.78600001
0.032824785 -0.059400465 0.78538889
0.037755873 -0.057523604 0.78636771
0.040371515 -0.056547105 0.7897501
-0.0060248128 -0.051406421 0.78976691
-0.0021555966 -0.052599348 0.78836256
0.0010887115 -0.053605724 0.78611112
0.038713932 -0.053355142 0.78600001
0.041278753 -0.052288864 0.78830004
-0.011166776 -0.046210103 0.78883314
-0.007677801 -0.047668908 0.78756964
-0.003067611 -0.049747605 0.78676677
0.043156937 -0.048652917 0.78680003
0.047483705 -0.046748392 0.78861248
-0.011886881 -0.04248346 0.78774452
-0.0096501131 -0.043802314 0.78513342
0.047865756 -0.043476149 0.78583336
0.051692102 -0.042146135 0.78830004
-0.012908876 -0.037624717 0.78727996
0.052678645 -0.037298951 0.78656667
0.055337619 -0.036969729 0.78892672
-0.016574655 -0.031805877 0.78946096
-0.014082314 -0.032208819 0.78733349
0.054425836 -0.032198042 0.78708893
0.056165073 -0.032651052 0.78918326
-0.017042013 -0.027850389 0.78832966
-0.014066813 -0.029246902 0.78646684
0.054807816 -0.027752528 0.78555554
0.057217967 -0.027855476 0.78847224
-0.0200205 -0.024231212 0.78988349
-0.017034119 -0.022706546 0.78798056
0.05715904 -0.02269775 0.78765082
-0.017048988 -0.01759287 0.78870732
-0.014059659 -0.016802534 0.78606677
0.057146281 -0.017565494 0.78747016
-0.017057158 -0.012464316 0.78908592
-0.014091555 -0.012443708 0.78785002
0.057773158 -0.012244179 0.787817
-0.020022606 -0.0073347138 0.7899667
-0.017049143 -0.0073228776 0.7887221
-0.014097813 -0.0073175677 0.7881999
0.057438519 -0.0070986664 0.78715712
-0.016086435 -0.003904029 0.78961128
-0.013359076 -0.0029180413 0.78788346
0.054845802 -0.0021800599 0.78610009
0.057007801 -0.0032100119 0.78759992
-0.01188695 0.0022123167 0.78778893
-0.0084904479 0.0038151077 0.78614676
0.04894615 0.0036662081 0.78553331
0.052384835 0.0022120923 0.78765839
0.055582266 0.0014818901 0.78962231
-0.011174482 0.0073552583 0.78937775
-0.0076806783 0.0074738995 0.78777575
-0.0037955579 0.0080514271 0.78566658
0.044524599 0.0087749083 0.7850666
0.047737446 0.0075135697 0.78671664
0.051017344 0.0069867577 0.78924185
-0.0067592883 0.011762096 0.78949672
-0.0024721217 0.012675005 0.78808492
0.0013329766 0.014638133 0.78623331
0.04347359 0.013020708 0.78663707
0.047379661 0.012191067 0.78870672
0.050684981 0.010296995 0.78980029
-0.0019213387 0.01742685 0.78950959
0.0023619812 0.017734999 0.78734332
0.0064624874 0.019015281 0.78579998
0.043032002 0.017415874 0.7878418
0.04624455 0.016166203 0.78943348
-0.00086966139 0.020583861 0.78990024
0.0020750142 0.022773834 0.78939438
0.0070708203 0.022892185 0.78839767
0.012138386 0.023865569 0.78730947
0.017370494 0.024266979 0.78677136
0.022607805 0.024158888 0.78665549
0.027743017 0.02488913 0.78665006
0.032885846 0.024895286 0.78684449
0.037508853 0.022812586 0.78707725
0.040342826 0.021299858 0.7891885
0.0079688067 0.026459845 0.78985578
0.012383494 0.026450539 0.78957778
0.017531972 0.027910719 0.78932494
0.022676231 0.027900308 0.78903693
0.026658071 0.027678231 0.78866661
0.032111712 0.026740704 0.78946686
0.017857058 0.031493045 0.78974301
0.02268593 0.032317776 0.78937411
0.026370235 0.030853149 0.78948343
0.021229737 0.035280515 0.78996694
-0.0018599248 -0.061941411 0.79296255
0.034490865 -0.064647563 0.79000002
0.035964224 -0.061708458 0.79000002
-0.0053148493 -0.056094076 0.79373342
-0.0030890063 -0.057455573 0.79212862
0.042505983 -0.056527946 0.79292345
-0.011244634 -0.050226048 0.7943334
-0.0075241006 -0.052692853 0.79252928
-0.0038193911 -0.05440199 0.79060006
0.043723024 -0.053303957 0.79176003
0.047206596 -0.051817317 0.79322469
-0.013112259 -0.047342986 0.79199415
-0.0082379617 -0.049960468 0.79013354
0.049270157 -0.048527494 0.79073346
0.051228791 -0.046795089 0.79250836
-0.016267916 -0.042505924 0.79364008
-0.014139946 -0.042635024 0.79055572
0.053044304 -0.043451265 0.79202503
0.055806171 -0.041771982 0.79278892
-0.020146796 -0.035473708 0.79486674
-0.017121648 -0.03755714 0.79200572
0.058064654 -0.037210289 0.79249173
-0.02109492 -0.031961534 0.79332155
-0.01807626 -0.033329424 0.79075569
0.058918554 -0.032382324 0.79156667
0.061335824 -0.031750865 0.79420137
-0.021942182 -0.027267242 0.7927146
0.059662998 -0.02796779 0.79165894
0.061297152 -0.027302019 0.79370075
-0.022071313 -0.021783791 0.79290378
0.059608325 -0.022791222 0.79093343
0.061280221 -0.02212731 0.79348153
-0.02231458 -0.01768416 0.79278344
0.059645995 -0.017654255 0.79143333
0.061305549 -0.017707046 0.79380947
-0.022299463 -0.012514305 0.79224926
0.059618365 -0.014702616 0.79106677
0.061160803 -0.012510216 0.79193527
-0.022051478 -0.0075193476 0.79219037
0.059564367 -0.0080731418 0.79035008
0.06111015 -0.0073479526 0.79127932
-0.021235913 -0.0040484834 0.79399782
-0.017599924 -0.0024399045 0.79142219
0.059284732 -0.002563729 0.79152775
-0.016662177 0.00099753949 0.79361123
-0.013856841 0.0026636545 0.79121339
0.057933237 0.0024231523 0.79184031
-0.013084576 0.007025132 0.79358333
0.053108297 0.0076626064 0.7907868
0.056358125 0.00717491 0.79262859
-0.011594392 0.011443526 0.79285842
-0.0087402696 0.013747114 0.79105568
0.049253538 0.013981892 0.79046679
0.052417111 0.012732202 0.79167277
0.055339623 0.011817612 0.79317778
-0.0067762965 0.017679173 0.79137057
-0.0038170558 0.01838493 0.79011691
0.042609125 0.01912359 0.79027599
0.048030302 0.017866828 0.79155004
0.051431071 0.016746929 0.79373342
-0.0056845224 0.021788208 0.79361677
-0.0025318044 0.022271851 0.79112512
0.043152601 0.02226381 0.79213411
0.047501232 0.021676438 0.79402226
-0.0018598711 0.02607812 0.79311126
0.0020824741 0.028022511 0.79244083
0.0069964197 0.028461201 0.79100758
0.01239508 0.028681055 0.79032803
0.028605867 0.02867754 0.79023355
0.03240294 0.028788699 0.79040492
0.037658699 0.027462423 0.79179537
0.040623996 0.027114661 0.79468888
0.003570681 0.031050492 0.79453343
0.0078423247 0.032166388 0.79368901
0.012418595 0.032421213 0.79189646
0.017109895 0.033528186 0.79022694
0.027348489 0.032778956 0.79039061
0.032341253 0.032402802 0.79144448
0.037152071 0.032250084 0.79286999
0.012927272 0.037377492 0.79288894
0.01759319 0.037584811 0.79203331
0.022885434 0.03776807 0.79165459
0.027213117 0.037611518 0.79259998
0.032009754 0.0372358 0.793082
0.036906958 0.036219101 0.79443341
0.013936365 0.041375551 0.79413342
0.016908454 0.041398704 0.7945779
0.022832353 0.041392915 0.79446685
0.027286582 0.04140681 0.79473341
-0.0060842112 -0.060810789 0.79750007
-0.0033511121 -0.062177729 0.79601473
-0.0071961619 -0.057621647 0.79699391
0.045931347 -0.056307279 0.79675007
-0.017211767 -0.050352499 0.79633337
-0.012552897 -0.052074216 0.79675823
-0.0092914933 -0.054293942 0.79620355
0.048723012 -0.053901512 0.7962445
0.051246881 -0.052720968 0.79855579
-0.022148749 -0.047760405 0.79759753
-0.017211314 -0.047382891 0.79621124
0.053507388 -0.047711827 0.79673129
0.056214679 -0.046534043 0.79859477
-0.026190275 -0.043053072 0.79833341
-0.022420513 -0.042384591 0.79863864
-0.018309163 -0.043272868 0.79553342
0.0576909 -0.042808473 0.79839844
0.060731143 -0.041120354 0.79923886
-0.021515377 -0.037441805 0.79743767
0.061073806 -0.037062544 0.79722792
-0.023463219 -0.032886602 0.79668617
0.062645122 -0.032963391 0.79672068
-0.026756382 -0.026392579 0.79744893
-0.024632951 -0.028126007 0.79612201
0.063531362 -0.026919246 0.79695958
-0.027228624 -0.022030171 0.79757041
-0.024616625 -0.022926588 0.79559439
0.063839115 -0.022244416 0.79770309
0.066135436 -0.023009801 0.79850006
-0.027625829 -0.017772827 0.79675967
0.063874476 -0.01780352 0.7981444
-0.030567378 -0.0147943 0.79600006
-0.027623616 -0.012583346 0.79668576
0.063896909 -0.012611495 0.79842448
-0.02718702 -0.0074136355 0.79847223
-0.024656836 -0.0066573247 0.79689395
0.063952893 -0.0074192309 0.79913086
-0.03060578 -0.0036945145 0.79700005
-0.029155901 -0.0036982188 0.79800004
-0.022768438 -0.0025312013 0.79760075
0.063127175 -0.0029560989 0.79809028
-0.021391364 0.001663439 0.79824454
-0.017698018 0.0034675181 0.79584455
0.06212914 0.0014962661 0.79802227
-0.017061895 0.0072490741 0.79788345
-0.014237325 0.0081570037 0.79600006
0.058549732 0.0081637725 0.7966001
0.060142573 0.0074370191 0.79802227
-0.016378278 0.011607041 0.79904008
-0.013323107 0.013166671 0.79674172
0.057656467 0.012876964 0.79791856
-0.012363145 0.017617697 0.79814285
-0.0097814957 0.017778458 0.79582232
0.053076375 0.018279828 0.7962001
0.056780275 0.017626563 0.79856193
-0.011316359 0.022319166 0.79939991
-0.0085011516 0.022448296 0.79740846
0.049150798 0.023232637 0.79675561
0.052529685 0.022101495 0.79824167
0.056521878 0.020832291 0.79943323
-0.0061930567 0.026726525 0.79778105
-0.0028570823 0.028649591 0.79624456
0.042665202 0.027485108 0.79589629
0.047344301 0.027327126 0.79801112
-0.0017735276 0.032103691 0.79864675
0.0019088418 0.032817669 0.79705012
0.0055539138 0.033560701 0.79564446
0.039195374 0.033319533 0.79577506
0.042261835 0.032655433 0.79761487
0.046369698 0.032492492 0.7988286
0.0022846234 0.036965821 0.79859173
0.0072893561 0.03704292 0.79625005
0.010991733 0.038482931 0.79540008
0.033982009 0.039218925 0.79533339
0.038314149 0.037620924 0.79595673
0.041846525 0.0366822 0.79915553
0.045363966 0.035722636 0.79986656
0.0035922527 0.040159576 0.79933327
0.0076048886 0.041286938 0.79811341
0.012308507 0.043175437 0.79665846
0.017927201 0.043445513 0.79596299
0.022880403 0.043146409 0.79612511
0.027346008 0.043165598 0.79647511
0.03274522 0.042787831 0.79713339
0.037818525 0.042321842 0.79802793
0.012906248 0.046469457 0.79916668
0.017727705 0.047525033 0.79816127
0.022933343 0.047513559 0.79797804
0.02740363 0.047523353 0.798141
0.032401815 0.047080182 0.79901487
0.037518378 0.046492592 0.79956663
0.021489568 0.05058765 0.79964441
0.027467417 0.050610147 0.79999983
0.052831583 -0.050584339 0.80000007
-0.024010168 -0.046126284 0.80011117
0.058946621 -0.046235181 0.80200005
-0.024012756 -0.043154366 0.80019999
0.058876615 -0.044690169 0.80104762
0.061037637 -0.042771533 0.80000001
-0.026332436 -0.037314307 0.80266666
-0.024426987 -0.037634216 0.80152661
-0.026338166 -0.032842636 0.80284125
-0.024752941 -0.034214649 0.80000013
-0.027075771 -0.029843155 0.80250001
0.064767659 -0.02826203 0.80000001
-0.029228972 -0.023053491 0.80000001
0.066265367 -0.020823061 0.8000688
0.06667237 -0.017855532 0.80047369
-0.035943016 -0.011148259 0.80000001
-0.032269448 -0.011914103 0.80142862
0.066995442 -0.012680698 0.8028481
-0.033789262 -0.0089383172 0.80200005
-0.027794823 -0.0074440301 0.80165005
0.066347331 -0.0074377991 0.80105847
-0.027054103 -0.0029698825 0.80186492
-0.024763992 -0.0014759146 0.80035716
0.067404352 -0.0029675208 0.80093592
-0.027084444 0.0022540453 0.80277598
-0.023939123 0.002995088 0.80128425
0.063678809 0.0029969057 0.80193883
0.066466101 0.0022533543 0.80249232
-0.022152532 0.0073335394 0.8030346
-0.018803688 0.0089507671 0.80079997
0.062726848 0.0074777268 0.80251116
0.065860458 0.0067453142 0.80423349
-0.020748107 0.011976439 0.80380553
-0.017964948 0.013430632 0.80142373
0.061973024 0.01270111 0.80243057
0.065141425 0.014232006 0.80461669
-0.016864173 0.017445903 0.80324453
-0.014334805 0.018648982 0.80144995
0.058847398 0.018629964 0.80064988
0.061570499 0.017719457 0.80276686
0.065102063 0.016467178 0.80413049
-0.015896341 0.020973014 0.80483353
-0.013602604 0.022399992 0.80228895
0.054341692 0.023831306 0.8002665
0.057694346 0.02282891 0.80239052
0.060595606 0.020952163 0.80403352
-0.011679311 0.027229127 0.80384672
-0.0086914394 0.028184179 0.80171847
0.049866259 0.029787144 0.80029982
0.052979048 0.027621062 0.80220836
0.056611102 0.025944404 0.80423349
-0.0068798228 0.032256372 0.8035239
-0.0031253162 0.033558413 0.80147493
0.049315598 0.033093553 0.80104655
0.052279342 0.03287448 0.80296665
-0.0053893989 0.035945948 0.80486679
-0.0023806877 0.037318125 0.80215919
0.00061214558 0.038762968 0.80119997
0.043417845 0.038240369 0.80065542
0.047169395 0.037498094 0.80202085
0.05067905 0.037091494 0.80372012
-0.0013845266 0.042118881 0.80360007
0.0019715037 0.042728644 0.80186063
0.0068401308 0.044241969 0.80145001
0.042462915 0.042500202 0.80140549
0.046790991 0.042331673 0.80387008
0.0023269057 0.047430728 0.80375248
0.0073504802 0.047800723 0.80279726
0.012262123 0.048581176 0.80089319
0.033467863 0.049168367 0.8007555
0.038247351 0.048574947 0.8007865
0.042343035 0.047606848 0.80267507
0.0087141152 0.051778279 0.80426675
0.012592773 0.052289248 0.80292594
0.017061381 0.052217193 0.80181479
0.022516677 0.052646957 0.80079246
0.027518369 0.052381821 0.80147505
0.032045707 0.052265406 0.80255193
0.037303079 0.052292619 0.80296946
0.04183913 0.051597886 0.8037917
0.013214596 0.056269366 0.80430681
0.017098349 0.056813862 0.80354077
0.022327766 0.0575203 0.80295426
0.027443657 0.057122111 0.80366343
0.031750314 0.055762138 0.80455017
0.037121974 0.055382106 0.80446672
0.068742894 -0.011976779 0.80577785
0.068247847 -0.0074817897 0.80585903
0.06817513 0.0045053442 0.80500025
-0.026425384 0.0060065277 0.80550003
-0.024970135 0.0082704537 0.80701959
0.067085922 0.0078793839 0.80544323
-0.022828469 0.012242169 0.8072831
0.066527657 0.011761754 0.806252
-0.026540207 0.019576689 0.80900002
-0.021094613 0.017157692 0.80844963
-0.018429989 0.019009596 0.80621117
0.063722536 0.018746588 0.80565
0.066107661 0.01728189 0.8072511
-0.025804482 0.022602923 0.80958337
-0.020524252 0.021101356 0.80975866
-0.017463084 0.022302905 0.80781108
0.062107444 0.022542691 0.8074277
-0.013846844 0.027362147 0.80781335
0.058296133 0.027527301 0.80677778
0.060902081 0.02632012 0.80809987
-0.012512803 0.031998497 0.80781174
-0.008700205 0.033880927 0.80560005
0.054774776 0.033025634 0.80664444
0.056953412 0.031264059 0.80766648
-0.011459807 0.036154356 0.80953342
-0.0078686317 0.037679538 0.80701214
0.053295732 0.037542101 0.80700672
-0.007088705 0.041782077 0.80833334
-0.0032929301 0.042893834 0.80600005
0.048680943 0.044209052 0.80538344
0.051305134 0.041558605 0.80725557
-0.0022079628 0.047507152 0.80733341
0.0013658293 0.049433075 0.80506688
0.044153769 0.049428985 0.80500019
0.047086846 0.0478645 0.80700833
0.050387572 0.045141313 0.80866665
-0.00089120411 0.051209033 0.80946666
0.0023103345 0.05240057 0.80750823
0.0064087557 0.052879628 0.80541927
0.043294288 0.053073514 0.80576199
0.045789942 0.05257925 0.80737764
0.0036376435 0.056477293 0.80943346
0.0075921868 0.056917142 0.8069393
0.012380932 0.058439132 0.80534464
0.0171306 0.059914473 0.80504465
0.027641376 0.059916127 0.80506694
0.032493301 0.057903133 0.80622673
0.037549891 0.057522092 0.80648154
0.04261516 0.056931641 0.80785
0.0458952 0.056463338 0.80923331
0.008376155 0.061278123 0.8089143
0.012678769 0.06241766 0.80834997
0.01719708 0.063156046 0.80817771
0.022422334 0.063016482 0.80639458
0.027833337 0.062705204 0.80625999
0.032273311 0.062408809 0.80824441
0.037078831 0.061962534 0.80896109
0.023007577 0.066756941 0.80932218
0.027778575 0.066985913 0.80905557
0.031574596 0.066283047 0.80966675
-0.026638627 0.0083216419 0.81200004
-0.025104403 0.012842949 0.81135893
-0.025135854 0.017389894 0.81237549
-0.023061952 0.017854083 0.81048441
-0.025119176 0.023421163 0.81183642
-0.022259958 0.02283391 0.81108379
-0.018280635 0.024141995 0.81070012
0.064327598 0.023462825 0.81330007
-0.025186118 0.02575447 0.81400001
-0.021834401 0.026345089 0.81353682
-0.017373523 0.027027201 0.81242198
0.062994815 0.02746702 0.81238896
-0.016378932 0.032110557 0.81389159
-0.014128603 0.03358141 0.81103718
0.058785018 0.03322693 0.81156194
0.062484518 0.031957671 0.81342232
0.068917789 0.031802233 0.81376922
0.070426613 0.030284652 0.81366664
-0.013006839 0.037761834 0.81173009
0.057093345 0.037625045 0.81285012
-0.011891691 0.04199414 0.81323975
-0.0094702328 0.043287575 0.8115111
0.053054452 0.043260038 0.81100011
0.055866547 0.042399328 0.81377345
-0.010004917 0.04543902 0.81400019
-0.006649781 0.047294505 0.81203336
-0.0039160093 0.049019296 0.81060016
0.048980128 0.049756482 0.81033343
0.052235354 0.047788728 0.81180608
0.05555727 0.04784416 0.81369334
-0.002160392 0.052965213 0.81331116
0.00061922573 0.054287549 0.81046677
0.048283357 0.052835524 0.81131124
0.052205153 0.052975826 0.81347394
0.055836711 0.051547755 0.81482249
-0.00089663523 0.056823611 0.8144002
0.0017000644 0.057581414 0.81135243
0.0051516974 0.058786217 0.81013352
0.044431668 0.058781389 0.81006676
0.048013117 0.05764275 0.81221908
0.051946897 0.056657273 0.81418687
0.00213545 0.062000029 0.81274074
0.0068605035 0.063395336 0.81125849
0.011957026 0.064848915 0.8105669
0.039159276 0.064080812 0.8103835
0.043016382 0.061933737 0.81186676
0.047453862 0.061645217 0.81376207
0.0031513199 0.065617688 0.81386679
0.0075142696 0.067535348 0.81319392
0.012734162 0.067980915 0.81194079
0.01726363 0.067927919 0.81131124
0.022039577 0.068884887 0.81074458
0.027814733 0.069333337 0.81011122
0.032585938 0.068304762 0.8106764
0.037227333 0.067758158 0.81109351
0.042272702 0.066783346 0.81372601
0.046214681 0.065192908 0.81486702
0.0097418027 0.071262002 0.81493366
0.013074419 0.071809851 0.8142668
0.01730595 0.072632954 0.81330365
0.022573933 0.072504193 0.81186122
0.027845625 0.072428361 0.81101507
0.032406621 0.07247968 0.81158531
0.036781605 0.072146766 0.81269521
0.040056933 0.071116261 0.81326658
0.018856341 0.075791195 0.81473362
0.023378525 0.076540373 0.81348574
0.027918467 0.076400079 0.81314445
0.032196376 0.076321378 0.81392002
-0.027181124 0.012551473 0.81692499
-0.026747979 0.017454622 0.81533337
0.0675257 0.019728795 0.8152858
-0.026802657 0.022809833 0.81700003
0.067649946 0.022804165 0.81677544
-0.022239173 0.028392484 0.81727785
-0.019137118 0.028818222 0.81500012
0.064462066 0.027302163 0.8150003
0.06767229 0.027369099 0.81704563
0.071503878 0.028899554 0.81730008
-0.020741589 0.030458346 0.81833339
-0.018020231 0.032651719 0.81605792
0.063985191 0.034393135 0.81537801
0.067134589 0.032422788 0.8166852
-0.016512526 0.037617233 0.81675029
-0.014586109 0.03945481 0.81550008
0.059426311 0.038945615 0.81542248
0.062900037 0.037814114 0.81690842
0.06629511 0.03657119 0.81886661
-0.014018878 0.042916398 0.8178544
0.058090493 0.042527214 0.81623334
0.061506607 0.042462375 0.81864184
-0.011575523 0.047159877 0.81758106
-0.0084972223 0.048526976 0.81500012
0.057875354 0.04678927 0.8164134
0.060589261 0.046869643 0.81915015
-0.010572913 0.050783146 0.81877786
-0.0071556247 0.052963924 0.81794006
-0.0039443527 0.053930424 0.81646675
0.057606954 0.053045381 0.81745833
0.060230426 0.050317295 0.81946671
-0.0070148027 0.057928756 0.81931859
-0.002858327 0.057950713 0.81656206
0.052737914 0.058821749 0.8158502
0.056102056 0.05747553 0.81720006
-0.0054889452 0.06177032 0.81973332
-0.0024275302 0.062402777 0.81802231
0.048544295 0.06374225 0.81570011
0.052025132 0.062142719 0.8174572
0.05558661 0.060923349 0.81860006
-0.0019209249 0.066563189 0.81929088
0.0019282078 0.067712538 0.81652397
0.0059470898 0.069811665 0.81570017
0.043514449 0.069189772 0.81552017
0.047869813 0.067403883 0.81716305
0.051430143 0.066688359 0.81926674
0.0024579025 0.071303502 0.81889343
0.0072761672 0.073144667 0.81747895
0.012416087 0.074001461 0.81588346
0.037887484 0.074348554 0.81553346
0.042568821 0.073034421 0.81779337
0.047990713 0.070876017 0.81923336
0.0097944029 0.076981351 0.81933349
0.012841847 0.077693783 0.81880754
0.017192259 0.077703297 0.81690007
0.021620562 0.078325048 0.81586677
0.027986998 0.078861006 0.81513357
0.032994591 0.078639418 0.8167668
0.037046783 0.077422276 0.81794178
0.040354114 0.076978311 0.81930017
0.013234597 0.08118739 0.8194834
0.017425304 0.082273036 0.81890386
0.022282215 0.082012385 0.81782007
0.027545054 0.082361601 0.81840616
0.032401927 0.081381679 0.81913346
0.035791922 0.080837458 0.81980002
0.018978229 0.085433252 0.81999993
0.02201792 0.085361481 0.8193112
0.025844581 0.085381158 0.81950009
0.071191169 0.024493394 0.82250005
-0.02387153 0.029030381 0.82100004
0.071091898 0.027514987 0.82135302
-0.020853538 0.032918677 0.82274997
-0.019273311 0.032840237 0.82080007
0.069530159 0.033612039 0.82099998
0.071061336 0.032084819 0.82100004
-0.018515196 0.03667438 0.82115006
0.06487336 0.039682195 0.82019991
0.067498066 0.038562041 0.82234877
-0.017562082 0.042980134 0.82127821
0.064166531 0.042770512 0.82093322
0.066418 0.043162618 0.8235333
-0.017005721 0.047425885 0.82218665
-0.01430512 0.04774994 0.8211832
0.062784106 0.047655627 0.82087982
0.067152962 0.047822636 0.82375622
-0.017038142 0.051348031 0.82376015
-0.01271187 0.052613746 0.82200658
0.061932217 0.051986419 0.82175237
0.065921411 0.050579272 0.82373333
-0.012413031 0.05738752 0.82249373
0.058468632 0.05846943 0.82154995
0.060927175 0.056325123 0.8237167
-0.010874011 0.062726378 0.82226801
-0.0074629895 0.062817499 0.82060868
0.054189794 0.063359872 0.82056659
0.05712245 0.062734433 0.82237768
-0.011652332 0.065855935 0.82315385
-0.0065259789 0.066774003 0.82188052
-0.003455051 0.068212323 0.82079691
0.053659987 0.067583054 0.82181323
0.0559518 0.067455351 0.82397789
-0.0022490609 0.071736619 0.82254165
0.0016472299 0.073817231 0.82086653
0.044987466 0.074774019 0.82019985
0.048299827 0.07373669 0.82078075
0.052620046 0.072214589 0.82231998
-0.0014197519 0.075631648 0.82400006
0.0026780681 0.077662364 0.82385564
0.007060647 0.078096524 0.82143986
0.038868744 0.079351187 0.82019997
0.0424469 0.078193553 0.82177126
0.047207162 0.077612273 0.82332587
0.052111 0.075887203 0.824
0.0081295259 0.082333677 0.82289624
0.012565017 0.083365582 0.82066643
0.03314954 0.083589382 0.82061654
0.037569646 0.08267995 0.82105803
0.041877512 0.082486331 0.82293326
0.0093353493 0.086342372 0.82382226
0.012896377 0.087204129 0.82230359
0.017285164 0.087289184 0.82130814
0.022053948 0.087790467 0.8206442
0.027723756 0.087352023 0.82082653
0.032814052 0.087150693 0.82179981
0.037447657 0.087233216 0.82257766
0.040948875 0.086954191 0.82356662
0.013697928 0.090488687 0.82436675
0.017834447 0.091028117 0.82369328
0.022113916 0.09185788 0.8228814
0.027493047 0.091881312 0.82309437
0.032899804 0.091976039 0.8239482
0.037523504 0.092009909 0.82425189
0.040598731 0.090477705 0.82426673
0.029861998 0.095154457 0.82493341
0.034477528 0.095154457 0.82493347
-0.023246974 0.033048794 0.82599998
-0.024123525 0.035510194 0.82966667
-0.01785491 0.039962813 0.82600009
-0.020961259 0.043087956 0.82700002
0.068895631 0.043016497 0.82562774
0.070024461 0.0430796 0.82683659
0.069131255 0.046074048 0.82537585
-0.01786717 0.052287385 0.82652628
0.063750423 0.053756747 0.82546681
0.066976704 0.052592989 0.82727426
0.070132405 0.050848078 0.82811123
-0.016347706 0.056210645 0.82768577
-0.014771355 0.059927195 0.82585716
0.062662788 0.057571601 0.8273468
0.065607585 0.055561297 0.82948291
-0.013870364 0.063100182 0.82716906
0.059184447 0.06379436 0.82620001
0.06163558 0.062398326 0.82806677
-0.011188536 0.067163177 0.82666677
-0.0078441044 0.068412341 0.82628572
0.058454171 0.067682691 0.82675552
0.060949069 0.067886241 0.82924479
-0.0059251604 0.071941033 0.82709849
-0.0039862203 0.073688835 0.82513326
0.057523225 0.072143406 0.82721108
-0.0059383614 0.076739088 0.82906336
-0.0026719568 0.077765703 0.82650864
0.0011443412 0.079379193 0.82577777
0.048365191 0.079875775 0.82562232
0.053611502 0.077481404 0.82737786
0.056885075 0.076774962 0.82861346
-0.0055553005 0.080264762 0.82964313
-0.0022641497 0.082083926 0.82852197
0.0021755383 0.083163358 0.82776308
0.0057688802 0.08405488 0.82644439
0.043750986 0.084494568 0.82573342
0.046890896 0.083064601 0.82677776
0.051466864 0.08240395 0.8287335
0.056351673 0.080286399 0.82986671
0.0026947847 0.087405384 0.82905573
0.0069718892 0.088057943 0.82714075
0.043181457 0.087967873 0.82661343
0.046979163 0.087843508 0.82834089
0.050743498 0.087632976 0.82926685
0.0083548911 0.092069857 0.82824177
0.012737913 0.092666559 0.82619995
0.017184135 0.093319282 0.82566679
0.042495467 0.092563592 0.82749182
0.046798289 0.09210436 0.82904786
0.050148729 0.091070421 0.82966685
0.0099115521 0.0964102 0.82913363
0.012990471 0.097083449 0.82828903
0.017608304 0.096992731 0.82751846
0.022220498 0.096912973 0.826837
0.02739764 0.097018607 0.82654548
0.032984514 0.09733513 0.82606667
0.03760206 0.097581148 0.8259778
0.041887067 0.096828476 0.82800007
0.013788951 0.10035063 0.82983339
0.017951874 0.10087992 0.82910681
0.02247238 0.10160081 0.82900858
0.027083419 0.1014317 0.82885212
0.03238897 0.10232551 0.82876986
0.037717972 0.10250437 0.82852244
0.04083297 0.10179586 0.82902235
-0.022109153 0.037393823 0.83150005
-0.019542169 0.037943676 0.83225006
-0.021617107 0.040790498 0.83244449
-0.019512817 0.041750543 0.83100003
-0.017941374 0.05405198 0.83000004
0.068929166 0.054197248 0.83223087
0.070437551 0.053390712 0.83171433
-0.016405266 0.058726281 0.83059996
0.064254984 0.058825258 0.8319999
0.067131355 0.057040095 0.83303577
-0.016452668 0.061996911 0.833
-0.014845455 0.063315734 0.83000004
0.063920692 0.063133091 0.83168
0.066522121 0.062622793 0.83448505
-0.011786539 0.069705538 0.83255559
-0.0086544137 0.069498017 0.83007693
0.063513286 0.068147607 0.83243328
0.067300752 0.066245697 0.83448887
-0.010636501 0.072516456 0.83371747
-0.0080467043 0.072993532 0.8311969
0.059470966 0.074141331 0.83020002
0.062571257 0.072630838 0.83279997
0.069139212 0.072219759 0.83476657
-0.01025811 0.076863229 0.83459985
-0.0080576297 0.077735916 0.83230668
0.059119668 0.0776629 0.83069992
0.061645687 0.07714396 0.83343333
-0.0068734363 0.082142137 0.83302754
-0.0032383017 0.084216319 0.83056676
0.054465163 0.082289264 0.8305999
0.058225114 0.082208939 0.83174169
0.061356924 0.08076302 0.83479285
-0.0055800891 0.085273445 0.83334482
-0.0022474527 0.087374449 0.83225715
0.0011511719 0.089141749 0.83086675
0.05374464 0.087396674 0.83142495
0.057274207 0.087332658 0.83326668
-0.0016964449 0.090784654 0.83413327
0.0023822337 0.092757031 0.83267498
0.0060579879 0.093520649 0.83086669
0.047862493 0.094225176 0.83026671
0.052004557 0.093011223 0.83149165
0.055702589 0.092793629 0.83405334
0.0032301992 0.096743293 0.83422208
0.0071505597 0.097662978 0.83191335
0.043984111 0.098070651 0.83013344
0.047159031 0.097459145 0.83149624
0.051413085 0.097169124 0.83343339
0.0084135616 0.10174166 0.83399993
0.012826847 0.10259892 0.83196193
0.017288055 0.10315357 0.83065009
0.020757642 0.10345868 0.83000004
0.028499732 0.103467 0.83006668
0.043302078 0.10214945 0.83189994
0.046665959 0.10176013 0.83378667
0.013865678 0.106342 0.83444989
0.017739825 0.10702188 0.8336888
0.022366779 0.10684513 0.83231103
0.02700115 0.10675061 0.83157778
0.032359596 0.10689633 0.83161813
0.037850469 0.10673324 0.8314445
0.042380095 0.10653382 0.83335239
0.022811936 0.11060178 0.83438319
0.027081044 0.11094511 0.83404428
0.032198507 0.11085731 0.83421886
0.038214799 0.11134528 0.83455217
0.041099485 0.11099654 0.83443308
-0.021240065 0.054572962 0.83800006
-0.019677185 0.054572962 0.83800006
-0.021265412 0.056198787 0.83900005
-0.018641105 0.057187159 0.83822227
0.068722613 0.0585908 0.83601141
0.071534492 0.057953399 0.83727634
-0.018135922 0.064002298 0.83900005
0.068175189 0.061934162 0.83566779
0.071568683 0.062030919 0.83767998
-0.019700667 0.065563001 0.83900005
0.067882523 0.068896607 0.83526653
0.071167164 0.067556038 0.83663434
-0.012358415 0.073126115 0.83625466
0.064496957 0.074581876 0.83513314
0.06722568 0.073315121 0.83586663
0.071661286 0.072628729 0.83564752
-0.016571175 0.079609312 0.83900005
-0.011467229 0.078304201 0.83756697
0.063961305 0.078105912 0.83626652
0.067843638 0.077177271 0.838
0.0713531 0.076770477 0.83639556
-0.010298126 0.082619868 0.83785558
-0.0087161101 0.083212547 0.83599436
0.063286416 0.082740419 0.83712488
-0.0068585249 0.086952738 0.83756769
-0.0040361406 0.088598825 0.83546662
0.059886456 0.08787819 0.83599997
0.063192017 0.087358057 0.83846927
-0.005620826 0.090580463 0.83942854
-0.002705171 0.092705049 0.83646113
0.00063837762 0.094822876 0.83553326
0.058726255 0.092555679 0.83611667
0.062287439 0.091775402 0.83893347
-0.0022910845 0.097059384 0.83806419
0.0016787563 0.098586179 0.83668882
0.053076517 0.098922916 0.83515543
0.057141531 0.09777911 0.8368867
0.060505874 0.097578757 0.83918345
0.0027236992 0.10239302 0.83812219
0.0065633529 0.10358808 0.83602667
0.048177674 0.10339633 0.83573318
0.052116007 0.10270143 0.83639997
0.056738183 0.10275494 0.8384251
0.0074546407 0.10738089 0.83759397
0.012071588 0.10809063 0.83596665
0.043473601 0.10876779 0.83519983
0.047445882 0.10738945 0.83656287
0.052238993 0.10762184 0.83837044
0.055437952 0.10698134 0.83946663
0.0076835295 0.1108498 0.83920002
0.012572774 0.11210225 0.8379454
0.017793152 0.11200801 0.83618504
0.0221457 0.11287053 0.83566648
0.027114755 0.11341356 0.83508873
0.033091731 0.1134362 0.83525544
0.037238665 0.11341505 0.83509976
0.043231629 0.11233365 0.83696187
0.047534768 0.11226872 0.83813345
0.051262882 0.11140574 0.83946663
0.014716719 0.11545038 0.8386001
0.018034693 0.11678167 0.83835006
0.022646129 0.11708238 0.83687991
0.02716046 0.11749578 0.83649427
0.032566145 0.11764164 0.83642656
0.038073774 0.11747389 0.83633882
0.042493131 0.117102 0.83801484
0.046007667 0.11547792 0.83880025
0.022861328 0.1214406 0.83902675
0.027235717 0.12328442 0.83882976
0.032206912 0.12299387 0.83791339
0.037525274 0.12316595 0.83802003
0.041289933 0.12242678 0.83830011
0.024139034 0.12500857 0.83993334
0.028050732 0.12655087 0.8398
0.031959061 0.12652074 0.83960009
0.035101645 0.12656091 0.83986676
-0.022113947 0.05871474 0.84150004
-0.01920977 0.058372755 0.84033328
-0.022388345 0.062403504 0.84200001
-0.019120237 0.062277563 0.84099996
-0.021316104 0.065719284 0.84100002
-0.013473725 0.073541388 0.84100008
-0.015873019 0.077682637 0.84350008
-0.013491566 0.077554889 0.84211355
0.068090707 0.079803079 0.84104222
0.071257837 0.079837032 0.84140003
-0.015600798 0.081033967 0.84299999
-0.012722102 0.083135314 0.84309822
0.068255566 0.082936317 0.84306693
0.071816646 0.083552323 0.84336388
-0.010350823 0.08695779 0.84214294
-0.0082527455 0.088736802 0.84168416
0.066648073 0.087791711 0.84263772
-0.0069516287 0.092469811 0.84241885
0.064383082 0.092250995 0.84042215
0.066303276 0.092952572 0.84324074
-0.0062777349 0.096980974 0.84348518
-0.0040639457 0.098598197 0.84122229
0.062687434 0.097146057 0.84219998
0.065207489 0.095821567 0.84433335
-0.0056565874 0.10058538 0.84476942
-0.0025001362 0.10189945 0.8426345
0.0014264558 0.10404323 0.84096658
0.058629632 0.10474673 0.84033328
0.061256915 0.10213187 0.8419674
-0.00092970143 0.10604341 0.84443337
0.0020556476 0.10780811 0.84226674
0.057604615 0.10827317 0.84170002
0.060453948 0.10676546 0.84392232
0.0024128682 0.11276129 0.84327519
0.0066944263 0.11313926 0.84129524
0.010053406 0.11421635 0.84099996
0.052958995 0.1132462 0.84153336
0.05617791 0.11183924 0.84273338
0.003270871 0.11681562 0.84471101
0.0069370735 0.11770794 0.84359258
0.012207422 0.11764438 0.84211522
0.016318254 0.11884364 0.8405332
0.044538673 0.11885306 0.84059989
0.047932722 0.11763748 0.84168339
0.051641665 0.1174431 0.84394664
0.0085246135 0.12103749 0.84493321
0.013064843 0.12215336 0.84419256
0.017914552 0.1221728 0.84191859
0.021544119 0.12301666 0.84055543
0.043803278 0.12211522 0.84152222
0.047620784 0.12196954 0.84360951
0.014826693 0.12652875 0.84486657
0.018145813 0.12691803 0.8435334
0.02242955 0.12706906 0.84193343
0.026915899 0.12791285 0.84104991
0.03202191 0.12833343 0.84124428
0.037919171 0.12740397 0.84155834
0.042586308 0.12655555 0.84330004
0.019556841 0.1304782 0.84499991
0.023015283 0.13105951 0.8446933
0.027636468 0.13148303 0.8442381
0.031601232 0.1313694 0.84398896
0.036552638 0.13102044 0.84443998
0.040822364 0.13044733 0.84479994
-0.015113746 0.073891178 0.84500003
-0.015140574 0.075596996 0.84650004
-0.015122689 0.084158517 0.84550005
0.068410851 0.084894203 0.84499997
-0.015167404 0.08677306 0.84800005
-0.011983382 0.088198498 0.84653169
0.068859711 0.087716125 0.84567702
0.070894867 0.087402858 0.84644896
-0.010821368 0.092711106 0.84819978
-0.0088204686 0.093650624 0.84600389
0.068701439 0.093148313 0.84858942
-0.0080339946 0.097599298 0.84614718
0.063703135 0.09907224 0.84526664
0.066802002 0.097803615 0.84790015
-0.0064638141 0.10244375 0.84715271
-0.0040860609 0.10385482 0.84579998
0.063786812 0.1023519 0.84637707
0.066105582 0.10163029 0.84912235
0.073879093 0.10306121 0.84898585
0.075105734 0.10192914 0.84942394
-0.0056828335 0.10736839 0.84868908
-0.0029641369 0.10735697 0.84682864
0.062951565 0.10695019 0.84787589
-0.0023181108 0.11172801 0.84734178
0.0006456612 0.11476868 0.84506661
0.057881162 0.11339494 0.84654999
0.060877394 0.11067345 0.84983337
-0.0013294731 0.11633401 0.84788346
0.0016977027 0.1185678 0.84599996
0.053863268 0.11836181 0.84546655
0.056750391 0.1174454 0.84736681
-0.00093480269 0.12005015 0.84906697
0.002757577 0.12258902 0.84841132
0.006766608 0.12308193 0.846825
0.010634364 0.12376136 0.8456443
0.048756495 0.12430349 0.84576666
0.052753914 0.12285663 0.84662962
0.056680888 0.12220784 0.84869349
0.007378106 0.12676048 0.84905028
0.012020437 0.12780771 0.84708673
0.016408846 0.12893683 0.84519982
0.044271171 0.12845348 0.84546655
0.048044603 0.12765326 0.84711117
0.052444577 0.12770204 0.84893358
0.014371958 0.13162957 0.84904462
0.017832085 0.13261281 0.84733343
0.022331417 0.13333166 0.8456499
0.026651673 0.13363776 0.84509981
0.033223744 0.13313307 0.84522206
0.037299275 0.13327637 0.8452999
0.042821061 0.13266246 0.84689999
0.046559826 0.13107532 0.84886682
0.019127762 0.13640662 0.84928912
0.022798641 0.13731118 0.84836328
0.02753442 0.13725615 0.8480224
0.032270063 0.13721555 0.84777051
0.037004068 0.1371817 0.84756315
0.041796338 0.13734601 0.84857798
0.045008473 0.13590844 0.84946698
0.027983498 0.14107452 0.8496502
0.032333937 0.14143752 0.84945583
0.036757551 0.1412324 0.84917367
-0.013690011 0.089027718 0.85450006
0.072324917 0.088975631 0.85400009
-0.015275316 0.091361508 0.85403335
-0.013258152 0.092364743 0.85229206
0.070778541 0.091418445 0.85455954
-0.0120713 0.09649805 0.85262662
-0.0088722799 0.098950163 0.85097325
0.068846688 0.098880902 0.8503834
0.072044536 0.097744368 0.85240787
0.075397737 0.099152923 0.85272628
-0.0083599351 0.10310167 0.85259086
0.067872062 0.10348922 0.85141665
0.071368061 0.1030429 0.85208887
-0.0079400176 0.1075979 0.85301811
0.064180441 0.1093194 0.85159999
0.067189701 0.10702358 0.85350192
0.073444001 0.10753325 0.8531279
-0.0057178009 0.11279298 0.85391122
-0.0041079628 0.11390217 0.85033333
0.062899537 0.11287804 0.85305178
-0.0030537199 0.11716489 0.85105556
0.059315696 0.11704258 0.8501668
0.061963927 0.11755287 0.8538723
-0.0018931631 0.1224169 0.8523466
0.00064976152 0.12340739 0.85043341
0.058961831 0.12226991 0.85077512
0.061111394 0.12220776 0.85310006
-0.00094052748 0.12634778 0.85426676
0.0022394403 0.12681532 0.85206664
0.0066810274 0.12919186 0.85101998
0.054590017 0.12897754 0.85065013
0.058078486 0.12705639 0.85235423
0.061208095 0.12637466 0.85445011
0.0038350816 0.13018271 0.85336673
0.0073410855 0.13249949 0.85397339
0.012165861 0.13329361 0.85168743
0.048503146 0.13329519 0.8516959
0.052390058 0.13259548 0.85356677
0.056309644 0.13007595 0.85266674
0.0086201262 0.13510838 0.8544001
0.013032954 0.13745442 0.85361493
0.017574461 0.13822766 0.85077214
0.047297314 0.13799995 0.85262221
0.050842263 0.13748106 0.85432518
0.014195841 0.14145479 0.8543334
0.018151861 0.14283276 0.85306299
0.022881916 0.14256413 0.85145926
0.02731574 0.14344594 0.85105991
0.032391053 0.1440614 0.85095549
0.037536673 0.14361998 0.85068327
0.041903626 0.1424453 0.85075545
0.046385031 0.14275567 0.85396671
0.019768221 0.1461882 0.85413343
0.02326943 0.14680316 0.85401332
0.027703274 0.14762312 0.85323709
0.032454856 0.14751911 0.85263336
0.037239783 0.14757451 0.85295182
0.042029906 0.14684278 0.85331672
0.029346634 0.15106079 0.85473347
0.031721648 0.1509842 0.85430014
-0.016134992 0.094105035 0.85731256
0.07269676 0.093822077 0.85837567
0.079084136 0.094204023 0.85821426
-0.015737368 0.097714871 0.85750002
-0.012936557 0.098891743 0.85733342
0.074177288 0.095664941 0.85700023
0.076974422 0.096364826 0.85850006
-0.015346265 0.10056469 0.85800004
-0.011916379 0.10168501 0.85783571
-0.0089155678 0.10499981 0.85512501
-0.010560182 0.10869375 0.85917646
-0.0089319879 0.10997409 0.85670006
0.068091951 0.1094662 0.85584188
0.071692064 0.10828641 0.85595024
-0.01056855 0.11357834 0.85985714
-0.0081343232 0.1131612 0.85670012
0.067776486 0.11318651 0.85688901
0.072133824 0.11201126 0.8580575
-0.010568565 0.11597784 0.85985845
-0.0071453298 0.11790235 0.85785007
-0.004135902 0.11865911 0.85611689
0.064505339 0.11783373 0.85591125
0.06742584 0.11792576 0.85823816
0.071190499 0.11513449 0.85953337
-0.0065546259 0.12307435 0.8591556
-0.0041428525 0.12284503 0.85755569
0.063708141 0.12261143 0.8559168
0.067119285 0.1230117 0.85871118
-0.0057550007 0.12631701 0.85946667
-0.0028134373 0.12773941 0.8582778
0.00065350538 0.12889165 0.85533345
0.063473754 0.12783073 0.85736197
0.066386536 0.1263366 0.85960013
-0.00094577577 0.13184708 0.85903329
0.0020523854 0.13256246 0.85720015
0.0054374314 0.13362321 0.85506684
0.054901246 0.13289553 0.85550022
0.058393978 0.13253058 0.85699177
0.06248619 0.13198116 0.85886681
0.0032201554 0.13714686 0.85920012
0.0068492908 0.13735288 0.85724175
0.011024831 0.13847592 0.85556686
0.053590968 0.13692184 0.85580021
0.05776085 0.13734755 0.85845929
0.061600909 0.13598341 0.85993332
0.007598991 0.14171547 0.85912234
0.011381763 0.14207868 0.8567239
0.01501388 0.14404112 0.8555336
0.04852673 0.14405754 0.85563362
0.051787261 0.1423872 0.85675567
0.055775415 0.14193073 0.85913342
0.012399011 0.14643049 0.85865563
0.017435998 0.14787659 0.85700846
0.022604907 0.14929454 0.85600019
0.042133268 0.14959128 0.85542244
0.046971381 0.14816457 0.85636687
0.05162752 0.14694157 0.85853338
0.018283876 0.15159397 0.85925561
0.023253765 0.15301007 0.85785836
0.02760751 0.15315293 0.85642529
0.032806363 0.15331049 0.85587651
0.037392918 0.1529585 0.85645217
0.042233482 0.1531384 0.85745931
0.046791244 0.15244274 0.85893333
0.050313868 0.1509988 0.85890007
0.023088634 0.15610419 0.8591556
0.028198561 0.15717547 0.85859996
0.032691959 0.15818079 0.85885191
0.037177097 0.15722132 0.85885334
0.04395245 0.15675445 0.85980016
0.073738977 0.092130259 0.86121249
0.076885708 0.093652055 0.86047864
-0.018633092 0.09943004 0.86200005
0.07770405 0.096873753 0.86065644
-0.017064953 0.1025537 0.86400002
-0.012174215 0.10399864 0.86000001
-0.011664909 0.1079615 0.86183333
-0.011934501 0.11224911 0.86192995
0.074448898 0.11361543 0.86013794
0.076163307 0.11297838 0.86138463
-0.012669233 0.11735138 0.86239994
0.069636032 0.11921476 0.86013341
0.073235892 0.11731835 0.86236054
0.076363727 0.11648948 0.86365139
-0.011410731 0.12200146 0.86286235
-0.0089758588 0.12252511 0.86090797
0.069646828 0.12243398 0.86026675
0.072579913 0.12170837 0.86241525
-0.011153246 0.12587285 0.86372781
-0.0073812306 0.12830034 0.86204869
-0.0041559488 0.12963504 0.8602668
0.068354398 0.12784126 0.86165828
0.072184958 0.12662621 0.8637535
-0.005778376 0.13244893 0.8629576
-0.0028260995 0.13314688 0.86227781
0.064116113 0.13381207 0.86139989
0.067742266 0.13249378 0.86325008
0.070821702 0.131125 0.8648169
-0.0009508768 0.13818179 0.86366683
0.0010587459 0.13811448 0.86074996
0.062644966 0.13809088 0.86167622
0.0656408 0.13820833 0.86384457
-0.00095205096 0.14237222 0.86473358
0.002264749 0.14268956 0.86178523
0.0060089598 0.14359696 0.8608222
0.058034234 0.14288466 0.86054999
0.061592508 0.14262392 0.8626042
0.0032346542 0.14740919 0.86314011
0.007085301 0.14747189 0.86162972
0.010819159 0.14831649 0.86033344
0.053625584 0.14810154 0.86063337
0.056948643 0.14759119 0.86232215
0.06082046 0.1468115 0.8640334
0.003885116 0.15117878 0.86450016
0.007301332 0.15239695 0.86342508
0.01190325 0.15224488 0.86142963
0.01605604 0.15264578 0.86008012
0.048778176 0.15360327 0.86006677
0.05253854 0.15250206 0.8615905
0.056001287 0.15167414 0.86426681
0.0087216906 0.15599711 0.86446685
0.012157531 0.15691195 0.86317635
0.017524214 0.15703364 0.86132503
0.022719307 0.15805215 0.86033344
0.026319636 0.15839069 0.86000019
0.039150942 0.15839069 0.86000019
0.042358756 0.15812404 0.86000019
0.04725533 0.15707275 0.86154073
0.051708002 0.15711951 0.86305726
0.018056856 0.16213354 0.86374348
0.023159184 0.16192754 0.86179262
0.027963115 0.16182064 0.86122233
0.032757979 0.1628467 0.86060011
0.037588082 0.16176639 0.86093342
0.042212255 0.16199803 0.86110008
0.047363296 0.16225059 0.86351132
0.050607726 0.16152272 0.86391687
0.023609387 0.16587481 0.86356682
0.028030178 0.16702634 0.86328518
0.032806784 0.1669548 0.86188328
0.037651651 0.16685224 0.86238891
0.042512283 0.16699268 0.8631112
0.045817368 0.16569668 0.86473352
0.033319954 0.17161234 0.8632763
0.037716459 0.17115642 0.86387235
0.040967293 0.17127743 0.86448354
-0.013900954 0.11299589 0.86766672
0.076482981 0.11908487 0.86500001
-0.013882264 0.12090324 0.86650002
0.074940518 0.12322454 0.86581767
-0.010662079 0.12910637 0.86746681
0.073304504 0.12882359 0.86556685
0.075726047 0.12748346 0.8674134
-0.0082315262 0.13226055 0.86698431
0.072174236 0.13266221 0.86750013
0.076324381 0.13261597 0.86931401
-0.0062150867 0.13720971 0.86767507
-0.0035409718 0.13737747 0.86670172
0.068182357 0.13752723 0.86714178
0.070297211 0.13569121 0.86830002
-0.0029832027 0.14187063 0.86905003
0.063591793 0.1448634 0.86520016
0.066725202 0.1420137 0.86745554
-0.00095569668 0.14695656 0.86804456
0.0012007116 0.14835028 0.86676669
0.06246328 0.14827308 0.8663168
0.065985493 0.14593405 0.86837786
0.0026848381 0.15256742 0.86783338
0.0055124685 0.15481769 0.86686677
0.057590783 0.15357825 0.86715347
0.061878406 0.1515238 0.86832011
0.0039035417 0.15674305 0.86859989
0.0068066171 0.15744063 0.86710006
0.011173183 0.1596922 0.86706674
0.053979725 0.15874887 0.8663168
0.056961931 0.15675294 0.8686583
0.0079607796 0.16013113 0.86945009
0.012228115 0.16267788 0.86824286
0.015191711 0.16346064 0.86566687
0.052838963 0.163045 0.86651516
0.055793289 0.16173942 0.86940002
0.012828017 0.16582045 0.86960006
0.017395565 0.16744404 0.86822778
0.021884857 0.16835734 0.86704171
0.047567159 0.16752358 0.86724454
0.052181859 0.16709474 0.86865342
0.055827506 0.16507488 0.86993343
0.022864224 0.17263937 0.86891013
0.028149357 0.17257619 0.86696309
0.031330466 0.17308885 0.86550009
0.037787706 0.17389359 0.86550015
0.043162901 0.17280126 0.86693823
0.0249878 0.17630793 0.86946666
0.028217465 0.17703348 0.86905557
0.033334367 0.17650442 0.86724865
0.037676994 0.17722054 0.86827147
0.042391282 0.1765921 0.86887491
0.076947182 0.12790181 0.87025011
-0.01071498 0.13218033 0.87177098
-0.0090854242 0.13455729 0.87141681
0.073679961 0.13433851 0.87000006
0.075328469 0.13357568 0.87030011
-0.0074535413 0.13767523 0.87063646
0.072415151 0.13807237 0.87185419
0.075879723 0.138294 0.87197679
-0.006383697 0.14172181 0.87228054
-0.0042087692 0.14343765 0.87120008
0.068891376 0.14340489 0.87100005
0.07168813 0.14233778 0.87339991
0.076525182 0.14157303 0.87470198
