# .PCD v0.7 - Point Cloud Data file format
VERSION 0.7
FIELDS x y z
SIZE 4 4 4
TYPE F F F
COUNT 1 1 1
WIDTH 1326
HEIGHT 1
VIEWPOINT 0 0 0 1 0 0 0
POINTS 1326
DATA ascii
0.018697675 0.036360793 0.15887162
-0.021197297 0.037759833 0.15873224
-0.016808063 0.039085202 0.15892518
-0.013227832 0.040744361 0.15848851
-0.007498662 0.042853221 0.15877122
-0.0042509809 0.042669229 0.15826213
0.00030241534 0.042594887 0.15848014
-0.0039554201 0.043908536 0.15872473
0.0010184497 -0.046558078 0.15993512
0.004169086 -0.045530938 0.15964484
0.0075669419 -0.045472987 0.15987635
-0.016276648 -0.044116005 0.15994203
-0.0059458148 -0.044410542 0.15921599
0.017409651 -0.040931072 0.15942347
0.021382947 -0.039964966 0.15934771
0.022149835 -0.039009888 0.1596092
-0.026697448 -0.038385734 0.15908796
-0.031536598 -0.036976188 0.1592263
-0.03016814 -0.03629683 0.1599569
0.02683099 -0.035972819 0.15958041
0.026968872 -0.033925842 0.15940669
-0.038879216 -0.026204007 0.15957144
0.03522047 -0.025886301 0.15978506
0.038388874 -0.020294204 0.1592221
-0.043940522 -0.019620914 0.15970904
0.04026065 -0.016261961 0.15944201
0.040804721 -0.0090184193 0.15987176
-0.047829866 -0.0074135973 0.15998185
0.042757019 -0.0075480728 0.1595771
0.041909754 -0.0051423609 0.15954921
-0.046860658 -0.0043883622 0.15944213
0.04321146 -0.004920715 0.15978274
-0.049267434 -0.0036837347 0.1599648
0.041490123 -0.0026590023 0.15962461
0.0430304 -0.0016542634 0.15944797
0.039951909 0.0091880178 0.15963453
-0.043580331 0.012645075 0.15936311
0.039070949 0.01205688 0.15942341
-0.039807595 0.018937336 0.15914136
-0.035699181 0.025896808 0.15980187
0.029992498 0.027083263 0.159729
-0.029249363 0.031510383 0.15963465
0.026381133 0.031295087 0.15929091
0.025281377 0.033653982 0.15989804
-0.028085079 0.034731165 0.15907454
-0.026916556 0.034238003 0.15984866
-0.024850177 0.037009809 0.15968433
0.020162094 0.037395306 0.1599406
0.015711743 0.039202105 0.15934929
0.0122254 0.040750444 0.15929338
-0.01036801 0.041587923 0.15936553
0.0030458476 0.041559637 0.15993515
-0.006952893 0.042554289 0.15973032
0.0044949297 0.042065322 0.15950119
-0.0042301891 0.043034334 0.15910614
0.00022321507 0.043461699 0.15933856
0.0042663706 0.043233939 0.15976217
-0.0043528215 -0.048237104 0.16069093
-0.00035400211 -0.047241468 0.16088167
-0.0034271665 -0.045529101 0.16019323
-0.028647015 -0.038254414 0.16051468
-0.030907597 -0.036809556 0.16039711
-0.033840377 -0.034227408 0.16064003
-0.033470698 -0.033868641 0.16028959
0.028688984 -0.032371249 0.16081908
-0.036854845 -0.030679069 0.16074163
0.03771117 -0.030657547 0.16034874
-0.036858194 -0.026907716 0.16092628
-0.046096347 -0.01554356 0.16059849
-0.047800191 -0.013075359 0.16080225
0.041648954 -0.0055854004 0.16088155
-0.047792673 -0.0041661994 0.16014251
-0.047722705 -0.00021815169 0.16057821
-0.047376547 0.0027583721 0.16052145
-0.047019109 0.0034488067 0.16004252
0.041373357 0.0046270839 0.16006371
0.042651825 0.0054245479 0.16093862
0.041098848 0.0061542951 0.16061711
0.040618248 0.008429083 0.16039258
0.035904408 0.017616522 0.1600689
0.032286592 0.024923576 0.16088247
0.033083797 0.025741616 0.160815
0.031272955 0.028082279 0.16047961
-0.02870491 0.031899944 0.16045386
0.021620743 0.034581393 0.16011363
0.022871345 0.035453871 0.16016805
0.025115438 0.037483457 0.16034043
-0.026471257 0.038773481 0.16051754
-0.02257742 0.038775865 0.16030169
-0.012203936 0.040381093 0.16021338
0.0088891461 0.041297708 0.16035175
0.0094568823 0.041953273 0.16088846
-0.0088189514 -0.048063703 0.16111824
-0.011392495 -0.047611613 0.16182235
-0.012136269 -0.046096835 0.16197443
0.008832559 -0.045645528 0.16181469
0.009878533 -0.045096159 0.16166794
-0.015013523 -0.044663671 0.16138604
-0.032629687 -0.034646835 0.16111988
0.02861294 -0.03273122 0.16199908
0.037108153 -0.03007957 0.16178283
0.033677254 -0.02866929 0.16105571
-0.040643897 -0.027950177 0.16132623
-0.039737023 -0.027737502 0.16127527
-0.042356476 -0.025070071 0.16153038
-0.041592278 -0.025471786 0.16167164
-0.04285235 -0.021317534 0.16161722
0.038283806 -0.020777293 0.16197366
0.039446048 -0.016808102 0.16159126
-0.045238547 -0.013144425 0.16178742
0.041494593 -0.012976431 0.16146696
-0.047300301 -0.0069567058 0.16194284
-0.047542103 -0.0013923291 0.16108432
0.041567456 0.00021839887 0.16195711
0.041377783 0.0033442359 0.16182113
0.044091363 0.0078149922 0.1611909
-0.041475981 0.017157681 0.16186497
-0.040487871 0.018123066 0.16184765
0.037615608 0.019653723 0.1617648
-0.03858253 0.02151146 0.16139397
0.033545647 0.022138136 0.16103745
0.035272371 0.022868533 0.16149503
-0.031160217 0.029886601 0.16198564
0.026823135 0.03054883 0.16184792
0.026515167 0.032668035 0.16182664
-0.02640949 0.034457903 0.16100302
0.025646105 0.035372574 0.16126561
-0.019837469 0.039686184 0.16126448
0.016226016 0.039143953 0.16152391
-0.015922923 0.040715504 0.1616993
0.013074699 0.040846314 0.16180056
-0.0082731405 0.042116556 0.16180682
0.0021856893 0.042373694 0.16155106
0.0057773273 0.042051591 0.16104391
-0.0046965629 0.043321405 0.1616956
-0.013954295 -0.046417084 0.16284895
0.013228171 -0.043527395 0.16207422
-0.018347755 -0.042950843 0.16223323
0.016226571 -0.042529769 0.16202113
0.017480522 -0.041269694 0.1624307
-0.022257447 -0.040765233 0.16227576
-0.025682125 -0.039158616 0.16200274
-0.028253011 -0.038553569 0.16214272
0.022386506 -0.038945265 0.16276634
-0.028520785 -0.037671752 0.1623199
0.025694944 -0.037263189 0.16294309
-0.036328249 -0.032134149 0.16229635
-0.037320919 -0.030109517 0.16227064
-0.035284694 -0.030895881 0.16298488
0.030671956 -0.030803174 0.16217831
0.031247109 -0.028588209 0.16283137
0.033905856 -0.028390748 0.16252273
0.036174253 -0.024474651 0.16240948
-0.043800268 -0.017389271 0.16259202
-0.047356978 -0.0099144373 0.16257519
0.042325258 -0.0087138424 0.16296774
0.042614579 -4.2284439e-05 0.16251943
0.041389734 0.0014742613 0.16234434
-0.047144793 0.0037146471 0.1628828
-0.046476804 0.0049881916 0.1622811
0.041609697 0.0041262037 0.1627498
0.040844832 0.0070246756 0.16271275
-0.045136955 0.0088609643 0.16297138
-0.042985089 0.011612443 0.16281909
-0.039735422 0.021582609 0.16251326
-0.037379391 0.025723113 0.16286325
-0.033778034 0.027640034 0.16218671
0.029990979 0.027184455 0.16230008
-0.035026945 0.028454011 0.16282952
-0.030680027 0.029985877 0.16250753
0.027377894 0.02980582 0.16222137
0.02865852 0.029008579 0.16299069
0.029792355 0.029738961 0.1624437
0.023814246 0.034807924 0.16204664
-0.024792448 0.036022883 0.16267627
-0.021731609 0.037681509 0.16281348
0.02019624 0.037529722 0.16238475
-0.017565848 0.039043922 0.16251701
-0.0043566362 0.042712517 0.16250437
-0.00069945492 0.042196184 0.16219851
-0.0081535 -0.046050705 0.1632455
-0.0046980251 -0.046028338 0.16348726
-0.0027398523 -0.045761719 0.16302198
-0.017690547 -0.043463588 0.16398233
0.018236175 -0.041622948 0.16388512
-0.022424448 -0.040562883 0.16344085
0.021557899 -0.03938926 0.16380084
-0.030228393 -0.036470767 0.16377339
0.028026259 -0.03516157 0.1635085
0.03202074 -0.031052426 0.1631085
0.037226666 -0.028581977 0.16339329
0.034048613 -0.027877778 0.16334814
-0.036692843 -0.026943428 0.16373113
0.036158171 -0.022767991 0.16325378
0.040805653 -0.014710633 0.16323924
-0.046990968 -0.012453711 0.1636613
0.041498933 -0.012276478 0.16390121
0.041317835 -0.010747272 0.16329473
0.042979822 -0.0045105908 0.16341701
0.041342214 -0.0029826108 0.16355428
0.042398863 0.007769255 0.16315129
-0.045728445 0.0087186173 0.16321301
0.039904017 0.0097016506 0.16364926
0.03820508 0.012753762 0.16371536
-0.042116251 0.015564593 0.16366276
0.036737628 0.016795056 0.16321129
0.035285469 0.023028404 0.16393912
0.031029331 0.02564049 0.16378993
0.03263808 0.026271652 0.16329262
-0.032387041 0.031810943 0.1630224
-0.028152967 0.034905605 0.16373357
0.019219231 0.035582442 0.16382417
-0.021345127 0.038953934 0.16366097
0.015010596 0.039893139 0.163257
-0.018755082 0.040294673 0.16381735
0.003380172 0.040993702 0.16315198
-0.0096103419 0.041795321 0.16340199
0.0085149128 0.041961808 0.16319349
0.010957521 0.041283451 0.16317061
0.01130935 0.041675143 0.16352481
-0.001667792 0.042506501 0.16305095
0.0047842492 0.042730756 0.16305539
0.00020571367 0.043248959 0.16319317
0.0043581501 -0.048105434 0.16427559
0.00043261636 -0.047311306 0.16453058
0.00037290901 -0.04631082 0.16445303
0.00222224 -0.046485186 0.16470894
0.0044605741 -0.046589613 0.1640881
0.0079765385 -0.046285577 0.16489404
0.0033990908 -0.045724794 0.16494703
-0.0079629011 -0.043934584 0.1644308
-0.020455763 -0.041923899 0.16425702
-0.027132263 -0.038943186 0.16426274
0.02492738 -0.037422478 0.16412991
-0.030314047 -0.036426477 0.16420919
0.025876064 -0.034438372 0.16463602
-0.033136293 -0.033147149 0.16459838
0.029299267 -0.030998571 0.16441873
-0.040131316 -0.028046012 0.1645717
0.03269342 -0.028837785 0.16445529
0.034999356 -0.02599477 0.16455835
-0.043996178 -0.019222647 0.16498655
-0.045723394 -0.014949564 0.16418666
-0.045908637 -0.01232221 0.16494957
-0.047875542 -0.0085070003 0.16470322
0.041653208 -0.0071914922 0.16412151
0.042026013 -0.007030597 0.16471472
-0.049582388 -0.0052765328 0.16429335
-0.04809247 -0.004327531 0.16491759
-0.047046416 -0.0034935288 0.16499251
-0.047776937 -0.00043824798 0.16489729
0.041247062 -0.00083480775 0.16479754
-0.047710866 0.0021291841 0.16419968
-0.047160849 0.0042494042 0.16496563
0.041197635 0.0052761286 0.16453618
0.03988567 0.0087141041 0.16435987
0.038590223 0.011460724 0.16459215
-0.043738145 0.012759645 0.16408575
0.03547091 0.021034958 0.16411987
0.032724883 0.023339208 0.16445652
-0.034900803 0.026245473 0.1646286
-0.029684732 0.030731371 0.16478673
0.02487785 0.032479104 0.16405654
-0.02707595 0.033400141 0.1649195
0.02201011 0.034235004 0.16455311
0.023939045 0.034411065 0.16403109
-0.025186198 0.035730325 0.16471556
-0.024811372 0.037076216 0.164092
0.0061751865 0.040811874 0.1646232
0.00064339116 0.041945975 0.16411525
0.0074005853 0.041851185 0.16434342
-0.0054992698 0.042267941 0.16443372
-0.0040870672 -0.048245993 0.16553262
-0.0086301528 -0.047895007 0.1655218
0.0079120453 -0.047640253 0.1656563
-0.012520887 -0.046708345 0.16572455
-0.011076665 -0.04611139 0.16500106
0.011340453 -0.045459867 0.1654627
-0.017471569 -0.04405101 0.16591769
0.021091752 -0.040393915 0.16579098
0.024199219 -0.039136291 0.16584986
-0.028332839 -0.037513886 0.16585779
-0.030278871 -0.035370979 0.16562331
-0.03337248 -0.034359626 0.16539754
0.029742368 -0.034540944 0.16589156
-0.037010036 -0.031230289 0.16553757
0.031982321 -0.031704839 0.16593513
-0.039926 -0.027717816 0.16547203
0.037083171 -0.026126964 0.16567832
-0.042015299 -0.025800562 0.16556036
-0.041999325 -0.024300389 0.16585901
-0.042863436 -0.021687375 0.16597602
0.036897182 -0.021321185 0.16557801
0.040643338 -0.016350355 0.16594884
0.041302126 -0.0036368668 0.16516888
-0.04848754 -0.0023070406 0.16565847
-0.047972757 0.00033379719 0.16507447
-0.044587146 0.010353221 0.16562724
-0.043277476 0.01356109 0.16575944
0.039019436 0.015495367 0.16574323
0.037603084 0.018641643 0.16551381
-0.040311761 0.019089403 0.16565961
-0.03927251 0.023814321 0.16542676
-0.037584517 0.025801936 0.16574511
0.031464458 0.025701022 0.16558167
-0.034868024 0.028998177 0.16552907
-0.032792944 0.028425943 0.1658892
-0.032306477 0.031591084 0.16557875
-0.027270045 0.033075329 0.16598874
-0.029645093 0.034069598 0.16587305
-0.020287514 0.038712706 0.16575295
0.017133217 0.038142391 0.16568765
-0.017631553 0.039665017 0.16573367
0.013851087 0.04033317 0.16536832
-0.0027798042 0.041577399 0.16562581
0.0037502237 0.041676976 0.16533101
-0.015509647 -0.045283251 0.16690135
-0.0037334245 -0.045901202 0.1667605
0.0088311322 -0.045130659 0.16619951
-0.014367486 -0.044962179 0.16613391
0.012593073 -0.043651942 0.16613877
0.014893917 -0.04351059 0.16615292
0.017726 -0.041966304 0.16637385
-0.026283277 -0.039246831 0.16641542
0.02638207 -0.03666408 0.16647363
0.027525444 -0.032852799 0.16626364
0.02959146 -0.030568158 0.16687489
0.03140131 -0.026976893 0.16619587
0.034093045 -0.026431408 0.16654372
0.037368625 -0.023660541 0.16618115
-0.043047391 -0.021674484 0.16604394
0.039136156 -0.020455927 0.16639459
0.038844977 -0.017504733 0.16607058
0.04195163 -0.013270521 0.16601241
-0.046807546 -0.0058535617 0.16659802
0.0419145 -0.0041147005 0.16609943
0.041732267 -0.00070867129 0.16676497
0.040593609 0.0031068772 0.16642272
0.042281065 0.0048238272 0.16624212
0.041571565 0.0066069979 0.16642797
-0.046172518 0.0083951773 0.16648775
0.040851779 0.0082976455 0.16651875
0.039605703 0.011097342 0.16607291
-0.042658739 0.017230511 0.16627717
-0.038580384 0.021881148 0.1660769
-0.03649332 0.024788436 0.16669211
-0.034502223 0.026933104 0.16628611
0.02900728 0.028433206 0.16663548
-0.029599581 0.030771617 0.16680017
0.025829569 0.030801315 0.16628456
0.027103839 0.030303907 0.16666216
0.023461051 0.034044977 0.16676554
0.023436906 0.035390317 0.16685975
0.019867506 0.038278095 0.16621712
-0.014519055 0.040754247 0.16613495
-0.013020366 0.040856022 0.16601595
0.01539785 0.040373556 0.16646677
-0.011033384 0.041492619 0.16621631
0.0011295509 0.041747019 0.16693223
-0.0086769145 0.042330522 0.1663267
-0.0056469608 0.042368256 0.16643056
-0.0044872151 0.043116383 0.16645777
-0.0013795532 -0.04711546 0.16711769
0.0056742765 -0.047303572 0.16739088
-0.003590975 -0.046652026 0.16780925
0.0055692811 -0.045548029 0.16754371
-0.028488891 -0.037528098 0.16789389
0.026499111 -0.035589337 0.16736299
-0.034227286 -0.032680351 0.16750637
0.028497688 -0.032620158 0.16789803
-0.036865816 -0.030361189 0.1670177
-0.035764229 -0.029052615 0.16713887
-0.038432214 -0.027491927 0.16795173
0.03601604 -0.024751933 0.16754264
0.039952092 -0.015048577 0.16788012
0.040600777 -0.012451179 0.16731831
-0.049885474 -0.0094033983 0.16773498
-0.046903625 -0.0088557862 0.16725883
0.041993074 -0.008663211 0.16794753
-0.048663702 -0.0069791083 0.16702324
0.041454118 -0.0063607842 0.16765189
0.042971697 -0.0048632007 0.16762182
-0.047798425 0.00041920878 0.16712815
0.043665342 0.00058786233 0.16711462
-0.046522364 0.0044114292 0.16757447
0.040185969 0.010483018 0.16778767
-0.04530384 0.011148871 0.16726714
0.037977986 0.015116874 0.1673134
0.037079215 0.017971352 0.16775545
0.03675117 0.019766308 0.16740656
0.034746416 0.02268346 0.16709396
0.031152291 0.025334412 0.16773072
0.032609835 0.026494112 0.16776389
0.030268775 0.030193793 0.16704741
0.026531268 0.033196356 0.16705519
-0.0254662 0.034750544 0.16767243
0.020365173 0.035411749 0.16742951
-0.025014836 0.037054896 0.1678246
0.015058957 0.039689083 0.16767699
-0.017400378 0.040010415 0.16778299
0.012278711 0.040574618 0.16751558
0.0063830875 0.041743722 0.16771764
0.0084972344 0.041762557 0.16798598
-0.0076741315 0.042078272 0.16748485
0.004392548 0.042902317 0.16741914
-0.00058823143 0.043689303 0.16713324
0.00056623988 -0.047206778 0.16806692
0.0044693537 -0.047091622 0.16835034
0.003320124 -0.046476461 0.16834101
0.013487699 -0.044091687 0.16872668
-0.019149775 -0.043720007 0.16877919
-0.018477345 -0.043524027 0.1687308
0.013372099 -0.043396883 0.16884616
-0.021728292 -0.041592121 0.16840491
0.01740762 -0.041680068 0.16834593
-0.024617467 -0.040128555 0.16888389
0.021778543 -0.039787382 0.16824931
-0.029901274 -0.03667162 0.16816735
-0.032374606 -0.035012644 0.16833711
-0.040043611 -0.027124997 0.16886252
0.034404926 -0.02691048 0.16887313
0.036833763 -0.025100937 0.16880125
-0.042816076 -0.024517791 0.16807061
-0.042828646 -0.021165226 0.16842836
-0.043913689 -0.017537931 0.16812292
-0.046414606 -0.011253478 0.16818589
0.041538142 -0.0093559865 0.16806957
-0.048215427 -0.0073171128 0.16811562
-0.047708888 -0.0044520954 0.16823122
-0.0473978 -0.00056859537 0.16821611
0.041584589 0.001534747 0.16871551
0.041277889 0.0045022592 0.16883367
-0.043868117 0.013718732 0.16811365
-0.041144118 0.017004738 0.16800806
0.038392041 0.017131325 0.16825631
-0.042343926 0.018702224 0.16880029
-0.039478488 0.020259274 0.16873214
-0.040676855 0.021758404 0.16836908
0.03524806 0.02167381 0.16811317
-0.033172127 0.027878314 0.16891146
0.028163908 0.028728945 0.16816804
0.025262978 0.031647719 0.16876179
0.022956941 0.033534769 0.16888866
-0.023075253 0.036304642 0.16829124
-0.021098588 0.038626865 0.16858029
-0.0018962063 0.041970421 0.16820008
0.0094929729 0.041668482 0.16821405
-0.0047801915 -0.04715487 0.16954568
-0.0064420849 -0.046877541 0.16903612
-0.00084064715 -0.046301804 0.16935679
0.002545977 -0.046188831 0.16914883
0.0097187357 -0.04615806 0.16955155
0.0079562683 -0.045846209 0.16983387
-0.016244054 -0.044805132 0.1692009
-0.0066610426 -0.044772174 0.16926143
0.016305301 -0.042888064 0.16921344
-0.022494785 -0.040861398 0.16907796
-0.026892841 -0.038772434 0.16911143
0.024873769 -0.037698627 0.16943416
-0.030983601 -0.036089804 0.16985977
-0.030853856 -0.03455656 0.16922197
0.027279908 -0.033685364 0.16935366
-0.033169519 -0.032048158 0.16953361
-0.038153633 -0.029134417 0.16995615
0.030359732 -0.029029727 0.16918182
0.032236423 -0.02856884 0.16960305
0.034751594 -0.028303295 0.16940886
0.038892582 -0.021341454 0.16921401
-0.045541536 -0.014896682 0.1692898
-0.04561574 -0.013783455 0.16943905
0.041971676 -0.012176814 0.16992941
-0.046351537 -0.010698085 0.16996622
-0.047452427 -0.0042349007 0.16951275
-0.046218328 -0.0025796201 0.16918287
0.041690759 -0.0021212269 0.16972381
0.041090317 -2.4029985e-05 0.16929293
-0.047154471 0.0018201228 0.1691815
-0.04708508 0.0043499917 0.16946584
0.043503694 0.0043315189 0.16966996
-0.045744918 0.0095528103 0.16937509
-0.044468768 0.012668271 0.16934863
-0.038428511 0.025805019 0.1699622
0.029992511 0.026689241 0.16966748
-0.03219739 0.028774196 0.16949317
-0.035839975 0.029143963 0.16994056
-0.030645782 0.029952865 0.16940251
0.029895779 0.031347468 0.16998264
-0.033127949 0.032203015 0.1699844
0.027512796 0.033116605 0.16992739
-0.02447835 0.035999309 0.1692175
-0.025196219 0.037107468 0.16998672
-0.021149343 0.038361873 0.16959026
-0.0045519937 0.041883979 0.16910681
-0.00053895079 0.041687615 0.1690332
0.0027669128 0.041358888 0.16963261
0.012004011 0.041805692 0.16974512
-0.0081714243 0.043228168 0.1695025
-0.0045859572 0.043695435 0.16962197
-0.0006805585 0.044114318 0.16978824
-0.010150684 -0.046308566 0.17000687
-0.0084316805 -0.046761736 0.17005646
-0.01300787 -0.045400299 0.17031676
0.019734647 -0.040798079 0.17098492
0.021661252 -0.039887462 0.17021012
0.022305598 -0.039329253 0.17069417
-0.026766693 -0.038475189 0.17016411
0.025512245 -0.037419233 0.17010441
0.028888894 -0.035085689 0.17003775
0.03293737 -0.031969406 0.17065242
0.029030699 -0.030911213 0.17051548
-0.04053906 -0.026848705 0.17040387
0.031509463 -0.026553461 0.17045623
0.037612338 -0.021947337 0.17043114
-0.043604445 -0.019779548 0.17084876
0.042177692 -0.015919425 0.17010167
0.042836104 -0.007088671 0.17055082
0.041990109 -0.0049295928 0.17096537
0.044027261 -0.0032058926 0.17020825
0.041023262 -0.0023793671 0.17015636
-0.047177203 -0.0011911299 0.17086819
0.044173326 0.00069557218 0.17022115
-0.046437051 0.006391691 0.17060217
-0.045906521 0.0072932523 0.17052463
0.041417446 0.009221999 0.1703077
-0.044646163 0.012137261 0.17066407
0.039406218 0.013473481 0.17035832
-0.038015231 0.022814963 0.170488
0.029877961 0.027348418 0.17065278
0.031939413 0.029281002 0.17059427
-0.028989878 0.030913871 0.17048475
-0.026197009 0.033962797 0.17085287
-0.028961776 0.035155792 0.17011571
0.021294679 0.035122633 0.17091835
0.018553983 0.037608761 0.17038015
-0.018164249 0.04027462 0.17010987
0.015821382 0.040922679 0.17062232
-0.012471938 0.041754995 0.17037588
-0.0069739334 0.041607484 0.17097548
0.0022301562 0.041527659 0.17049453
0.003412796 0.04367464 0.17037898
0.0015491042 -0.047251225 0.1715641
-0.012140934 -0.046211448 0.17129156
-0.0018588938 -0.046498336 0.17194355
-0.016325306 -0.044746451 0.17116433
-0.020081358 -0.043163843 0.17156908
-0.029010415 -0.036684189 0.17198765
-0.034344979 -0.035059173 0.17155665
-0.029213427 -0.03589981 0.17152321
-0.032561965 -0.034360439 0.17151541
0.028557783 -0.033152614 0.17193857
-0.03763289 -0.032191113 0.17181873
-0.034260292 -0.032429084 0.17164004
0.035552043 -0.025257027 0.17170745
-0.042111296 -0.024853157 0.1717267
0.034297545 -0.024441464 0.17146105
-0.041816469 -0.023962019 0.17165643
-0.044862319 -0.016477309 0.17173058
-0.046104722 -0.012384976 0.17192957
0.041321244 -0.01256796 0.17197019
-0.04785531 -0.0081736976 0.17119184
-0.048272662 -0.0045590485 0.17161265
-0.046065293 -0.0047549102 0.17155033
-0.046954837 -0.0016575716 0.17189372
-0.048021197 -0.00087617448 0.17177549
0.039583605 0.0051775426 0.1715337
0.041002333 0.0068268757 0.17100739
-0.046135221 0.0085442364 0.17115599
0.040647395 0.010284664 0.17160821
-0.042946663 0.01488844 0.17109549
0.037094645 0.017873613 0.17102045
-0.035597861 0.024998337 0.17179757
0.032153957 0.024615822 0.17158008
-0.035961375 0.025298225 0.1714299
0.024364827 0.031373836 0.1710293
-0.028593276 0.032118555 0.17115742
-0.026342304 0.033689514 0.17187113
-0.010662161 0.041580185 0.1710397
-0.0067308787 0.041911334 0.17152876
0.0051179118 0.041440304 0.17178506
0.00070694729 -0.048355069 0.17233324
0.0044274633 -0.048012666 0.17229891
-0.0034535038 -0.047999997 0.17232782
0.0082270503 -0.047048707 0.17218426
0.0010168683 -0.046327457 0.17212504
0.0046499167 -0.04615809 0.17200741
0.01009812 -0.045642652 0.17283428
-0.014748665 -0.044794794 0.17219165
0.013800836 -0.044479873 0.17242324
0.014030645 -0.044107113 0.17281446
0.01651768 -0.043022525 0.17248169
0.017709704 -0.042581115 0.17250735
-0.022646409 -0.041226931 0.17294407
-0.025128799 -0.03949862 0.17289823
-0.023922149 -0.039697677 0.17293987
-0.027413208 -0.038968731 0.1723727
-0.03084179 -0.037321009 0.17220899
-0.025937013 -0.037415698 0.17293492
0.02716809 -0.034960832 0.17248055
0.03145228 -0.034668829 0.17269492
-0.039862353 -0.028060641 0.17223832
-0.038697634 -0.02715734 0.17208827
0.031675383 -0.024170484 0.17233038
-0.042800136 -0.021593791 0.17244688
0.04006936 -0.020908941 0.17298418
0.041776117 -0.017301384 0.17251575
0.039831419 -0.016987093 0.17228082
-0.044979114 -0.015034214 0.17270601
-0.046314482 -0.010325095 0.17288598
-0.046437871 -0.0091392789 0.1728121
0.041144904 -0.0082737729 0.17270005
0.041434351 -0.0056901872 0.17226222
-0.046584595 0.0016133152 0.17244944
-0.047933273 0.0032881021 0.17286628
0.041302241 0.0034261364 0.17223802
-0.044380683 0.01439257 0.17212072
0.038531344 0.015499443 0.17243156
-0.04296701 0.017933697 0.17287767
-0.041187748 0.018319869 0.17235756
0.036748469 0.019442361 0.1720905
-0.03921124 0.021202937 0.17290047
0.033744387 0.022763794 0.17236698
0.03514323 0.022771306 0.17221594
-0.033624582 0.026762873 0.17283583
-0.035691623 0.030051101 0.17271948
-0.023207195 0.035493694 0.17221102
0.016418591 0.038589783 0.17237023
0.020290207 0.039165098 0.17218694
-0.016715348 0.040566497 0.17256597
-0.003786223 0.041622475 0.17260063
0.0052568037 0.041926622 0.17225623
0.012652197 0.04106278 0.17253175
-0.013432669 0.042233296 0.17249274
0.0030935369 -0.050299145 0.17338228
-0.0082722269 -0.046972122 0.17381614
-0.0030239467 -0.046028905 0.1736128
-0.018032089 -0.044128109 0.17315674
-0.023233805 -0.040834777 0.17310804
-0.034857426 -0.030500038 0.17346191
0.030046726 -0.030363679 0.17339316
0.031446014 -0.030043082 0.17320666
0.03366106 -0.030682513 0.17386693
0.035164833 -0.028057387 0.1735346
-0.041020498 -0.02561995 0.17318574
0.037689526 -0.024593212 0.1736744
0.038076181 -0.021085924 0.17352405
-0.043887071 -0.017843373 0.17327619
-0.04614285 -0.0058134422 0.17343733
0.040923372 0.00097668543 0.17329115
0.041799061 0.0004233364 0.17310131
-0.046263464 0.0037597977 0.1733855
-0.046320926 0.0067583462 0.17356358
-0.046477005 0.0082675684 0.17397061
0.042684421 0.0084615927 0.17364755
-0.041337498 0.021500707 0.1730653
0.028830118 0.027486693 0.1733084
0.032910172 0.027685698 0.17397416
0.028545251 0.028897151 0.17332977
-0.031412333 0.029523507 0.17359349
0.026825154 0.029573716 0.1735127
-0.030558944 0.030050237 0.17345086
0.026216267 0.030959284 0.1731599
-0.033617955 0.032539353 0.17313591
0.027006436 0.033709012 0.17354158
0.023861725 0.036440011 0.17325222
-0.019156814 0.039630175 0.17377943
-0.012413269 0.041397445 0.17310625
-0.0026628859 0.041295312 0.17318237
-0.00066230632 0.041724682 0.17320904
0.014372916 0.041468576 0.17366961
-0.0089816172 0.043718576 0.17337897
-0.0047152983 0.044237342 0.17364332
-0.0083392933 -0.046269737 0.17466044
-0.0047288779 -0.046796158 0.17411998
0.0067253057 -0.046112753 0.17483118
0.023091588 -0.039172001 0.17410117
-0.027839417 -0.037554298 0.17497662
0.025419513 -0.037568603 0.17494208
0.028299071 -0.035655349 0.17468563
0.030693209 -0.032868348 0.1743269
-0.036184534 -0.03069713 0.17435855
-0.039171748 -0.027784918 0.17436507
0.040962849 -0.014714764 0.17498857
0.041647963 -0.011861998 0.17462093
0.041191448 -0.010898589 0.17491385
0.042657442 -0.0082407137 0.17409667
-0.045964643 -0.0065579545 0.17466241
0.043631315 -0.0036784881 0.17457402
0.044176035 0.0008640532 0.17472398
-0.04679849 0.004725676 0.17434397
0.043710761 0.0047442117 0.17413801
0.041796073 0.011284448 0.17409027
0.039272036 0.014239904 0.17451945
-0.042345643 0.016170133 0.17472693
0.03533338 0.020980101 0.17448595
0.034663644 0.024268633 0.1744929
0.03073507 0.026272316 0.17484841
0.022376059 0.031818565 0.17465129
0.030012142 0.031218387 0.17405033
-0.028867671 0.032042243 0.17412451
-0.025034031 0.035083752 0.17481199
-0.028116703 0.036111046 0.17426112
0.020023353 0.036914706 0.17402869
-0.021733491 0.037136227 0.17489755
-0.021606751 0.038767669 0.17435244
-0.0057510994 0.040928014 0.17459759
0.010476206 0.041279159 0.17457733
0.01125015 0.041646481 0.17470431
0.007644793 0.042409629 0.17477018
0.0082339067 0.042902622 0.17428416
-0.00083576428 0.044587918 0.17414168
0.0039391601 0.044256859 0.17470902
0.0014708149 -0.049333386 0.17596173
0.004412163 -0.04918506 0.17571053
0.015006882 -0.04461728 0.17554876
-0.020301746 -0.043929547 0.17519045
-0.016812118 -0.04392549 0.17541051
-0.022632016 -0.042365149 0.17554194
-0.020836512 -0.042782001 0.17519274
0.018746715 -0.042056013 0.17500448
0.02270275 -0.039789803 0.17549714
-0.031412311 -0.038047042 0.17590183
0.025608081 -0.037428457 0.17534772
-0.034567442 -0.035698313 0.17537826
-0.030915754 -0.034657266 0.17534786
-0.037811648 -0.032420434 0.17598945
-0.032171834 -0.03297697 0.17585391
0.035458907 -0.026089026 0.17570308
-0.042827468 -0.019312922 0.1755743
-0.04542993 -0.015437895 0.17515436
-0.045766354 -0.013632836 0.17541295
-0.04611649 -0.012459794 0.17587337
0.042395726 -0.0066881236 0.17576206
-0.046148051 -0.0036697313 0.17576092
0.041177534 -0.0031439941 0.17576057
-0.04655287 -0.0024428889 0.17555189
-0.048812985 -0.00081040931 0.17530063
-0.046709307 -0.00053573586 0.17538843
0.041505314 0.006035747 0.1756897
0.041336033 0.0093687214 0.1751911
-0.044393726 0.012456927 0.17541993
0.037255425 0.01797922 0.17505851
0.036847588 0.018554471 0.17593056
-0.035103731 0.026110124 0.1754359
-0.033113837 0.028218206 0.17572314
-0.029829863 0.031387106 0.1759851
0.024267443 0.033238705 0.17558372
0.022184324 0.034935854 0.17507681
-0.025592208 0.035597865 0.17554641
-0.025446489 0.037276186 0.17517805
-0.0059533622 0.041960016 0.17568398
0.00099963881 0.042159073 0.17583263
0.0049920972 -0.048609443 0.17680663
0.0021241736 -0.047729984 0.17630497
0.0092692357 -0.047556028 0.17681748
0.00087830611 -0.046337269 0.17616072
-0.01000512 -0.045794256 0.17658669
0.0033912454 -0.045992963 0.17628995
0.013510063 -0.045327749 0.17620683
-0.013853516 -0.044632826 0.17673475
-0.026854899 -0.0403312 0.17625594
0.021686791 -0.039519414 0.17634884
0.026662385 -0.035961349 0.17636421
-0.02993466 -0.034731951 0.17622817
0.028598489 -0.034237452 0.17637679
0.033069745 -0.032030664 0.17637831
0.034095425 -0.028697319 0.17664292
0.035179574 -0.028770585 0.17638451
-0.040429268 -0.025843311 0.17679122
0.037693355 -0.025408138 0.17639887
0.031796847 -0.023398008 0.17631596
-0.042187419 -0.022160379 0.17674333
-0.042901654 -0.019095607 0.17627034
0.039842863 -0.017930754 0.17613146
-0.044702001 -0.016432634 0.17600477
0.041312985 -0.01581553 0.17688292
-0.047214493 -0.0095165716 0.17618367
-0.048513651 -0.0047095381 0.17603433
0.041732319 -0.00098102726 0.17697534
-0.045231394 0.0074985102 0.17645672
-0.046165161 0.0081429686 0.17677933
-0.04603786 0.0096221417 0.17678595
-0.044384949 0.013594475 0.17646268
-0.039351072 0.021816699 0.17688993
-0.041418981 0.022310454 0.17600459
0.032971092 0.023427026 0.17663985
0.033225492 0.023792423 0.17612699
0.031314153 0.025897561 0.17616314
-0.017819513 0.039658684 0.17682797
-0.015242411 0.040875733 0.17662185
0.01335646 0.04028305 0.17619598
0.015269391 0.040475283 0.17664558
0.0061009359 0.041591927 0.17637211
0.003773205 0.042034544 0.17644402
-0.00093726354 0.044681158 0.17690331
-0.0086867306 0.04526021 0.17688799
-0.004813849 0.045058761 0.17696279
-0.0040560095 -0.04900825 0.17722929
-0.012000657 -0.046566673 0.17731392
-0.004574459 -0.045342285 0.17757308
0.0096007809 -0.045800697 0.17716026
0.018517984 -0.041785546 0.17725179
0.024527425 -0.038150158 0.17774859
0.02699459 -0.036621261 0.17759085
0.028702294 -0.035020009 0.17782772
0.030703846 -0.035091262 0.17715561
0.032824058 -0.03309121 0.1771583
-0.034689598 -0.032005757 0.17795584
-0.041395068 -0.024422072 0.17729425
0.035910949 -0.024659043 0.17777187
0.038419809 -0.021314939 0.17783195
0.039835483 -0.019841632 0.17759922
-0.046046186 -0.009513665 0.17761999
-0.044832833 -0.0073925573 0.17736381
0.041611649 -0.0001962278 0.17767867
0.043607049 0.00099115632 0.17787585
-0.048358236 0.0042429827 0.17778355
-0.04570204 0.0050112437 0.17701939
-0.045748353 0.0068149325 0.17798996
-0.045222506 0.010714056 0.17710695
0.040579293 0.010876372 0.17753515
0.039669003 0.013334952 0.17755634
0.038766321 0.014965494 0.1775535
-0.042978212 0.017136034 0.1772154
-0.034532685 0.025283111 0.17776492
0.029066345 0.027728423 0.17776313
-0.030541522 0.030509489 0.177113
-0.026750632 0.036389515 0.17733461
0.020711644 0.03639482 0.17790264
-0.02063092 0.038060494 0.17791188
0.017074648 0.038306236 0.17717227
0.019485861 0.039269906 0.17733824
-0.013988376 0.041680355 0.17743957
0.00039851479 0.04143367 0.17747885
0.003742462 0.041352235 0.17789727
-0.011795899 0.042021818 0.17738733
-0.0083677713 0.042007368 0.17780316
-0.011332321 0.043348279 0.17706841
0.0022936871 0.044606872 0.17703724
0.00077752129 -0.049428463 0.17897689
-0.0080918306 -0.047977719 0.17816508
-0.0024294164 -0.047097642 0.17833066
0.0037443582 -0.04722308 0.17875558
0.0060586967 -0.045934234 0.17838264
-0.014559498 -0.044948664 0.17802206
0.016545516 -0.043885741 0.17895818
0.01881877 -0.04214111 0.17852673
0.021682758 -0.04038503 0.17892942
-0.031601839 -0.03812268 0.17894131
-0.024910072 -0.038727317 0.17815894
-0.027988538 -0.03687077 0.17854041
-0.026357736 -0.036949921 0.17818341
-0.035784226 -0.029077752 0.17815197
-0.039819334 -0.028550534 0.17808223
-0.043190576 -0.018049994 0.17875358
0.041647293 -0.0061916653 0.17853469
-0.046401426 -0.0058001615 0.17852402
0.042091813 -0.0040440448 0.17817146
0.043017063 -0.0039540213 0.17831764
-0.047235299 -0.0025198422 0.1788424
-0.04913434 -0.0007739201 0.17875206
-0.0475078 0.0027922727 0.17839286
0.04019355 0.0037102513 0.17812547
0.042706031 0.005093921 0.17823046
0.03999649 0.0069179852 0.17895734
0.04211349 0.0090717785 0.17823815
-0.043374486 0.012596247 0.17850152
0.038115621 0.016730387 0.17818418
0.036871023 0.01875161 0.17893016
0.035128351 0.023758765 0.17870978
-0.036723323 0.024614744 0.17838094
0.032769125 0.027658187 0.17824906
0.025403686 0.030667936 0.1780394
0.029438065 0.030870682 0.17804044
-0.027997103 0.033432029 0.17811999
0.022940703 0.033192139 0.17862824
0.026361197 0.033325024 0.17837226
-0.026371423 0.035005432 0.17862675
-0.023307135 0.036782328 0.17859399
0.023098925 0.036468152 0.17804089
-0.023860302 0.037109908 0.17811164
-0.0039588567 0.040859625 0.17830092
-0.0070365053 0.041391917 0.17825523
0.0083156712 0.042661428 0.17842457
0.0048305239 0.043481011 0.17812386
-0.0028895007 -0.049363732 0.17968524
0.0044976766 -0.048421331 0.17910266
0.014107686 -0.045177598 0.17985785
-0.018841188 -0.044051785 0.17932689
0.014890954 -0.044854879 0.17943421
-0.022987183 -0.043095272 0.17991266
-0.017427919 -0.043386955 0.17924476
-0.020984415 -0.042106085 0.17982894
-0.028510196 -0.040315658 0.1790629
-0.024964184 -0.040965319 0.17955631
0.027883109 -0.036689863 0.17915261
-0.034595128 -0.035917655 0.17907649
-0.03015738 -0.034913655 0.17983273
-0.037677765 -0.03274456 0.17945009
-0.037543967 -0.026726911 0.17954737
0.031837247 -0.02376049 0.17930719
-0.043016963 -0.020894725 0.17923799
0.038990784 -0.020971224 0.17985028
-0.044150591 -0.017676892 0.17931643
0.040796451 -0.016412918 0.17922103
-0.045153305 -0.01516916 0.17965862
0.041860241 -0.011921076 0.17910653
0.040949278 -0.0095031746 0.17940381
-0.049229164 -0.0080418037 0.17995584
0.042259559 -0.0080219759 0.17917883
-0.045730419 -0.0051054284 0.17907941
-0.048924617 -0.0048051239 0.17902267
-0.048536234 0.0022583285 0.17914277
0.041344721 0.0021517649 0.17983258
0.041351043 0.0048195552 0.17986035
-0.042562366 0.016927296 0.1791651
-0.042403027 0.018328317 0.17941076
-0.041359 0.020558465 0.17983687
0.037050679 0.020461924 0.17922017
-0.041554917 0.021816652 0.17981175
0.034854107 0.021731419 0.17930371
0.033454094 0.024786627 0.17962673
-0.032033954 0.02900042 0.17995378
-0.03100268 0.029669829 0.17970538
0.025458327 0.031878747 0.17936918
-0.028706707 0.033350173 0.17931709
-0.021166902 0.038261525 0.17901516
0.015533272 0.039766893 0.17989594
-0.017325416 0.040252935 0.17921221
-0.0048935786 0.041686468 0.17999697
-0.0021879822 0.041376851 0.17986819
0.0029635783 0.041847527 0.17995897
0.009897694 0.041346926 0.17953271
0.011756487 0.041648474 0.17916116
0.0069316588 0.042612731 0.17933303
0.010027196 -0.047166366 0.18004835
-0.0001961682 -0.046041995 0.18045872
0.0077055749 -0.046383385 0.18064228
-0.012897925 -0.04505628 0.18057588
0.010812979 -0.045718372 0.18023366
-0.03336959 -0.032657657 0.18007326
0.032217674 -0.032271061 0.18028378
0.033533767 -0.032037072 0.180861
-0.037454572 -0.030158296 0.180933
0.03346692 -0.029298633 0.18078053
0.036031161 -0.028823087 0.18090618
0.039565034 -0.020093359 0.18085331
-0.046131134 -0.01430303 0.18053746
-0.045942657 -0.0113646 0.18033427
0.043219022 -0.0029924063 0.18080243
0.040823229 -0.0018118732 0.18062109
0.040923379 0.0006892737 0.18076926
-0.04696583 0.0014629196 0.18037045
0.043455262 0.0010895646 0.18044132
0.042663116 0.0043435856 0.18054575
-0.044697102 0.012821864 0.18065491
0.03836171 0.017283257 0.18038207
0.033316039 0.023145629 0.18068445
0.030197585 0.02724627 0.18022698
0.032670237 0.028016888 0.18082726
0.027663076 0.029358689 0.18094844
0.029423317 0.030998936 0.18078339
-0.025787288 0.036812626 0.18090755
-0.00086723268 0.04167581 0.18029752
0.0014581662 0.041467056 0.18088347
-0.013647288 0.042386971 0.18060985
-0.0092788599 0.044972267 0.18037289
-0.0079548378 -0.047421046 0.18130398
-0.0054244809 -0.047625501 0.18144184
-0.012064361 -0.046592779 0.18163019
-0.0088528208 -0.046637461 0.18102351
-0.005169522 -0.04521548 0.18121597
-0.016048657 -0.044446606 0.18182045
0.021971475 -0.039545212 0.18193138
0.023490518 -0.039961539 0.18159035
-0.026166946 -0.038868122 0.18128833
0.026052281 -0.038480658 0.18188909
0.026331492 -0.037562378 0.18138424
0.028420586 -0.035620004 0.18129221
0.030394511 -0.035397634 0.18112385
-0.039617214 -0.027459133 0.1813488
0.033680625 -0.027537996 0.18199635
-0.039801836 -0.026961766 0.18108377
-0.041522741 -0.024464622 0.1816811
0.03185831 -0.024147954 0.18140107
0.039601896 -0.017786216 0.18100709
-0.045107126 -0.01621386 0.18194067
0.040425759 -0.014832589 0.18180996
-0.046825029 -0.0079690218 0.18127349
0.041306093 -0.0015653241 0.18164837
-0.047872901 0.0050466619 0.18164623
0.041022487 0.0071651638 0.18162441
-0.046336561 0.008423768 0.18167862
0.041138597 0.01089435 0.18169424
-0.044948 0.011608753 0.18193695
0.039559357 0.013634177 0.18168208
-0.043701157 0.015683783 0.18179753
0.037500042 0.017968925 0.18175334
-0.032976255 0.027736643 0.18123803
-0.036230542 0.029472014 0.18138024
-0.033603195 0.032085121 0.18130523
0.023614177 0.033624995 0.18172234
-0.030132905 0.034963388 0.18176198
0.021394609 0.035935272 0.18180984
-0.024667328 0.036956187 0.18133584
-0.022987738 0.037849091 0.18169188
-0.021875076 0.037630368 0.18133044
0.017855408 0.039669402 0.18107954
0.010500477 0.04084703 0.18194181
-0.014980687 0.041057415 0.18109381
-0.0080549978 0.042592052 0.18196717
0.0076096263 0.043430381 0.18138415
0.0031632066 0.04502913 0.18134546
0.0049568135 -0.048120566 0.18285102
-0.0012897067 -0.047005173 0.18283716
0.0019744765 -0.047757812 0.18232244
0.009389082 -0.047583818 0.18234348
0.012712665 -0.04611126 0.18265128
0.0048603322 -0.045788132 0.18254039
0.016235141 -0.04479561 0.18236825
-0.023425367 -0.04281662 0.1824306
0.019769017 -0.042841163 0.1820868
-0.027380962 -0.040493842 0.18266171
-0.030626845 -0.037637897 0.18296409
-0.029147875 -0.035874471 0.18256539
-0.031862803 -0.034010105 0.18279827
-0.033648081 -0.032680038 0.18289417
0.030103298 -0.03290759 0.18250746
-0.03853377 -0.025755236 0.18277204
0.035192166 -0.024884209 0.18206173
-0.043127462 -0.020422637 0.18203765
-0.046534538 -0.012682207 0.1820831
0.041640453 -0.012414571 0.18255672
0.040494315 -0.011071535 0.18209514
-0.048509564 -0.010438571 0.18256712
0.041080482 -0.0078529455 0.18235046
-0.049227376 -0.0051340042 0.18249601
0.041454561 -0.005164789 0.18245003
0.041662119 -0.0049281809 0.1829631
-0.047334649 -0.0015948135 0.18231235
-0.047829561 0.0017438084 0.18214518
0.040362921 0.0046293773 0.18221751
0.040452421 0.0080004074 0.18265009
0.040862575 0.010640778 0.18216816
0.039102469 0.014227196 0.18265617
0.03471591 0.022528162 0.1829409
0.035755076 0.022761896 0.18216836
0.03167437 0.02362822 0.18298882
-0.035815965 0.024462815 0.18229774
-0.039340016 0.025901064 0.18285713
-0.035867114 0.025233172 0.18232876
0.029354138 0.026484031 0.18260601
-0.033372045 0.027507925 0.18266776
0.025267377 0.031814359 0.18221748
-0.029235609 0.032865282 0.18252394
-0.026782854 0.03441298 0.18296367
0.023391875 0.034557451 0.18219885
-0.020338835 0.03880138 0.18272829
-0.018269453 0.039060935 0.18216264
0.014531467 0.040157899 0.18210462
-0.0078548379 0.041911073 0.18237296
0.0049388073 0.04113324 0.1829218
0.013063705 0.041577306 0.18254769
0.0012448467 0.042137627 0.18273228
-0.0033680212 -0.048394356 0.18355003
0.0011168942 -0.048461385 0.18333545
0.0017758459 -0.046181533 0.1832985
0.0056153405 -0.046551164 0.18369105
0.0080142729 -0.046163417 0.18307242
-0.018298343 -0.044418558 0.18382871
0.01814189 -0.042718701 0.18369558
-0.021670621 -0.041432008 0.18354404
0.025554301 -0.036885764 0.18379796
-0.03363084 -0.035214011 0.18350127
0.030684115 -0.035235193 0.18361542
-0.032642178 -0.034058969 0.18386763
-0.036926966 -0.032176986 0.18390459
0.033769023 -0.032127816 0.1837002
-0.035406649 -0.030621324 0.18380845
0.035226185 -0.029960344 0.18316981
-0.04238493 -0.022586502 0.18351191
0.039159238 -0.019460404 0.18388838
0.040591583 -0.016741551 0.18381548
-0.045126252 -0.015343935 0.18353206
-0.046122689 -0.0090592057 0.1833733
-0.046806015 -0.0050705113 0.18308738
-0.048753109 -0.0011201022 0.1835556
0.040665686 -0.0015265103 0.18398827
-0.046891898 0.0022294205 0.18357521
-0.047999535 0.003376168 0.18325102
-0.04315532 0.017504063 0.18382609
0.03702784 0.020243656 0.18390283
0.033110619 0.025412332 0.18329
-0.037119307 0.028220184 0.18309945
-0.033435564 0.031802341 0.18334913
-0.027884927 0.034265243 0.18363428
-0.02585629 0.03823828 0.18319115
0.019453675 0.039152239 0.18388116
-0.0031984951 0.041685693 0.18363738
0.0049745645 0.042301558 0.18310836
-0.011359746 -0.04713336 0.18440142
-0.0097729713 -0.047291026 0.18464032
-0.0078342762 -0.047684211 0.18416482
-0.014253328 -0.046444774 0.18449771
-0.0026011821 -0.0464314 0.18494198
-0.013871312 -0.045426778 0.18410629
0.010305095 -0.045442034 0.18453816
0.014730902 -0.0448495 0.18424889
-0.024838859 -0.039112482 0.18475521
0.029905612 -0.033385072 0.18496969
-0.039516076 -0.028694116 0.1841878
-0.038550496 -0.028565284 0.18496794
-0.040846977 -0.026285581 0.18442982
-0.041295141 -0.025225371 0.18432885
0.03885287 -0.023756005 0.18435144
0.038964324 -0.020780576 0.18462873
-0.043651905 -0.017987296 0.18404704
-0.045785647 -0.01038993 0.18493491
-0.046418574 -0.0073484182 0.18477932
0.042697139 -0.0077815768 0.18485817
-0.050910249 0.00072846003 0.18476894
0.041140363 0.00061052106 0.18450704
-0.04802784 0.0038268063 0.18490422
0.041021474 0.0040513258 0.184181
0.042161722 0.0051436774 0.18458402
-0.046778493 0.0071795289 0.184331
0.041381478 0.0092475563 0.18435264
0.040639255 0.012464687 0.1847204
-0.044747379 0.01370515 0.18405813
0.038765401 0.016048525 0.18435928
-0.041354775 0.021348184 0.1841508
-0.037782006 0.023392031 0.1847994
-0.035284881 0.026854683 0.18496403
0.027498765 0.028643286 0.18459523
-0.032974098 0.029045664 0.18489492
-0.031157818 0.029564511 0.18439931
-0.028994679 0.031877585 0.18481159
0.025830984 0.031167323 0.18409443
0.026463665 0.033894423 0.18472058
0.022897867 0.036555272 0.18422443
0.019920401 0.037598543 0.18475634
-0.01685527 0.039954901 0.18492076
0.016421001 0.039417133 0.18422017
-0.016919088 0.040602036 0.18407544
-0.013910811 0.041430578 0.18421197
-0.0005803369 0.041517425 0.18450367
-0.01313654 0.0424986 0.1849077
-0.011019336 0.043621149 0.18494508
-0.0044244197 0.045430541 0.18440694
0.004570975 0.045365043 0.18489012
-0.006681893 -0.047130853 0.18548819
-0.0040607601 -0.047203735 0.18529591
0.0068284087 -0.045427013 0.18531001
0.020717021 -0.040577736 0.18515387
0.02351103 -0.040408202 0.18564528
-0.027279692 -0.037982278 0.18517891
0.026600832 -0.037607916 0.18510836
0.027083935 -0.037502136 0.18588698
-0.031911545 -0.035426911 0.18504333
-0.03635262 -0.030625306 0.18500668
0.0324581 -0.028677471 0.18566465
-0.037134413 -0.027864883 0.18580356
-0.043882944 -0.019695982 0.18576968
0.040440634 -0.016611796 0.18520847
0.04232296 -0.011623993 0.18569708
0.041394614 -0.010228314 0.18585044
-0.050261326 -0.0060721575 0.18558493
0.042071976 -0.0068837088 0.18586048
-0.047970615 -0.0040528234 0.18523237
-0.048796237 0.00077807344 0.1856418
0.043834753 0.0014026088 0.18552199
0.040918864 0.0024746545 0.18547752
0.041050024 0.0059274416 0.18542904
-0.047057103 0.0075773541 0.185067
0.040767264 0.0095586032 0.18578261
0.037039571 0.018658968 0.18596956
0.035106439 0.021994727 0.18567631
0.035477277 0.024497375 0.18523529
0.027379528 0.03045805 0.18563229
0.029966263 0.031745393 0.18502623
0.025265181 0.033857383 0.18570074
-0.028502651 0.035870615 0.18504342
-0.025735103 0.035961214 0.1852653
-0.025529917 0.037115667 0.18548781
-0.022110183 0.038344365 0.18533841
-0.019510968 0.03867868 0.18560016
0.0098669119 0.041266296 0.18536288
0.0073511079 0.042484533 0.18542546
0.011619813 0.042475156 0.18581042
-0.0057419725 0.043474939 0.18538001
0.0079147993 0.044068441 0.18567032
-0.0083367275 0.045333929 0.18587711
0.0028931219 -0.048167661 0.18686825
0.0044319499 -0.046025917 0.18688491
0.0096171536 -0.046537247 0.18670177
0.013620903 -0.045095906 0.18609625
0.015813794 -0.045194708 0.18631551
-0.019587114 -0.04411884 0.18601567
-0.017127631 -0.044250831 0.18632075
0.019740209 -0.043449499 0.18611464
-0.023021691 -0.042957805 0.18652388
-0.020446854 -0.04275712 0.18667156
-0.025998324 -0.041191034 0.18665642
-0.030096028 -0.038186636 0.18647277
-0.029864775 -0.035889797 0.18647015
0.035916913 -0.028661544 0.18631369
0.034411505 -0.027180791 0.1861501
0.034499288 -0.025026334 0.186694
0.038045146 -0.025924958 0.18637964
-0.045631871 -0.016206004 0.18617693
0.041487694 -0.015279716 0.18669182
-0.046048936 -0.013214247 0.18696371
-0.045871906 -0.013951441 0.18616816
0.040968534 -0.013334501 0.1862815
-0.048069224 -0.011500752 0.18685365
-0.047073595 -0.00025728531 0.18687028
0.040675506 0.0062743984 0.18620756
-0.044711608 0.012371142 0.18628284
0.039169855 0.015625026 0.18619376
-0.04362534 0.016266253 0.18632942
-0.041895136 0.020082789 0.18677109
0.036766402 0.021626586 0.18695283
-0.040930152 0.022124808 0.18620768
0.031996153 0.023381509 0.1868194
-0.039255802 0.025653137 0.18622273
0.029660486 0.025444817 0.1866087
0.031104784 0.026865512 0.18697876
-0.032776084 0.027652621 0.18628734
-0.036227576 0.028969364 0.1866411
0.023905376 0.033265579 0.18633464
0.02202931 0.035448488 0.18657476
-0.022168478 0.037579432 0.18641272
-0.018798858 0.040047292 0.18685299
0.013159788 0.040368419 0.18634045
-0.0063158274 0.041749351 0.18631831
-0.0029289816 0.041580036 0.18665969
0.014169005 0.041109987 0.18672702
-0.0053289817 0.045219846 0.18647674
0.0029425996 0.045432329 0.18697345
0.0010175854 -0.048239503 0.18742478
-0.0032005524 -0.047933631 0.18762213
0.0052902279 -0.047131624 0.18718198
-0.008657841 -0.046741545 0.18755719
-0.0052863527 -0.046428591 0.18726805
0.0011128075 -0.046552457 0.18704227
-0.014608447 -0.045863271 0.18798694
0.012713568 -0.0455373 0.18732268
-0.01688794 -0.044288766 0.1872226
-0.034708187 -0.034678917 0.18739921
-0.032932848 -0.034016542 0.18706399
0.030416589 -0.034939807 0.18721825
0.033639394 -0.031816639 0.1870057
-0.039732967 -0.028407214 0.18765154
0.039017282 -0.022519164 0.18786862
0.041091204 -0.0066372361 0.1870479
-0.046257533 -0.00406464 0.18713763
0.04116305 -0.0027373955 0.18740678
-0.049112219 2.0018593e-05 0.18743533
-0.047957692 0.0036378717 0.18737137
-0.04683505 0.0078388639 0.18773657
-0.045575485 0.010571836 0.18762097
-0.034494333 0.025943341 0.1870001
-0.033668242 0.031844724 0.1870358
-0.031581264 0.031484991 0.18726131
-0.030322878 0.034598272 0.18713906
-0.025291545 0.035015486 0.18756932
-0.026956344 0.03659267 0.18765998
0.0059149005 0.040768776 0.18707341
0.0035656709 0.042616852 0.18739155
-0.00025469065 0.043119986 0.18751687
0.0063727447 0.044470105 0.1878778
0.00086503476 -0.048092902 0.18831459
0.0059126224 -0.048142545 0.18875384
-0.007822318 -0.04741139 0.18816668
-0.0020974688 -0.047155391 0.18857086
-0.011514683 -0.04675816 0.18811846
-0.013172379 -0.045291711 0.18870595
0.018800471 -0.042213473 0.18825448
0.021244088 -0.042621754 0.18820077
-0.02316599 -0.04115086 0.18818212
0.024256475 -0.040167511 0.18826628
-0.025774527 -0.039077844 0.18858323
0.022594858 -0.039575715 0.18801793
0.027011955 -0.037841283 0.18810284
-0.034616131 -0.035010934 0.18882215
0.030135799 -0.034537401 0.18816665
-0.035414252 -0.032255821 0.18838114
0.03436039 -0.028771417 0.18819854
-0.040153742 -0.027105093 0.18823534
-0.041694969 -0.02519721 0.1883105
0.035652895 -0.023228295 0.18858624
-0.042264104 -0.022613065 0.18870911
-0.043522112 -0.021576917 0.18847671
-0.042953815 -0.019095706 0.18834165
0.039597325 -0.017982537 0.18850458
0.04109975 -0.015814323 0.18888125
0.042281508 -0.0089272764 0.18888539
0.041327398 -0.00017819181 0.18803352
-0.049708702 0.00074310228 0.18872628
0.043609962 0.0013899273 0.18855023
-0.048659921 0.0053994861 0.18816623
0.040556163 0.0065664165 0.18844488
-0.047075845 0.008736603 0.18801388
0.040417206 0.01149899 0.18852821
-0.045174368 0.012954401 0.18880796
0.040118285 0.014221125 0.18897372
0.038403608 0.015486578 0.18891838
0.038843904 0.016997559 0.18853921
-0.043043002 0.017388355 0.18838114
-0.037075538 0.023848888 0.18877515
-0.034975421 0.029636618 0.18878564
-0.030098472 0.029887225 0.18850404
0.028451748 0.029147571 0.18827882
0.025952963 0.030164277 0.18831789
0.029325707 0.032198455 0.18843365
0.026618492 0.034087561 0.18899271
0.024117554 0.035018913 0.1880433
0.023009533 0.036869459 0.1888828
0.020220248 0.037083253 0.18882102
-0.01809158 0.039911527 0.18859285
0.015522142 0.040256564 0.18841612
-0.0088939536 0.041732837 0.18869254
-0.011728253 0.042374153 0.18879297
0.0016782439 -0.048036065 0.18961674
0.0039267046 -0.04785388 0.18978828
0.0064277141 -0.045840979 0.18974738
0.009317467 -0.044785723 0.18971762
