# .PCD v0.7 - Point Cloud Data file format
VERSION 0.7
FIELDS x y z
SIZE 4 4 4
TYPE F F F
COUNT 1 1 1
WIDTH 1342
HEIGHT 1
VIEWPOINT 0 0 0 1 0 0 0
POINTS 1342
DATA ascii
0.035306334 -0.023085238 0.28070647
0.036006212 -0.020114362 0.28169677
0.034977853 0.018384008 0.2794241
0.03475821 0.021720273 0.27806756
0.033055842 0.025370127 0.27703756
0.036088347 -0.027473597 0.2753495
0.038128436 -0.023296544 0.27647272
0.037857592 -0.020273795 0.27859697
0.037569582 0.021952266 0.27353603
0.035315156 0.025864998 0.2724728
0.034135759 0.028769152 0.27091843
0.038505912 -0.027793666 0.27123073
0.040528059 -0.023528041 0.27203247
0.039609671 0.021253722 0.26920766
0.038033783 0.025623919 0.26817775
0.036359012 0.028564299 0.26717246
0.04081881 -0.027901744 0.26704863
0.042814136 -0.023765439 0.26753414
0.043184102 0.017712222 0.2643269
0.041132569 0.021035677 0.26431143
0.040118575 0.025819054 0.26377073
0.038472176 0.029087922 0.26333359
0.043249667 -0.027925542 0.26281551
0.044799089 -0.024017891 0.26287693
0.046036363 -0.020241579 0.262676
0.044483423 0.017175553 0.26055154
0.042969286 0.020811656 0.25956768
0.042014658 0.025175923 0.258838
0.044078827 -0.027153974 0.25938889
0.045550227 -0.024087733 0.2585724
0.047472 -0.02004388 0.2594108
0.047570407 0.011851354 0.25592485
0.045309007 0.015821313 0.25582299
0.043389559 0.020665905 0.25569913
0.042652011 0.023607636 0.25597632
0.045902967 -0.023738211 0.25525117
0.048329651 -0.019102786 0.25407952
0.04980737 -0.014477508 0.25390905
0.050489962 -0.0098139737 0.25323755
0.050834 -0.0057389564 0.25203854
0.049432516 0.005698726 0.25196007
0.047175169 0.0097250026 0.25233269
0.045936048 0.013903873 0.25165424
0.048606634 -0.017990824 0.24926463
0.049736738 -0.014625361 0.24860427
0.050510049 -0.010253588 0.2488009
0.05159682 -0.0053673475 0.24899295
0.052025974 -0.00013622601 0.24828246
0.050648808 0.0049469718 0.24808586
0.048614979 0.0089231245 0.24676448
0.048571587 0.012880838 0.2457068
0.049866557 -0.013349703 0.24529868
0.050097883 -0.010438425 0.2452752
0.051142752 -0.0053766831 0.24476084
0.051663041 -0.00033224147 0.24395737
0.05056566 0.0045140502 0.24365026
0.050093949 0.0098443907 0.24338856
0.050009727 0.013241461 0.24344194
0.013960482 -0.012793141 0.31173912
0.012488484 0.0079928013 0.31088734
0.010399698 0.011940654 0.30965948
0.012964905 -0.015659057 0.30855849
0.014322937 -0.01150426 0.30866575
0.015569508 -0.0074332687 0.30836087
0.014669359 0.0036128189 0.3076902
0.012614191 0.0074009658 0.3069039
0.014633656 -0.014717893 0.30341753
0.016511679 -0.011744573 0.3040942
0.017216861 -0.0074907644 0.30517146
0.016729891 1.4208988e-05 0.30594015
0.016563654 0.0035708889 0.30409065
0.015675366 0.0077443202 0.3025201
0.014803528 0.012773567 0.30102578
0.014558434 0.016327962 0.29986146
0.017674506 -0.016573099 0.29894397
0.019216418 -0.01226675 0.30096129
0.019402623 0.0094978781 0.2990866
0.018669724 0.012754628 0.29818276
0.01725322 0.016708553 0.29710114
0.020233156 -0.025971577 0.29349822
0.020509543 -0.022321992 0.29482368
0.021289349 -0.017806899 0.29657635
0.020944118 0.012616747 0.29603553
0.020033598 0.017652601 0.29375213
0.019192219 0.021235902 0.29116964
0.022962632 -0.027585493 0.29096067
0.024360539 -0.02283944 0.29247129
0.023482978 -0.019543746 0.29412818
0.023615837 0.019109493 0.28999707
0.023055969 0.022474213 0.28848809
0.02156174 0.026551949 0.28660414
0.020848809 0.029761624 0.2854526
0.023965778 -0.031787213 0.28535491
0.025743904 -0.027937295 0.28761226
0.02572119 0.023266384 0.28595343
0.024477182 0.026652722 0.2841107
0.022830425 0.029610215 0.28316996
0.026702346 -0.032544773 0.28231737
0.028585436 -0.028282905 0.28351027
0.027690111 0.026925066 0.28133488
0.026320098 0.030461574 0.27851096
0.029774548 -0.033381384 0.27832928
0.031450927 -0.029251603 0.27933976
0.031346858 0.027586052 0.27608019
0.029267607 0.030552795 0.27490151
0.0324651 -0.033767447 0.27419573
0.033759832 -0.03025621 0.27519831
0.031836689 0.031189552 0.27050841
0.034885347 -0.033568829 0.26992968
0.036441207 -0.030630326 0.27033126
0.034617007 0.031522859 0.26613209
0.037054956 -0.033520304 0.26507401
0.039108992 -0.030762887 0.26544508
0.037280858 0.031148026 0.26138467
0.038965881 -0.033785582 0.26033038
0.041255534 -0.030526726 0.260813
0.039441526 0.030327486 0.25721896
0.03981185 -0.033331547 0.25580192
0.042313874 -0.029745819 0.2567941
0.044102728 -0.025905443 0.25604805
0.043434501 0.020581627 0.25326052
0.042342365 0.025189718 0.25387812
0.039736688 0.029745692 0.252626
0.041189611 -0.033465836 0.25323212
0.043157339 -0.02934253 0.25241596
0.044956386 -0.024838118 0.25182715
0.046351612 -0.021785075 0.25126654
0.045792758 0.01128486 0.24965146
0.044547439 0.016053313 0.24969316
0.043573618 0.020208908 0.24903381
0.042276025 0.024554452 0.24862894
0.040379703 0.027874848 0.24959242
0.0438627 -0.027892297 0.24774283
0.045751035 -0.02454566 0.24717465
0.047911763 -0.02036551 0.24753585
0.047874749 0.010882987 0.24625689
0.046798706 0.014801437 0.24569947
0.04485172 0.019300705 0.24431181
0.043431699 0.023220399 0.24484354
0.04621762 -0.02369521 0.24381861
0.048612118 -0.019857796 0.24280113
0.049937546 -0.015081534 0.24270707
0.05031836 -0.010605896 0.24208209
0.05080694 -0.0055469605 0.2412602
0.05139643 -0.00048954372 0.24049526
0.050811231 0.0049327412 0.24059954
0.050599277 0.0097112861 0.24035174
0.049443543 0.014440129 0.24047878
0.046782017 0.017940888 0.24029776
0.049408138 -0.018151047 0.23778731
0.050275564 -0.015052004 0.2374883
0.050784767 -0.010854116 0.23734882
0.051672399 -0.0057332381 0.23758513
0.051986039 -0.00063470338 0.2374981
0.051821172 0.0044539836 0.23714122
0.052032113 0.0095442217 0.23699701
0.051100492 0.013911968 0.23624364
0.049304187 0.01687065 0.23591322
0.050893188 -0.01394649 0.23421726
0.051065326 -0.010764016 0.2334781
0.0517717 -0.0058695613 0.23317999
0.051765859 -0.00083119754 0.23319626
0.052086234 0.0042388127 0.23227659
0.052419484 0.0093436111 0.23220301
0.051487625 0.012790212 0.23261192
0.0088088512 0.010451533 0.30825964
0.0087475181 0.0103187 0.30505642
0.011078179 0.010183119 0.30289799
0.011827528 0.013084193 0.30254233
0.014374972 -0.018887969 0.29899681
0.014059304 0.018659275 0.29658085
0.015677037 -0.023240596 0.29554003
0.015510975 0.022845063 0.29179931
0.018740116 0.02734613 0.28741533
0.023612263 -0.035064436 0.2804907
0.022864459 0.033323951 0.27650374
0.025774123 -0.035149999 0.27828994
0.02630919 0.033563018 0.2732887
0.027569117 -0.03847412 0.27199703
0.026815115 0.035592102 0.26771232
0.029342653 -0.038753763 0.26715404
0.032000959 -0.035699103 0.26752207
0.029397188 0.035350598 0.2632798
0.031429946 -0.039013244 0.26246133
0.032487154 -0.036003947 0.26284754
0.031594515 0.03571739 0.25839439
0.033116877 -0.042244885 0.25770813
0.034177482 -0.039226986 0.25810567
0.034598589 -0.036260247 0.2581704
0.034609854 0.035173479 0.25419489
0.034994006 -0.038459521 0.25461993
0.036943853 -0.03571244 0.25440192
0.037900031 0.032402333 0.25051692
0.036061227 0.034546681 0.2505888
0.039428115 -0.034475274 0.24984181
0.041584253 -0.031092165 0.24900052
0.041242778 0.026267888 0.24598911
0.038634539 0.029680612 0.24606401
0.036513567 0.032825787 0.24559182
0.040445268 -0.034065325 0.244524
0.041863978 -0.030518455 0.2449646
0.043940842 -0.026581505 0.24521646
0.04412812 0.021638619 0.24197528
0.042032897 0.024836371 0.24211743
0.039511979 0.028031683 0.24119717
0.04235822 -0.02986603 0.24032462
0.043973029 -0.025571568 0.23992905
0.046478033 -0.0217887 0.23884469
0.044762909 0.020330435 0.23756126
0.042491794 0.024183186 0.23708454
0.040586948 0.027524965 0.23804003
0.044952512 -0.025298337 0.23504245
0.046946883 -0.020949226 0.23553452
0.048853695 -0.016852627 0.23488861
0.04578197 0.01963851 0.23315144
0.04374361 0.022837805 0.23331079
0.04608357 -0.024409762 0.23201647
0.047521591 -0.021550829 0.23015058
0.048385382 -0.016529376 0.23021692
0.049732447 -0.011471922 0.22956926
0.050322294 -0.0062462776 0.22915649
0.050299346 -0.0010091622 0.2289933
0.05057627 0.0040829931 0.22804621
0.050335109 0.0092079323 0.22764212
0.049081445 0.013908578 0.22908998
0.046466351 0.01672099 0.22925907
0.04877156 -0.01585648 0.22633636
0.048949778 -0.011438394 0.22621164
0.049789131 -0.006356522 0.22473752
0.049965382 -0.0012097821 0.22457489
0.050130725 0.0027898198 0.22470677
0.048905611 0.0082437806 0.22482985
0.051107109 -0.0062138452 0.2213676
0.051753283 -0.001417033 0.22052664
0.050913453 0.0023232647 0.22154453
0.052649856 -0.0030308752 0.21772641
0.025826572 0.037688605 0.2613439
0.027543364 0.037540134 0.25891948
0.027790962 0.038943499 0.25648856
0.031098368 -0.044351816 0.25694561
0.031305313 0.037210375 0.25342351
0.030806718 0.038682114 0.25225553
0.031131985 -0.043770932 0.25299081
0.034110248 -0.040111117 0.25256932
0.032871902 0.036629945 0.24803579
0.033790112 -0.039422251 0.24845713
0.036650538 -0.036601398 0.24795091
0.034969568 0.035038866 0.24357912
0.036609411 -0.036127564 0.24294999
0.038439572 0.03002481 0.23975036
0.036539972 0.033216082 0.23911899
0.039312959 -0.034813996 0.2393122
0.041949093 -0.03199796 0.23796189
0.041759193 0.025899606 0.23456785
0.040061533 0.029065689 0.23491165
0.038261831 0.031963591 0.23483416
0.043499827 -0.030231385 0.23423475
0.044896245 -0.02725924 0.23402649
0.044448435 0.019038936 0.23052797
0.042655468 0.024455922 0.2307111
0.040154219 0.027813056 0.23046654
0.043444157 -0.029421998 0.2294952
0.04582417 -0.02619621 0.2300534
0.044285178 0.019361397 0.22685668
0.042282104 0.023652105 0.22622561
0.045860708 -0.025781376 0.22572786
0.047313809 -0.021908665 0.22409597
0.048714697 -0.016965918 0.22409058
0.049341202 -0.011559935 0.22389424
0.04919368 0.0046242815 0.22297341
0.04904145 0.008402111 0.22256806
0.047115386 0.013652461 0.2227675
0.04435885 0.016510559 0.22153512
0.046877563 -0.020647621 0.22035673
0.048088253 -0.016401054 0.21951646
0.049723864 -0.011772279 0.21986213
0.051651716 -0.0070728972 0.21939287
0.051009059 0.0031742011 0.21936384
0.049831927 0.0081320237 0.21890089
0.04843533 0.012882853 0.21807724
0.051181495 -0.011532912 0.21500143
0.051967561 -0.0068505569 0.21494275
0.052313089 -0.001561332 0.21464348
0.051344693 0.002726967 0.21407795
0.050674677 0.0075122477 0.21389541
0.048934281 0.012392065 0.21386206
0.051957488 -0.010760235 0.21083581
0.051534653 -0.0078128856 0.21042877
0.051546037 -0.0018953789 0.21013224
0.05125469 0.0025389777 0.20972851
0.030087175 -0.044361468 0.24597338
0.033002079 -0.040660538 0.24529371
0.029023526 0.03901824 0.24123582
0.032980919 -0.040282458 0.24096721
0.035029709 -0.037428435 0.24088532
0.033475101 0.035196647 0.23624891
0.031855881 0.036762111 0.23612443
0.03400892 -0.039847627 0.23654553
0.036727846 -0.036776558 0.23607138
0.034550369 0.034034647 0.23153254
0.037580371 -0.036080122 0.23143619
0.039665163 -0.033416424 0.2322323
0.038680255 0.029284483 0.22785819
0.036237657 0.032915451 0.22710076
0.038676798 -0.035302695 0.2266432
0.040453315 -0.032417797 0.22729832
0.040584087 0.025115872 0.22347096
0.038692415 0.028480025 0.22356576
0.036986589 0.032474648 0.22388399
0.042111814 -0.030326018 0.22321868
0.044326782 -0.027022356 0.22204933
0.04344058 0.0184818 0.22051898
0.041435719 0.023073388 0.21938348
0.043824553 -0.026197387 0.21781346
0.045516908 -0.022489915 0.21771613
0.047055125 -0.01882877 0.2175056
0.046350598 0.014755027 0.2156468
0.044372022 0.017771481 0.21518266
0.043167233 0.02182976 0.21450964
0.046110809 -0.022368336 0.21331644
0.048140526 -0.017281413 0.21405137
0.049517155 -0.013617722 0.21296236
0.049598336 0.0092980471 0.2109724
0.04823333 0.013670197 0.21182716
0.044920683 0.017109083 0.21093753
0.043791294 0.020635137 0.21123761
0.046946228 -0.021240242 0.21007773
0.048496962 -0.017237458 0.20941946
0.050604463 -0.012570456 0.20816046
0.051265538 -0.0069465148 0.20791426
0.050911427 -0.0019954848 0.2078054
0.050548792 0.0024465865 0.20735708
0.04971391 0.0078262407 0.20705739
0.048633695 0.012875056 0.20674369
0.04993999 -0.012227332 0.20404467
0.051256359 -0.0074226628 0.20330039
0.051338851 -0.0022188663 0.20308572
0.051136672 0.002235916 0.2027334
0.050086498 0.0072095455 0.2024138
0.049250424 0.012321061 0.20236582
0.051341534 -0.003869073 0.19968158
0.050954401 0.0020820186 0.19913745
0.031238021 -0.042217791 0.2382009
0.027881799 0.039157197 0.23382217
0.030044498 -0.0444199 0.23423922
0.032791078 -0.041612081 0.23391336
0.030429183 0.038167767 0.22930658
0.029180108 0.041170903 0.22674096
0.033065975 -0.04077211 0.22945595
0.035179973 -0.038229924 0.22909006
0.034841657 0.034847651 0.22511154
0.03250736 0.037521463 0.22475439
0.030664323 0.041048553 0.22500429
0.033316553 -0.040032953 0.22554535
0.036200643 -0.037705772 0.22534931
0.037698567 0.030126737 0.22098196
0.035305738 0.033432852 0.22066477
0.032930613 0.036348205 0.22137067
0.03707993 -0.036071584 0.22025001
0.039364517 -0.033046782 0.22023207
0.040543854 0.025384391 0.21599025
0.037795067 0.028513392 0.2168133
0.035167217 0.032133415 0.21711957
0.039669752 -0.031499304 0.21568936
0.042037368 -0.0277285 0.21528283
0.041454256 0.024652308 0.21276093
0.039616406 0.027542496 0.21187332
0.040206611 -0.030236011 0.21172029
0.043198466 -0.027186053 0.21160644
0.044683754 -0.024226347 0.21060699
0.044311941 0.018544795 0.20876616
0.04270488 0.022267921 0.20855308
0.040965557 0.025720598 0.2079019
0.044180512 -0.026471192 0.20664254
0.045954168 -0.023078846 0.20672366
0.046961606 -0.018272335 0.20529372
0.045675099 0.017365204 0.20472005
0.043361902 0.021592701 0.20345029
0.0465011 -0.023017326 0.2016727
0.047446728 -0.017981425 0.20149633
0.049424112 -0.013037561 0.20141169
0.049522877 0.0081067663 0.19969276
0.049147844 0.012903279 0.19991511
0.046968281 0.016959021 0.19963413
0.048009753 -0.016863076 0.19722173
0.049377978 -0.012960745 0.19717103
0.050260246 -0.0084520876 0.19749033
0.051287174 -0.0029853 0.19726712
0.050489664 0.00199141 0.19688058
0.04942143 0.0064717964 0.19620594
0.048991919 0.011701031 0.19567147
0.047875106 0.016227072 0.19562525
0.050030828 -0.012579327 0.1929802
0.050908208 -0.0086968113 0.19262928
0.051684678 -0.0034859194 0.19197088
0.05079937 0.0016098156 0.19168216
0.049314857 0.0059348796 0.19220498
0.049133062 0.011317281 0.19225791
0.031211259 -0.042527489 0.22677708
0.030420421 0.039505005 0.22236505
0.028283952 0.041887939 0.22275871
0.03134191 -0.041778944 0.22306719
0.030668197 0.037646066 0.21828315
0.033676982 -0.038402364 0.21839607
0.033647954 0.03363904 0.21442828
0.031875849 0.036241874 0.21471334
0.035848081 -0.037284072 0.21423545
0.038632274 -0.033475377 0.21339107
0.036410689 0.029876793 0.20986077
0.034647465 0.03209082 0.21080062
0.036277413 -0.036494229 0.20970377
0.039169014 -0.03287752 0.20933276
0.038244247 0.028178034 0.2058025
0.039929926 -0.032341503 0.20505279
0.042457819 -0.028509194 0.20494512
0.042887449 0.023331212 0.20097253
0.039949 0.025996296 0.2022683
0.043444872 -0.027692704 0.2001915
0.046301305 -0.024122136 0.1993489
0.0457533 0.018588005 0.19682783
0.043203235 0.021505909 0.19708508
0.040409386 0.02485829 0.1985051
0.043293297 -0.02663544 0.19585007
0.045536816 -0.023415158 0.19553128
0.047546327 -0.019261599 0.1958476
0.046814322 0.017531516 0.19331217
0.04512167 0.019979535 0.19283807
0.045745432 -0.022356147 0.19095716
0.048095644 -0.018327927 0.19150719
0.050152004 -0.013553418 0.19063151
0.051045775 -0.0088683888 0.18919006
0.050878286 0.001621582 0.18855023
0.048837185 0.0065098261 0.18948689
0.048361182 0.011564052 0.18940037
0.046804667 0.016591312 0.18897372
0.045317888 0.019830486 0.18853921
0.048402309 -0.017826336 0.18669182
0.049376786 -0.013561325 0.18569708
0.04981333 -0.0090785064 0.18485817
0.051245332 -0.0037842109 0.18550786
0.051140547 0.001636377 0.18552199
0.049188673 0.006000957 0.18458402
0.048278391 0.010788815 0.18435264
0.050422192 -0.0034911407 0.18080243
0.050697803 0.0012711588 0.18044132
0.049773633 0.0050675166 0.18054575
0.029675009 -0.042796984 0.22013763
0.029506387 -0.042094298 0.21673325
0.028607009 0.038103573 0.21156058
0.030596497 -0.041395176 0.21150714
0.033775032 -0.039100744 0.2114208
0.032114446 0.03367034 0.20713028
0.029823123 0.037345644 0.20715138
0.029353021 0.043759827 0.20674074
0.035121739 -0.038201578 0.20734745
0.033078969 0.031727165 0.20275328
0.035773158 -0.037344597 0.20284453
0.037873209 -0.034916952 0.20237452
0.03742677 0.027511844 0.1989041
0.034536123 0.030245515 0.19818899
0.036702335 -0.035650775 0.19934124
0.0392645 -0.032307386 0.19843271
0.041303277 -0.02959987 0.19742525
0.041138649 0.023173435 0.19374186
0.038865685 0.026453191 0.19458687
0.037181318 0.029689586 0.19345167
0.040751517 -0.02813928 0.19257095
0.043843627 -0.025310135 0.19257906
0.04174 0.02229658 0.19061273
0.039844513 0.026116626 0.18923736
0.03793031 0.029752219 0.18964314
0.041595042 -0.027099678 0.18858624
0.044602513 -0.024418866 0.18919796
0.046196878 -0.020979626 0.18850458
0.045698166 0.018229196 0.18619376
0.043212831 0.021768795 0.18596956
0.04095751 0.025660513 0.18567631
0.045458376 -0.024244005 0.18462873
0.047356844 -0.019531811 0.18381548
0.048580527 -0.014483666 0.18255672
0.047995031 0.012710074 0.18169424
0.045619547 0.016598394 0.18265617
0.043750048 0.020963745 0.18175334
0.046159208 -0.023442252 0.18085331
0.047595859 -0.019148404 0.17922103
0.048836946 -0.013907922 0.17910653
0.049302816 -0.0093589723 0.17917883
0.050186574 -0.0046130246 0.17831764
0.050874889 0.0011563491 0.17787585
0.049823701 0.0059429077 0.17823046
0.049132407 0.010583742 0.17823815
0.046280503 0.015557444 0.17755634
0.044468224 0.019518783 0.17818418
0.047789991 -0.017167225 0.17498857
0.048589289 -0.013838997 0.17462093
0.049767017 -0.0096141659 0.17409667
0.050903201 -0.0042915693 0.17457402
0.051538706 0.001008062 0.17472398
0.050995886 0.0055349139 0.17413801
0.049798489 0.0098718572 0.17364755
0.048762083 0.013165189 0.17409027
0.049975455 -0.0082701165 0.17055082
0.051365137 -0.0037402078 0.17020825
0.051535547 0.00081150088 0.17022115
0.050754309 0.0050534387 0.16966996
0.028965594 -0.043146323 0.21010947
0.029227672 0.038651954 0.20399749
0.030677916 -0.041898042 0.20532215
0.032620132 -0.040008985 0.20417756
0.031401932 0.033890426 0.20024103
0.029508887 0.037349261 0.2003305
0.032170892 -0.039697766 0.19998845
0.032396734 0.032359399 0.19678614
0.030194817 0.035674162 0.19550595
0.034380496 -0.037443127 0.19623524
0.037257254 -0.034328625 0.19606215
0.034252942 0.031941269 0.19296211
0.031840205 0.034535129 0.19144154
0.035021722 -0.036657743 0.19242245
0.036741316 -0.033313174 0.19069257
0.038450837 -0.030092539 0.19034305
0.036288917 0.031343095 0.18697876
0.033193707 0.034005497 0.18827882
0.037867785 -0.033457052 0.18566465
0.040249169 -0.029197389 0.186694
0.040501893 0.026282856 0.1829409
0.038629055 0.029647721 0.18329
0.039294064 -0.032127663 0.18199635
0.041057527 -0.029031577 0.18206173
0.043016195 0.021876877 0.17893016
0.040663123 0.025353322 0.17930371
0.039029777 0.028917732 0.17962673
0.041896105 -0.028768884 0.17777187
0.04482311 -0.024867428 0.17783195
0.046483338 -0.020919213 0.17613146
0.045817375 0.016613221 0.17451945
0.043464661 0.020975756 0.17505851
0.041222274 0.024476783 0.17448595
0.044422209 -0.024600243 0.17352405
0.046469986 -0.019818274 0.17228082
0.048208117 -0.01466262 0.17197019
0.048320353 0.010758998 0.1703077
0.045641899 0.01540011 0.17012164
0.043277085 0.020852549 0.17102045
0.046610773 -0.017556673 0.16788012
0.047367573 -0.014526377 0.16731831
0.048991919 -0.01010708 0.16794753
0.050133646 -0.005673734 0.16762182
0.050942898 0.00068583933 0.16711462
0.04932791 0.0056277984 0.16624212
0.04766041 0.0096805859 0.16651875
0.046206653 0.012946898 0.16607291
0.048415422 -0.014322558 0.16390121
0.049379468 -0.01016615 0.16296774
0.050143123 -0.0052623558 0.16341701
0.049717009 -4.9331848e-05 0.16251943
0.048544645 0.0048139044 0.1627498
0.047652304 0.0081954543 0.16271275
0.049883187 -0.0088060852 0.1595771
0.05041337 -0.0057408339 0.15978274
0.050202131 -0.0019299738 0.15944797
0.027461527 0.039099142 0.19701934
0.0292331 -0.043376371 0.19853306
0.028282939 0.038221762 0.19399768
0.030523123 -0.043062516 0.19415849
0.031522393 -0.040341131 0.19418401
0.030655561 0.036619373 0.18980467
0.028137146 0.0408554 0.1880433
0.030988039 -0.043339264 0.18996716
0.033070087 -0.039008111 0.18941945
0.031942785 0.035534389 0.18563229
0.029476045 0.039500277 0.18570074
0.034889877 -0.038949251 0.18496969
0.035230517 0.031787314 0.18022698
0.032273591 0.034251802 0.18094844
0.037587285 -0.037649572 0.18028378
0.039044738 -0.03418174 0.18078053
0.038466275 0.027331529 0.17663985
0.036533177 0.03021382 0.17616314
0.038294733 -0.038606409 0.1771583
0.039777994 -0.033480208 0.17664292
0.041368723 -0.030437196 0.17570308
0.039368451 0.02655776 0.17236698
0.037367702 0.028763147 0.17132401
0.041477382 -0.02946653 0.17170745
0.043881059 -0.025605226 0.17043114
0.044307649 0.017636353 0.1673134
0.043259084 0.020966576 0.16775545
0.041122735 0.02528611 0.16811317
0.042018712 -0.028877256 0.16754264
0.043046713 -0.024874715 0.16557801
0.04531914 -0.020422189 0.16607058
0.046554685 0.011318592 0.16364926
0.044572592 0.014879389 0.16371536
0.042860568 0.019594232 0.16321129
0.04138273 0.024540784 0.16411987
0.046020389 -0.019609451 0.16159126
0.048410356 -0.01513917 0.16146696
0.048268914 0.0053982646 0.16006371
0.047387958 0.0098339301 0.16039258
0.045582771 0.014066359 0.15942341
0.047079384 -0.01862796 0.15755436
0.04877454 -0.015051568 0.15729749
0.049630046 -0.010634512 0.15742883
0.050384462 -0.0058707981 0.15701503
0.049936652 -0.00019892273 0.15697652
0.04891181 0.0048514777 0.15639174
0.048199594 0.0094409306 0.15567631
0.047146618 0.012908185 0.15524751
0.048495054 -0.01448649 0.15338725
0.049284816 -0.010355217 0.15298212
0.050331712 -0.0060889958 0.15237796
0.050078928 -0.00072974118 0.15193582
0.049294591 0.0046277572 0.1511277
0.048977554 0.0092288349 0.15067875
0.048197746 0.012368148 0.15183699
0.049969554 0.0014094118 0.14804745
0.049904227 0.0060162381 0.14777169
0.029478608 0.037116751 0.18221748
0.027290521 0.040317025 0.18219885
0.029813351 -0.043033391 0.18379796
0.033157349 -0.041556671 0.18129221
0.029637633 0.035779256 0.1780394
0.026764153 0.038724162 0.17862824
0.033486009 -0.040856674 0.17782772
0.033635139 0.032067806 0.1733084
0.031296015 0.034502666 0.1735127
0.035808742 -0.038346406 0.1743269
0.036687016 -0.035050265 0.17320666
0.034991264 0.031137446 0.16966748
0.032857895 0.0335171 0.16816804
0.03760916 -0.033330314 0.16960305
0.040139079 -0.031395562 0.16887313
0.036708534 0.029984524 0.16558167
0.038142323 -0.033644084 0.16445529
0.040832579 -0.030327233 0.16455835
0.042184532 -0.026562655 0.16325378
0.041888475 0.020552607 0.1600689
0.039136589 0.025827823 0.16103745
0.037667692 0.029077506 0.16088247
0.03929013 -0.033447508 0.16105571
0.041090548 -0.030200684 0.15978506
0.042206287 -0.025788186 0.15892661
0.043738723 -0.022189038 0.15854752
0.044036031 0.0157301 0.15622598
0.042396128 0.018887429 0.15680596
0.04029566 0.023405669 0.15619406
0.038228154 0.028332626 0.1572333
0.043061972 -0.025517615 0.15455285
0.044997513 -0.021200765 0.15462384
0.044907987 0.014966087 0.15278816
0.043272853 0.018692141 0.151858
0.042304099 0.022421429 0.1513828
0.045901299 -0.020049689 0.15049121
0.047920763 -0.015619395 0.15066475
0.048636019 -0.011189919 0.15007538
0.046312809 0.014034266 0.14836991
0.044663548 0.018286852 0.14778507
0.043582499 0.021653382 0.14820391
0.047141969 -0.018731894 0.14615747
0.048160732 -0.015655426 0.14577824
0.048731863 -0.011010809 0.14594477
0.049229681 -0.0063759456 0.14606011
0.049463332 -0.001201579 0.14579499
0.049955785 0.0043796585 0.14540786
0.050085008 0.0089807902 0.14495724
0.04788655 0.013210149 0.14441246
0.048330367 -0.015071526 0.14212754
0.049161851 -0.010911273 0.14175475
0.049524844 -0.0064284629 0.14089629
0.049517751 -0.0018119827 0.14084333
0.049937129 0.003445782 0.1397782
0.050164342 0.0087665636 0.13941881
0.049345255 0.011887966 0.13962126
0.026105402 0.037121657 0.17465129
0.031106116 -0.041954905 0.17636421
0.028425632 0.036602806 0.1710293
0.031826556 -0.039299589 0.16935366
0.033869147 -0.036063083 0.17051548
0.030134497 0.035934865 0.16628456
0.027371226 0.039719138 0.16676554
0.032113016 -0.038328264 0.16626364
0.034523368 -0.035662852 0.16687489
0.034989476 0.031715196 0.16230008
0.031940877 0.034773454 0.16222137
0.029920457 0.041268002 0.16126561
0.03338176 -0.038186423 0.16199908
0.035783947 -0.035937037 0.16217831
0.03621614 0.031182231 0.15898556
0.033526063 0.03361626 0.15800545
0.037211716 -0.034987085 0.15788925
0.040308535 -0.031354215 0.15700388
0.038553953 0.026327735 0.15523776
0.037456453 0.030037882 0.15454665
0.034040153 0.033106294 0.15419689
0.038391888 -0.033853129 0.154906
0.040295303 -0.030579222 0.15336901
0.042307138 -0.027211806 0.1522643
0.040247858 0.025340067 0.15039617
0.038544297 0.028791072 0.14937514
0.040243566 -0.030262398 0.14945114
0.042402387 -0.026222879 0.14815718
0.044304788 -0.022515694 0.14811614
0.044575274 0.019201944 0.1452809
0.042863905 0.023342261 0.14552584
0.040450931 0.026939208 0.14429122
0.04290837 -0.025622783 0.14386922
0.04532218 -0.021658288 0.14391163
0.046562791 0.015159382 0.14218983
0.045028031 0.018301057 0.14189732
0.043123484 0.022481697 0.14098707
0.045390427 -0.020670116 0.13926369
0.047529101 -0.01622176 0.1392042
0.048884213 -0.011741167 0.13906661
0.049552143 -0.0082657374 0.13889658
0.049387872 -0.00054133841 0.13839543
0.046940744 0.014219189 0.13780856
0.045046389 0.017517952 0.13706267
0.047088325 -0.015458213 0.13467625
0.04802531 -0.011591716 0.13420436
0.049090922 -0.0069093569 0.1347318
0.049627125 -0.0022495778 0.1348832
0.049584568 0.0030904191 0.13441578
0.049583018 0.0085854959 0.13431308
0.047743142 0.013038205 0.13332039
0.049031436 -0.0067220866 0.13042301
0.04943186 -0.00246305 0.13002518
0.049164176 0.002641706 0.12971461
0.049015701 0.0086106528 0.1287688
0.048915267 0.01151078 0.12895954
0.027928887 0.040146243 0.16403109
0.030188741 -0.040178098 0.16463602
0.030777989 0.036510933 0.15929091
0.029494939 0.039262976 0.15989804
0.029301343 0.043730699 0.16034043
0.030888679 -0.044792756 0.15788832
0.031463683 -0.039580148 0.15940669
0.031450033 0.035768103 0.15568721
0.029428838 0.039615378 0.15545723
0.03060144 0.043202147 0.15636063
0.033229947 -0.038623527 0.15540168
0.035127938 -0.036996111 0.15566111
0.032890677 0.034846388 0.15124354
0.03548038 -0.035378046 0.15151712
0.038069546 -0.032551318 0.15088788
0.036355555 0.0312622 0.1474528
0.033886731 0.034485094 0.14655143
0.035535097 -0.034385204 0.14737386
0.039112389 -0.031452186 0.14672548
0.040882766 -0.028174659 0.14509779
0.038477123 0.029884255 0.14334926
0.035575569 0.033360131 0.14249814
0.039749026 -0.031304356 0.14211303
0.041625917 -0.02735634 0.14117885
0.042409956 0.023991318 0.13853347
0.040286481 0.028030919 0.13848305
0.038119793 0.031304784 0.13737783
0.042144716 -0.026546763 0.13709056
0.044501603 -0.022684159 0.13679507
0.044081569 0.018872431 0.13461602
0.043110132 0.0228082 0.13467878
0.041284919 0.02733689 0.13340273
0.044897914 -0.022032743 0.13266531
0.04660207 -0.017391011 0.13253033
0.047153771 0.013951791 0.13041908
0.045245528 0.01792459 0.13075393
0.043694139 0.022624506 0.12941253
0.042380333 0.025802342 0.12926954
0.045116484 -0.022029148 0.12884206
0.046744466 -0.017155752 0.12803766
0.048177898 -0.011869336 0.12863702
0.048980594 -0.0075435988 0.12786165
0.049675941 -0.0025854183 0.12735859
0.049455225 0.0033724701 0.12690318
0.04952383 0.0075188824 0.12674731
0.047287226 0.013474612 0.1264652
0.046163082 0.017725 0.12571409
0.044527888 0.021431601 0.12562385
0.047717571 -0.015196491 0.12465394
0.048519492 -0.011935858 0.12340134
0.049892128 -0.0072871982 0.12355286
0.050363362 -0.002784725 0.12310067
0.050415516 0.0026068038 0.1226812
0.050335765 0.0081153307 0.12254113
0.048620403 0.01247534 0.12181598
0.04711175 0.016026044 0.1226663
0.050054014 -0.0073601655 0.11869305
0.051036179 -0.003070842 0.11690116
0.051636517 0.0019415863 0.11729115
0.051548541 0.0072376677 0.11677176
0.050899565 0.01101785 0.11706585
0.050921082 -0.0062858607 0.115049
0.05171138 -0.0024470738 0.11352026
0.051818073 0.001463395 0.11340737
0.051557541 0.0045873658 0.11305881
0.027983246 0.039617538 0.15169936
0.02888632 -0.041279726 0.15262598
0.027675269 0.039555646 0.14797848
0.031499207 -0.039049946 0.14956862
0.032713771 -0.037019022 0.14809293
0.030368267 0.03774526 0.1440019
0.0338099 -0.035921961 0.14438307
0.03445822 0.035369433 0.14125383
0.032277763 0.03713917 0.13919529
0.034989953 -0.035500214 0.1398696
0.037716687 -0.033273026 0.13937831
0.035225809 0.033379532 0.13620913
0.032684445 0.035869058 0.1362209
0.035550594 -0.035098255 0.13605505
0.038008153 -0.031921435 0.13571408
0.040434778 -0.028033083 0.134377
0.040516436 0.029055582 0.13063842
0.037804544 0.031731788 0.13201466
0.038356423 -0.03061772 0.13112569
0.041056991 -0.027631124 0.13041314
0.040990829 0.027814711 0.12695199
0.03828001 0.030637713 0.12706357
0.042501211 -0.027543435 0.12555668
0.044364333 -0.023206873 0.12589973
0.045085609 -0.019891778 0.12488979
0.043550909 0.02295584 0.12292981
0.041783452 0.026184646 0.12341157
0.043137252 -0.026931932 0.12126052
0.044492543 -0.023268236 0.1207822
0.045690238 -0.017944859 0.12121838
0.047592759 -0.013832651 0.12066144
0.047139466 0.014331399 0.11893588
0.045562625 0.017730935 0.11929351
0.043423474 0.021349834 0.11817825
0.044860065 -0.021891357 0.11712533
0.045975447 -0.017380921 0.11622018
0.047920525 -0.012448832 0.11698329
0.049469113 -0.0088095274 0.11666495
0.047876775 0.013409829 0.11567396
0.045914173 0.017142 0.11459208
0.047421873 -0.015851082 0.11194587
0.04873383 -0.012501946 0.11203212
0.050154865 -0.0081682038 0.11239606
0.051268518 -0.0036932281 0.11180091
0.051223576 0.0013759028 0.11103415
0.050424695 0.007292042 0.11135238
0.048422873 0.011918614 0.11100107
0.04910177 -0.01131697 0.10812354
0.049597561 -0.0078793336 0.10754949
0.050133407 -0.003267843 0.10711473
0.050243318 0.00070479361 0.10709512
0.049611032 0.0056445827 0.10689437
0.048962831 0.009917995 0.10697448
0.026893375 0.039542004 0.14533603
0.028239431 -0.040914878 0.1465089
0.02762234 0.03983267 0.1425063
0.028882863 -0.040030457 0.14168185
0.03123367 -0.037987307 0.1417684
0.027621625 0.039306417 0.13636315
0.032960236 -0.0373898 0.13817769
0.033417523 0.034180056 0.13300982
0.030453561 0.037224408 0.13270253
0.034338415 -0.036086317 0.13334584
0.03616327 -0.033722989 0.13259801
0.033985734 0.034067564 0.12959504
0.03119242 0.036303576 0.12880015
0.031878348 0.044002153 0.12714025
0.030940412 0.045260753 0.12785751
0.035297811 -0.035595816 0.12824079
0.036893904 -0.032806106 0.1289638
0.034847021 0.032961428 0.12489155
0.038495779 -0.032383241 0.12483561
0.041894734 -0.029472472 0.12305212
0.039129615 0.027657988 0.12014449
0.034908414 0.030640321 0.12081659
0.040178597 -0.031630386 0.12046671
0.042850494 -0.028635131 0.11920547
0.042486012 0.02346321 0.1165216
0.040337563 0.026309812 0.11626178
0.040883958 -0.031455524 0.1166147
0.042608142 -0.02786026 0.11446744
0.044182479 -0.023816993 0.1145404
0.045489252 -0.019939799 0.11426669
0.045098424 0.01808052 0.11145455
0.043598235 0.022101888 0.11208349
0.041417301 0.025967417 0.111449
0.04394877 -0.023466324 0.11021835
0.046108246 -0.018801121 0.10994297
0.048242509 -0.014396243 0.10957456
0.047385335 0.013424931 0.10821015
0.04550457 0.017161215 0.10791546
0.043859005 0.02147658 0.10675216
0.046153307 -0.016709438 0.10551661
0.048076928 -0.013231518 0.1052494
0.049836576 -0.008705318 0.10513991
0.050404906 -0.0043849363 0.10487115
0.049965978 0.0021929948 0.10486537
0.049907446 0.0062510767 0.10445911
0.048129141 0.011725662 0.10391688
0.045593381 0.01545045 0.10416538
0.048125565 -0.012192307 0.10091192
0.049316764 -0.0085323378 0.10033184
0.049524307 -0.0037891024 0.10025781
0.049660206 0.00094971462 0.10012913
0.049760163 0.0056847786 0.099973738
0.048875391 0.010419199 0.099065304
0.047367752 0.013655281 0.099720716
0.049885571 -0.003582699 0.096103489
0.050166726 0.00075073761 0.095615447
0.050256133 0.005186914 0.095664561
0.029355707 -0.038484804 0.1347678
0.028744278 0.039114747 0.13046354
0.029882254 -0.038230158 0.13032123
0.030022619 0.037887961 0.12597859
0.029169975 0.041370574 0.12584639
0.031622171 -0.038035251 0.12613678
0.032665312 0.033927631 0.12098014
0.029862581 0.036959533 0.12192667
0.030344484 0.043193791 0.12128031
0.033255816 -0.036092527 0.12101018
0.036910474 -0.034391329 0.12162095
0.033083558 0.032426421 0.11724061
0.03779906 -0.033518534 0.11834574
0.037643135 0.028775005 0.1151458
0.03458029 0.031244157 0.11279488
0.039123893 -0.032654256 0.11304522
0.041241884 -0.030083938 0.11292148
0.039579391 0.028156599 0.11027873
0.037470341 0.030210471 0.10911113
0.039273381 -0.031962305 0.10862428
0.041388512 -0.028720418 0.10905784
0.043370128 -0.024354002 0.1071927
0.042917728 0.023489526 0.10469347
0.040459454 0.026990531 0.10537463
0.038245916 0.03006042 0.10480171
0.041809559 -0.027335545 0.10538626
0.042318821 -0.023967395 0.10285175
0.044640481 -0.019095343 0.10293996
0.044120133 0.017172994 0.10076386
0.042085707 0.021008724 0.10026747
0.041634321 0.025073415 0.1026749
0.043156147 -0.022828134 0.10027778
0.044893265 -0.018499643 0.098318219
0.047699928 -0.013886735 0.098703742
0.045541465 0.015715348 0.096258163
0.043745339 0.019208265 0.095701933
0.046131909 -0.01755219 0.094388902
0.047846258 -0.01361539 0.093537152
0.049066246 -0.0088167153 0.094245613
0.049771845 -0.004415588 0.093392372
0.050082624 0.00062607822 0.092596471
0.050041497 0.005793367 0.092805803
0.049361587 0.010203188 0.093545079
0.04661417 0.01453135 0.091493249
0.048463762 -0.012199951 0.089982927
0.048810422 -0.0087287575 0.08928889
0.049819052 -0.0043094489 0.088667393
0.050234973 0.00046249511 0.088759124
0.049912751 0.005222904 0.088274658
0.049177945 0.010022825 0.088461041
0.050099552 -0.0028881596 0.084838688
0.05041182 -0.00049648772 0.08496815
0.028552415 -0.038975067 0.12749103
0.029512407 -0.039284315 0.12237173
0.028940259 0.037652601 0.11862141
0.028236924 0.041295793 0.119394
0.028454008 -0.041211925 0.11781096
0.031005563 -0.038634785 0.11951822
0.029777823 0.037124015 0.11487234
0.028131543 0.041479714 0.11509687
0.029585602 -0.04132238 0.11569792
0.032215953 -0.03791251 0.11474407
0.034058392 -0.034873132 0.11471355
0.03287971 0.03368498 0.11143643
0.030830799 0.036501165 0.11008614
0.028318224 0.0403345 0.11170924
0.033498228 -0.037613921 0.10954124
0.034766138 -0.035131119 0.11035186
0.035141349 0.032669265 0.10727531
0.032818913 0.035941988 0.10540438
0.034743428 -0.036977626 0.10649234
0.036421239 -0.034058727 0.10562378
0.039511502 -0.030531662 0.10578758
0.036334574 0.03213647 0.10201442
0.033615232 0.035021521 0.10210276
0.03766793 -0.032414269 0.10154045
0.039579034 -0.029380163 0.10159403
0.041912377 -0.025963599 0.10146171
0.040487587 0.023422791 0.098943591
0.038951218 0.0268651 0.098354399
0.036981285 0.030898662 0.097711444
0.039963722 -0.028506791 0.096547306
0.041735888 -0.02481438 0.097070575
0.04368335 -0.020630311 0.09662044
0.042142332 0.021917561 0.09533602
0.039940417 0.025951916 0.093461037
0.037942946 0.02978758 0.093739092
0.042126954 -0.024343232 0.092300236
0.044359028 -0.020486822 0.092882931
0.046283305 -0.01690346 0.091498375
0.04572916 0.016541364 0.089434862
0.043905497 0.019826988 0.090182722
0.041537762 0.023731975 0.089227557
0.044696212 -0.019750211 0.088082135
0.046759546 -0.014722306 0.087283075
0.048244536 -0.0095873959 0.086200416
0.04861784 0.0099139605 0.085044444
0.047043502 0.0147702 0.085567057
0.044490695 0.019385768 0.085346282
0.046521544 -0.014138378 0.082902491
0.048351347 -0.0091862213 0.082016289
0.04962045 -0.0047890129 0.082304776
0.050105095 0.00041508893 0.082113683
0.049366653 0.004985793 0.081878722
0.048495412 0.009768011 0.080957294
0.046803296 0.014289277 0.080603898
0.046101213 0.017873032 0.081680357
0.048670828 -0.0095461123 0.07869184
0.049594045 -0.0044725235 0.077704906
0.049782991 -4.4086635e-05 0.076432824
0.049265444 0.0044766725 0.077008963
0.048114657 0.011222241 0.076569736
0.029737411 0.038570862 0.10792762
0.029793086 -0.042562168 0.10903186
0.031728566 -0.040076546 0.1093449
0.031139312 0.038428113 0.10503012
0.028861521 0.041301724 0.10448283
0.030854048 -0.042518448 0.10520095
0.033426702 -0.038796976 0.10362858
0.035581827 -0.035566755 0.10309929
0.032483518 0.036832802 0.099692166
0.03000891 0.040626872 0.099547207
0.034561157 -0.037424944 0.099452913
0.035448134 -0.034482714 0.098981917
0.035589635 0.032338325 0.094810367
0.03328526 0.035943087 0.094883859
0.031214474 0.039016005 0.095167696
0.036573946 -0.032899119 0.093783736
0.039084911 -0.030771634 0.095095336
0.037386715 0.030661872 0.091001332
0.035488427 0.033558521 0.089698732
0.037611723 -0.033136427 0.089592755
0.040314972 -0.029820459 0.090508461
0.041539252 -0.026085911 0.089938998
0.040707469 0.025885073 0.087586343
0.038723409 0.029365139 0.086636782
0.041334808 -0.029124578 0.085658014
0.042641401 -0.025222687 0.086083412
0.044129908 -0.021482041 0.085726678
0.043158889 0.021241346 0.08321768
0.041382432 0.024512975 0.082673848
0.039451241 0.02834381 0.08232379
0.041906238 -0.028704042 0.081660569
0.043380618 -0.025306614 0.080889881
0.045002699 -0.020625276 0.081687748
0.046322763 -0.016443914 0.081721663
0.046323955 0.016173003 0.078930259
0.044407904 0.019915005 0.078958154
0.041608989 0.02330053 0.078220963
0.04414171 -0.024096904 0.077145398
0.045662463 -0.020657176 0.076741874
0.04727596 -0.01523097 0.077185273
0.048557341 -0.010052228 0.076444805
0.04896003 -0.0064607239 0.076088488
0.048778594 0.0063463845 0.075321972
0.048607409 0.0095604155 0.075365067
0.046684027 0.014433509 0.075273275
0.045306385 0.018813992 0.074252546
0.047544003 -0.01503225 0.071525753
0.04909426 -0.0098507795 0.072320163
0.04947859 -0.0050278078 0.072395623
0.05044359 -0.00026390294 0.071498692
0.049571574 0.0045932443 0.072004318
0.049468637 0.0091912616 0.071445763
0.047389686 0.014222967 0.069781244
0.046642721 0.017478282 0.070037425
0.049387336 -0.0096551329 0.067983449
0.050116658 -0.0052842065 0.066838086
0.051251054 -0.00045633837 0.067275345
0.050688446 0.0043635597 0.066838324
0.050049424 0.0091792028 0.066084445
0.047960877 0.012471741 0.066264689
0.052214503 -0.0002150252 0.062488854
0.051411748 0.0041699358 0.062347174
0.050884187 0.0073842318 0.061758876
0.029077711 -0.042328935 0.10056567
0.029431997 0.041569516 0.096692622
0.030957581 -0.04002846 0.097870708
0.029555855 0.040186211 0.092471123
0.032656372 -0.038271591 0.093068123
0.033555806 -0.035570674 0.093218625
0.032224655 0.035992611 0.088595152
0.030307112 0.038140867 0.089540243
0.033598959 -0.03531611 0.088124752
0.037464023 0.03115212 0.083324373
0.034086525 0.034319043 0.084584832
0.036857307 -0.033485539 0.083999217
0.038611174 -0.031345379 0.083244622
0.038105249 0.029823484 0.079864621
0.035134554 0.033362892 0.08074367
0.039640605 -0.030101417 0.078941464
0.041514933 -0.027343353 0.077246249
0.039940894 0.024682106 0.075091481
0.037882149 0.029008744 0.076095164
0.040918827 -0.029108265 0.074831903
0.042529106 -0.026181797 0.074750006
0.043559551 -0.021925697 0.07252264
0.043170214 0.020873988 0.071148813
0.040121973 0.023847228 0.071626127
0.04171133 -0.025249103 0.071206748
0.043917358 -0.021057915 0.069277704
0.046515584 -0.018031223 0.06962359
0.045039415 0.019529672 0.067341447
0.041838527 0.022421235 0.066956997
0.04419601 -0.02065888 0.065836668
0.046107411 -0.016118865 0.064780176
0.047520578 -0.011631852 0.064265966
0.046585143 0.014032127 0.063370347
0.045075595 0.018600592 0.062809348
0.042942345 0.022280263 0.063767493
0.047881126 -0.010927266 0.05955857
0.049492776 -0.0055700573 0.060214579
0.050979435 -0.0023590713 0.060261548
0.051267982 0.0040489645 0.059167325
0.049408734 0.0094058234 0.059131205
0.049092233 -0.0089990888 0.055940151
0.049751461 -0.0057921852 0.055301845
0.051022112 -0.00058715383 0.056312144
0.050397158 0.0036727658 0.054941058
0.049501956 0.0083825458 0.05492878
0.028146746 -0.041166566 0.093814194
0.028122244 0.04151037 0.08972919
0.030283334 -0.039649487 0.091338873
0.028268335 0.040000811 0.085645199
0.030729176 -0.038834646 0.086938977
0.032460749 -0.036698844 0.085806787
0.031588256 0.03627307 0.081562936
0.028929649 0.039016102 0.081206143
0.033025324 -0.035975404 0.081555545
0.032831132 0.034806672 0.077136695
0.035125077 -0.034419525 0.077973783
0.037208021 -0.03174695 0.076768756
0.036842763 0.030395208 0.073454559
0.034194112 0.034301195 0.072537839
0.037718952 -0.030914063 0.072381735
0.039027393 0.025315022 0.069328249
0.037478566 0.029174777 0.069267571
0.035572171 0.032900453 0.06808579
0.040616453 -0.02624931 0.067995727
0.03975594 0.024894798 0.065166235
0.038183987 0.028798832 0.063972056
0.040984511 -0.025392378 0.063808203
0.043173254 -0.02214746 0.063370764
0.044569135 -0.018372273 0.062956035
0.045205593 0.01477077 0.059822083
0.044387579 0.020513682 0.060929179
0.04185921 0.024060188 0.060498059
0.039663434 0.027192833 0.059851468
0.043557525 -0.021400046 0.058453977
0.045600116 -0.016954904 0.058934629
0.047730148 -0.012992727 0.057065427
0.045776069 0.013853328 0.057250261
0.044550598 0.0187642 0.057036161
0.042995751 0.022699868 0.055984318
0.044266522 -0.020437954 0.054562807
0.045958221 -0.017219236 0.053736866
0.048149467 -0.012317499 0.054285228
0.049046874 -0.0067332047 0.052180529
0.049509525 -0.001454936 0.052313089
0.049561083 0.0046030586 0.051548481
0.048926473 0.0090087447 0.051634192
0.046307564 0.013675058 0.05253917
0.045179665 0.018348614 0.051971138
0.044060647 0.021895928 0.052354336
0.047212839 -0.015802456 0.049528301
0.048066139 -0.012568312 0.049047649
0.048735201 -0.0071593649 0.048657358
0.049248159 -0.0012052653 0.048456848
0.049701273 0.003672505 0.048603594
0.049423397 0.0085417312 0.04813689
0.046712697 0.013178749 0.047926605
0.048926175 -0.00052611314 0.04503417
0.049181402 0.0035460053 0.045054615
0.049034059 0.0084268805 0.04469645
0.027976455 -0.040541783 0.084578574
0.027336 0.040531434 0.079101145
0.027842106 -0.039838172 0.078950465
0.031802177 -0.037182018 0.078226626
0.031057714 0.036133934 0.074067533
0.026685653 0.039668813 0.074915826
0.029288294 -0.03957561 0.075704396
0.032310188 -0.036176916 0.074495971
0.029622374 0.037775535 0.070828855
0.032485485 -0.03537691 0.070088685
0.035748601 -0.032718446 0.069880962
0.034013867 0.034978256 0.066238165
0.030435978 0.037654463 0.067378759
0.03316015 -0.034574691 0.066885531
0.036090136 -0.031100946 0.065528572
0.037709475 -0.028126517 0.064039528
0.0377509 0.0305824 0.061228573
0.034411371 0.03403043 0.061466157
0.035599709 -0.031557009 0.061818361
0.038624346 -0.027086971 0.06060648
0.038150489 0.029107718 0.057501972
0.035283983 0.033084244 0.058088779
0.039332926 -0.026345251 0.056664705
0.042424858 -0.02361797 0.056303918
0.041368365 0.024904547 0.053613305
0.038189054 0.028389664 0.053016663
0.040585518 -0.025513245 0.051766455
0.043067992 -0.022451909 0.051331937
0.045099378 -0.018987399 0.051035106
0.04407227 0.019327627 0.04833883
0.042122722 0.023189025 0.049029052
0.038782179 0.026965199 0.049832761
0.043786108 -0.021949755 0.046608031
0.045660377 -0.018027334 0.046996295
0.046720326 0.013817215 0.045093656
0.044083059 0.01838267 0.044224441
0.042135417 0.022292169 0.04449743
0.046570837 -0.017608792 0.042031109
0.047915399 -0.012872383 0.042680681
0.048172891 -0.0079674758 0.042663991
0.048192203 -0.0028993057 0.042205751
0.047959566 0.0029399695 0.040766299
0.047925889 0.0083102901 0.0406304
0.0461694 0.013057122 0.040222704
0.044792771 0.01788822 0.03982389
0.048153222 -0.016442435 0.036758482
0.048395097 -0.0131578 0.03680855
0.048939407 -0.0082322396 0.037039638
0.048407137 -0.0035282241 0.036622107
0.048036039 0.0019064157 0.035992563
0.048509836 0.0075172656 0.03572911
0.046933949 0.012536688 0.035736322
0.050039709 -0.014200237 0.032475531
0.049323082 -0.008412784 0.033164859
0.049527466 0.0074675181 0.031680048
0.028674366 -0.039924379 0.068223774
0.030794384 -0.037756648 0.069278181
0.030223785 0.037596453 0.064132988
0.031493425 -0.036174789 0.063569129
0.030552087 0.037471961 0.059242189
0.03190285 -0.035618819 0.059034586
0.034955919 -0.032077655 0.058700264
0.033662319 0.034466621 0.05498606
0.030830918 0.037371423 0.055327952
0.035530031 -0.030994808 0.054541409
0.037937045 -0.028114667 0.054567993
0.036984384 0.030372014 0.051312268
0.034978807 0.032524228 0.051128685
0.038396537 -0.027543159 0.05005604
0.040088475 0.025182443 0.046830952
0.037963688 0.028572204 0.046996295
0.036346853 0.030207595 0.04348737
0.039826453 -0.026279414 0.045425832
0.043286502 -0.024194838 0.04560101
0.041196764 0.024374677 0.04319495
0.039894283 0.027534427 0.042374372
0.043733478 -0.022758519 0.041714132
0.045768797 0.014822057 0.037438691
0.044665873 0.019816386 0.038364947
0.042826414 0.023190556 0.038748085
0.040710211 0.027109632 0.038178265
0.043183804 -0.021946786 0.036294162
0.046224117 -0.019058896 0.036919177
0.048371136 -0.0017866937 0.034139574
0.047349274 0.013282483 0.033949256
0.045225501 0.017842775 0.034989297
0.04355824 0.021365887 0.033663571
0.041882575 0.024734801 0.033660233
0.048642457 -0.017837211 0.032424212
0.049348414 -0.012848886 0.031989098
0.04992646 -0.0082027819 0.030717194
0.048785985 -0.0035519504 0.03141278
0.049092054 0.001588261 0.030979276
0.050269902 0.0057870955 0.029609561
0.048484981 0.011515075 0.029801428
0.046920598 0.016178207 0.029920459
0.045035601 0.019554725 0.030255258
0.049751222 -0.017728243 0.027624011
0.05055511 -0.013398293 0.027855933
0.049333453 -0.0089623239 0.026235819
0.048268318 -0.0037431286 0.026731014
0.049267411 0.0011622554 0.026304662
0.050189674 0.0060578943 0.025815606
0.049030483 0.01063084 0.026181221
0.047382534 0.01439167 0.026162922
0.051074803 -0.013778815 0.024341822
0.049830556 -0.0097025465 0.023055911
0.049513996 0.0026416949 0.022192657
0.049604714 0.0059356415 0.022116125
0.028873028 -0.038334966 0.060541451
0.026783822 0.039293945 0.057182848
0.027506651 -0.040213574 0.057453752
0.030358793 -0.037317444 0.056483388
0.029183207 0.038217623 0.051877022
0.03096527 -0.036843337 0.052773416
0.03341043 -0.033400752 0.051986635
0.032751501 0.033796173 0.047681749
0.03004962 0.037261419 0.048099041
0.032081008 -0.035707723 0.04838866
0.03447777 -0.032165486 0.047640979
0.036689281 -0.029125018 0.046625495
0.033748448 0.032659724 0.043737233
0.031099377 0.035458699 0.04415077
0.034968376 -0.032652635 0.043262184
0.037831724 -0.028663611 0.042929351
0.035916686 0.031785436 0.039552331
0.036294162 -0.031754848 0.039398372
0.039174616 -0.027709881 0.03836745
0.041129112 -0.024641832 0.037495792
0.04035604 0.027593339 0.035045326
0.037328422 0.031595312 0.034763217
0.040048599 -0.028390279 0.034034312
0.042348683 -0.023748295 0.033551455
0.042490542 0.022425713 0.030760825
0.040733695 0.026363054 0.030839384
0.037899494 0.030644687 0.03105247
0.041402817 -0.02780976 0.030101001
0.04301846 -0.023199202 0.029039085
0.045467198 -0.020106429 0.029333174
0.045188606 0.017775064 0.026225924
0.043038726 0.02118264 0.026688993
0.040961683 0.025957273 0.026447892
0.04517138 -0.020338377 0.024825275
0.047121644 -0.0039019042 0.022541404
0.047521412 -0.00059418357 0.022734344
0.04717654 0.011814816 0.022910595
0.045728385 0.015984768 0.022515714
0.043520272 0.020762244 0.022504866
0.050008833 -0.012268104 0.021198332
0.049164295 -0.0087861549 0.01967603
0.048056543 -0.0040661837 0.01908797
0.048659921 0.00068122364 0.019127607
0.049065113 0.0058126696 0.018438637
0.047659039 0.01058962 0.018656254
0.045572996 0.016279483 0.018621385
0.044868886 0.01923372 0.01947248
0.04798919 -0.0025942342 0.014662445
0.048632026 0.0011186546 0.014519095
0.049074829 0.0056518079 0.014159918
0.047791541 0.010259079 0.014418304
0.027320685 -0.040687669 0.049990594
0.029342355 -0.038950007 0.050504565
0.028590141 0.038936771 0.045079529
