# .PCD v0.7 - Point Cloud Data file format
VERSION 0.7
FIELDS x y z
SIZE 4 4 4
TYPE F F F
COUNT 1 1 1
WIDTH 1314
HEIGHT 1
VIEWPOINT 0 0 0 1 0 0 0
POINTS 1314
DATA ascii
-0.039219189 -0.0004684478 0.29241696
-0.040705569 -0.0039868932 0.28963104
-0.0050118212 0.035154797 0.28772232
-0.0079620099 0.034852944 0.28929317
-0.044007912 -0.0023952313 0.28666866
-0.0447511 -0.0050775092 0.28455326
-0.0070431978 0.038107198 0.28409299
-0.0094468892 0.037650775 0.2851876
-0.046889462 -0.00050752237 0.28291121
-0.047828168 -0.0035076346 0.28103921
-0.049451157 -0.0061290022 0.27834138
-0.0084433798 0.040569611 0.28013712
-0.011171029 0.039622411 0.28165326
-0.05030828 -0.0018850863 0.27700964
-0.05083853 -0.0045075938 0.27616465
-0.0062784478 0.04352437 0.27517834
-0.0097058173 0.043088414 0.27641335
-0.052142628 0.0003040731 0.27278742
-0.052977033 -0.0039245021 0.27117833
-0.0080022421 0.045558982 0.27084437
-0.011520358 0.045068778 0.27198431
-0.053793084 0.002293501 0.26843503
-0.054634169 -0.0021281242 0.26695329
-0.0094677843 0.047360748 0.2663359
-0.013106378 0.046750993 0.2672829
-0.056058824 0.0033545829 0.26391327
-0.056125097 0.00010301732 0.26311636
-0.010414617 0.048626877 0.26225486
-0.013964031 0.047738358 0.26246175
-0.017624062 0.046967074 0.26275644
-0.057365991 0.0055042971 0.25951606
-0.057121366 0.0023961421 0.25816742
-0.01498742 0.047828913 0.25813043
-0.018466264 0.047608271 0.25880727
-0.055531621 0.010929154 0.25589746
-0.057061464 0.0074769128 0.2553173
-0.057478737 0.0036387499 0.25469661
-0.020644244 0.047695685 0.25400913
-0.054485627 0.016290063 0.25045002
-0.055500913 0.012378104 0.25107601
-0.057462782 0.008534804 0.25047344
-0.022793092 0.047575787 0.24876669
-0.026042396 0.04664338 0.24951169
-0.029370312 0.045221854 0.24897906
-0.05132509 0.022096323 0.24730381
-0.053837843 0.018219108 0.24719799
-0.055971749 0.013112079 0.24577859
-0.057332151 0.010294074 0.24588776
-0.022763988 0.04780408 0.24554333
-0.026475795 0.046835527 0.24502379
-0.03042068 0.045226753 0.24467155
-0.034334246 0.042821202 0.24420768
-0.038597647 0.04022092 0.24295977
-0.047334146 0.031609263 0.24237239
-0.049733296 0.026401531 0.24291247
-0.051299665 0.023148276 0.24262151
-0.053930245 0.01911943 0.24227291
-0.055489201 0.015621973 0.24170896
-0.03031059 0.044423521 0.24013603
-0.034571063 0.042304367 0.23924139
-0.039026983 0.039845787 0.23963505
-0.043125421 0.036777668 0.23978439
-0.046722703 0.033225231 0.23954043
-0.049719285 0.029063797 0.23881227
-0.051478278 0.024281189 0.23791936
-0.053030327 0.020967573 0.23814911
-0.036068927 0.0412337 0.2358329
-0.038793962 0.039471556 0.23538852
-0.043066055 0.036595032 0.23502278
-0.04690294 0.033687402 0.23481816
-0.049332641 0.029718745 0.23433265
-0.0017330702 0.01654315 0.30760163
-0.004090494 0.016241398 0.30853349
-0.0032400494 0.018217921 0.30391315
-0.0058652526 0.017922765 0.3042174
-0.0015832419 0.022846419 0.29743546
-0.0047649126 0.021713337 0.29952851
-0.0073607126 0.02004637 0.30125624
-0.029899377 -0.0039642276 0.29849702
-0.0026802635 0.026934976 0.29502586
-0.0052579548 0.02441258 0.29744834
-0.034291152 -0.0051277215 0.29507375
-0.00075738225 0.031324629 0.29025748
-0.0031406088 0.030945063 0.29202163
-0.040081188 -0.0073675606 0.28889552
0.0010183528 0.035768509 0.28372037
-0.0011530295 0.033861138 0.28688753
-0.00053012371 0.037968323 0.28138015
-0.0028804876 0.036840554 0.28342086
-0.04645583 -0.0074130911 0.2817767
-0.0016065147 0.040790766 0.27833328
-0.0048766714 0.039755911 0.27975744
-0.050367292 -0.0093227457 0.27416441
-0.0027421471 0.043890305 0.27387798
-0.053212725 -0.0077557433 0.27046558
-0.053013779 -0.010534391 0.26801363
-7.0780516e-06 0.046215702 0.26853108
-0.0041616149 0.046015047 0.26978874
-0.055625536 -0.005339114 0.26599985
-0.055727199 -0.0084738322 0.26479
-0.0056278184 0.047819439 0.26526201
-0.056344733 -0.0032924656 0.26133358
-0.056386352 -0.0069394913 0.26037455
-0.0075133406 0.049622945 0.26070917
-0.01177462 0.048105847 0.26003671
-0.057107978 -0.0014601387 0.25638413
-0.05744797 -0.0057023447 0.2553851
-0.0086734556 0.049885035 0.25659531
-0.012712711 0.048471525 0.25688598
-0.058079265 0.00046060607 0.25260219
-0.059093438 -0.0040417295 0.25092131
-0.0100119 0.05014918 0.25203344
-0.014004067 0.048914935 0.25206357
-0.017504174 0.047776654 0.25155622
-0.057903171 0.0065252874 0.24780411
-0.058227748 0.0025118496 0.24841365
-0.011118276 0.050581925 0.24761572
-0.014996165 0.050027229 0.24728161
-0.019148551 0.04816721 0.24774092
-0.057639144 0.0079233963 0.24392369
-0.058031224 0.0039101504 0.24370521
-0.016050192 0.050250676 0.24365538
-0.020318806 0.04892391 0.24249128
-0.024996584 0.047009617 0.24200776
-0.054375488 0.018102005 0.23905587
-0.056126099 0.013532024 0.23967612
-0.057034329 0.0088680889 0.23914918
-0.021589041 0.048643958 0.23770288
-0.025502471 0.047012527 0.23785198
-0.029294567 0.044902764 0.23783144
-0.032259926 0.043505017 0.23710743
-0.051736549 0.022545081 0.23558721
-0.053637959 0.019326413 0.2357766
-0.05583559 0.01449983 0.2346769
-0.057012685 0.010363609 0.23497862
-0.026451321 0.047050502 0.23352149
-0.029550945 0.045185614 0.23350325
-0.034097042 0.042745512 0.23309377
-0.038184311 0.03977631 0.23214191
-0.04186359 0.036685154 0.23149559
-0.046178743 0.033153675 0.23096997
-0.049379755 0.028411359 0.23116884
-0.050903857 0.023867346 0.23134527
-0.053381689 0.01953885 0.23095807
-0.055381872 0.015769431 0.23129293
-0.034634568 0.04196522 0.2282387
-0.03839206 0.039982699 0.22774693
-0.041814409 0.036193337 0.22733209
-0.045049846 0.032462589 0.22708458
-0.048082165 0.029330976 0.2270903
-0.049600132 0.025313534 0.22706762
-0.039129909 0.03887986 0.2241511
0.002395391 0.016256139 0.30518407
0.0018261345 0.016528133 0.30010116
0.0025033774 0.021366872 0.29670781
0.00043437816 0.019713357 0.29894787
0.0048461715 0.027021646 0.292081
0.0020755529 0.024440017 0.2943995
0.0035536801 0.029997874 0.28922635
0.0057446426 0.034256645 0.28416473
0.0023921449 0.032141998 0.28680608
0.0070880577 0.038469836 0.27965033
0.0040718447 0.037462346 0.28039169
0.0053585861 0.040440604 0.27603817
0.003053084 0.040532336 0.27678883
0.0033303238 0.043184549 0.27151692
0.0011769067 0.042562328 0.27408013
0.0019808542 0.045628801 0.26765901
0.0045015235 0.04853899 0.26305833
0.0004324019 0.047315203 0.26307324
-0.056055073 -0.010272294 0.25808018
-0.0013335086 0.048862711 0.2589151
-0.057740685 -0.0082998984 0.2536808
-0.0017609745 0.049227521 0.25381708
-0.0050485339 0.050255544 0.25452673
-0.05906269 -0.0070404112 0.25041863
-0.060257673 -0.0099944323 0.24895388
-0.0027051121 0.050502919 0.2496689
-0.0064417832 0.050211161 0.24949965
-0.057930529 0.00010256842 0.245114
-0.058350231 -0.0040927362 0.24581113
-0.060022645 -0.0086088758 0.246355
-0.0079348776 0.050823893 0.24493447
-0.012451321 0.050095104 0.24454156
-0.058000896 0.0017739609 0.24112144
-0.057749774 -0.0021372568 0.23992932
-0.0091339815 0.050634883 0.24080527
-0.013346434 0.049772512 0.23988307
-0.057450585 0.0069738273 0.23660049
-0.057873677 0.0025318637 0.23609507
-0.014603464 0.049908608 0.23515907
-0.018506091 0.049209896 0.23571074
-0.057518307 0.008563403 0.23248771
-0.058206245 0.0043819081 0.23146051
-0.015708352 0.050261579 0.23149312
-0.019441767 0.049028229 0.23108521
-0.023446575 0.047174428 0.23025569
-0.028355319 0.044302307 0.22930217
-0.050713323 0.022186397 0.22777617
-0.052680172 0.018960623 0.22707224
-0.055783622 0.014419207 0.22820121
-0.057028629 0.0095698815 0.22768798
-0.023907473 0.045936849 0.22599962
-0.027599968 0.04383447 0.2254222
-0.03233375 0.042311519 0.22579175
-0.045450799 0.030646261 0.22452056
-0.047876853 0.027902506 0.22420064
-0.050214794 0.023532584 0.22447065
-0.05313541 0.019587716 0.22413749
-0.054357272 0.015316192 0.22336006
-0.056046359 0.011930184 0.22349799
-0.028845288 0.044362102 0.22102621
-0.032756075 0.041999787 0.22144324
-0.03702331 0.03925043 0.2216076
-0.040603202 0.035309762 0.22139597
-0.044039473 0.031493835 0.22097376
-0.047195837 0.028434493 0.22078824
-0.050206523 0.024178281 0.22000465
-0.053587489 0.020543674 0.21985602
-0.033193164 0.042061634 0.21788636
-0.036915895 0.039192714 0.21685225
-0.040287115 0.036188509 0.21593988
-0.043657422 0.032764006 0.2158033
-0.047266565 0.028777562 0.21585658
-0.050451387 0.024638537 0.21604311
-0.053708062 0.021301026 0.21605429
0.006927317 0.04250608 0.27060711
0.0059065111 0.044903889 0.26610851
0.0066311788 0.047500972 0.26360178
0.0048836265 0.04625126 0.26201537
0.0027053058 0.046878569 0.25551197
0.0020455457 0.047832191 0.25195187
-0.0001616776 0.049806695 0.24766627
-0.057675049 -0.0067311376 0.24257305
-0.057834636 -0.010436788 0.24232927
-0.002446441 0.05086679 0.24302557
-0.0054811165 0.051731288 0.24278134
-0.058205567 -0.004914416 0.23891038
-0.058404893 -0.0085433926 0.23744023
-0.0071789641 0.051201247 0.23831785
-0.058778845 -0.0030138399 0.23403192
-0.060232565 -0.0065168235 0.23248005
-0.0092079137 0.051715687 0.23420078
-0.01225345 0.050755665 0.23467618
-0.058894426 0.0022249129 0.23000869
-0.059451565 -0.0017967783 0.22936332
-0.060854249 -0.0049674343 0.22885397
-0.0096259043 0.051370949 0.23003072
-0.013541425 0.050942831 0.22990569
-0.057366204 0.0083874352 0.22538409
-0.058153294 0.0038150493 0.22601578
-0.013921209 0.049698863 0.22576603
-0.017645355 0.04861176 0.22439533
-0.02237244 0.047052097 0.22417313
-0.054900557 0.014030786 0.22145745
-0.056563821 0.0093047097 0.22115377
-0.057753846 0.0050897244 0.22193378
-0.018674742 0.047864169 0.22045776
-0.02259987 0.046306852 0.21968505
-0.02617114 0.044878751 0.2202417
-0.053702988 0.01836138 0.21698967
-0.054290317 0.014631838 0.21722791
-0.055897046 0.010893825 0.21785918
-0.024398066 0.045556597 0.2155844
-0.028250907 0.045042794 0.21535105
-0.032739922 0.042736314 0.21478188
-0.037009601 0.039489795 0.21381411
-0.03944828 0.037783545 0.21354684
-0.045005862 0.031902194 0.21299377
-0.047395021 0.029088695 0.21262416
-0.050556961 0.024914727 0.21278483
-0.053027451 0.01976631 0.21241951
-0.053763337 0.015674694 0.21349984
-0.028991271 0.044934385 0.21047747
-0.032805037 0.042572409 0.20988172
-0.036507312 0.039252575 0.20963448
-0.040260132 0.036730107 0.20993552
-0.044033494 0.033205412 0.20977831
-0.047584806 0.029463086 0.20943242
-0.049747884 0.025099859 0.20863414
-0.05176137 0.021473585 0.20769969
-0.032567482 0.042869557 0.20631242
-0.036157206 0.039135776 0.20598501
-0.03964502 0.036338076 0.20605662
-0.043383051 0.032805137 0.20501596
-0.047291584 0.029396294 0.20496827
0.0088741817 0.045403443 0.25284639
0.0076206401 0.044452175 0.25371689
0.008948518 0.04667129 0.24955493
0.0059143566 0.046403058 0.25005111
0.0066115595 0.048679419 0.24502665
0.0033697225 0.048815485 0.24552691
0.0027575064 0.049248002 0.24051452
-0.058355197 -0.01158981 0.23612884
0.00029785372 0.049353745 0.23676011
-0.002662871 0.049754318 0.23501605
-0.059107337 -0.010418786 0.2326602
-0.0033641197 0.050288729 0.23081872
-0.059015505 -0.0036275461 0.22621983
-0.059477441 -0.0079560317 0.22620168
-0.007023789 0.050896764 0.22738749
-0.057431083 0.00025691465 0.22308183
-0.057867065 -0.0031805132 0.22386247
-0.0087269433 0.050434329 0.22301394
-0.011909371 0.049873691 0.22242931
-0.015229065 0.048590869 0.22119746
-0.05646944 0.0059961565 0.21843737
-0.057206281 0.0019401629 0.2182672
-0.012885094 0.049520057 0.21763214
-0.016457656 0.048248038 0.21785584
-0.020003414 0.047341853 0.21729293
-0.055362519 0.0090154465 0.21459728
-0.057428043 0.0045569092 0.21402532
-0.017038794 0.048324645 0.21339875
-0.021427203 0.046514526 0.21384332
-0.025663063 0.045028664 0.21152282
-0.053793214 0.013627417 0.21085006
-0.054609589 0.0093099046 0.21000603
-0.056883991 0.0056264475 0.21067914
-0.018219147 0.048253763 0.21011204
-0.02245588 0.046585459 0.2089698
-0.027030475 0.04524783 0.20812291
-0.030471191 0.043821566 0.20766023
-0.050033789 0.023615045 0.20594233
-0.052333087 0.018835997 0.20577216
-0.053356275 0.014298525 0.20574284
-0.0541666 0.010534715 0.20668405
-0.023473416 0.046543114 0.20442551
-0.027419932 0.04526829 0.20365295
-0.032215308 0.042676691 0.20399779
-0.036116108 0.039263193 0.20342502
-0.039472565 0.036327276 0.20338079
-0.043379821 0.0329509 0.2024807
-0.047060527 0.029301468 0.2022295
-0.048708398 0.024547799 0.20238093
-0.051075429 0.020337772 0.20172864
-0.052806474 0.015876876 0.20167679
-0.032246318 0.042213421 0.19929752
-0.03602815 0.039480034 0.19878581
-0.039501846 0.036470711 0.19847015
-0.043327555 0.033067487 0.19833192
-0.04703974 0.029511921 0.19796389
-0.048287064 0.025057472 0.19780284
-0.034106851 0.041963574 0.19604322
-0.036319673 0.040030859 0.1949656
-0.039389055 0.03679407 0.19454721
-0.042069044 0.034194328 0.19468498
-0.046133034 0.029887239 0.19339788
0.008021906 0.047614735 0.23797297
0.0075499639 0.048414953 0.23420826
0.0035075489 0.048935607 0.23351824
0.0077346191 0.054892048 0.22922423
0.0019963831 0.04942701 0.22892201
-0.059101529 -0.0090725385 0.22386575
0.00026443973 0.04998263 0.22463882
-0.0024093091 0.049890369 0.22515348
-0.056250036 -0.0058914591 0.21975398
-0.057946943 -0.0088138282 0.22126707
4.5575202e-05 0.050478995 0.22148803
-0.004248146 0.049777955 0.22026271
-0.056445852 -0.003972685 0.21567911
-0.0061820671 0.049516674 0.21508011
-0.0099709872 0.049664356 0.21581024
-0.057949595 0.0012083128 0.21166801
-0.057923764 -0.0019532517 0.21143579
-0.011266658 0.049449667 0.21165583
-0.014166851 0.04838657 0.21120286
-0.055032499 0.0070044603 0.20799673
-0.057050724 0.0039538927 0.20802733
-0.057376578 -1.6903505e-05 0.20654765
-0.012302713 0.049760453 0.2064648
-0.015982855 0.04863888 0.20656741
-0.019870112 0.047073241 0.2058621
-0.054159824 0.012905506 0.20256418
-0.054811519 0.0089551471 0.20335507
-0.056953251 0.0048747435 0.20253527
-0.013510335 0.050579086 0.20236355
-0.016742185 0.049610101 0.20143947
-0.021459609 0.047274392 0.20187148
-0.051782522 0.017804874 0.19926596
-0.053682767 0.014449302 0.19938821
-0.05548574 0.010097796 0.19827595
-0.057006761 0.0062162112 0.19793183
-0.017785225 0.04881008 0.1979661
-0.021980522 0.04689737 0.19737959
-0.026395271 0.044684123 0.19771919
-0.02997487 0.043355335 0.19736609
-0.048517112 0.023249784 0.1952813
-0.05012542 0.019851666 0.1954807
-0.052360564 0.015450004 0.19467852
-0.023399554 0.046234541 0.19372365
-0.026843214 0.045039497 0.19259521
-0.03080944 0.043119587 0.19261041
-0.035320263 0.040643867 0.19180232
-0.038869414 0.03675754 0.19146758
-0.042301249 0.032829214 0.1914832
-0.045676626 0.029201973 0.1905314
-0.048277922 0.024672963 0.19088018
-0.049905203 0.020249661 0.19135791
-0.052601788 0.016111905 0.1911774
-0.031449068 0.042691451 0.18765998
-0.03537669 0.040364653 0.18713906
-0.03927961 0.037152179 0.1870358
-0.042265501 0.033797588 0.1866411
-0.045798436 0.029928662 0.18622273
-0.047751844 0.025812278 0.18620768
-0.039008152 0.037102733 0.18334913
-0.043305852 0.032923549 0.18309945
-0.045896687 0.030217912 0.18285713
0.0084437039 0.054446138 0.22705075
0.0086680148 0.050059248 0.22763956
0.0050960034 0.049268171 0.22772813
0.0093161687 0.053861 0.22474858
0.0073943697 0.050683051 0.22275457
0.0037136171 0.049946517 0.22335216
0.0088263415 0.054932371 0.21846527
0.0024041478 0.050533988 0.21918932
-0.001692554 0.050394118 0.21777013
-0.05603328 -0.0077908114 0.21468246
0.0010932274 0.050710686 0.21381348
-0.0028999411 0.050171621 0.21378034
-0.057572536 -0.0054534022 0.20971537
-0.057089534 -0.0094479136 0.20853677
-0.0051576067 0.049687579 0.20943835
-0.0087832566 0.049641881 0.2088235
-0.05746524 -0.003627019 0.20492586
-0.057787657 -0.0054544155 0.20245838
-0.0061606411 0.050072946 0.20493513
-0.0097604636 0.050089575 0.20486331
-0.058448143 -0.0006062258 0.20145121
-0.058537394 -0.0045255329 0.19966596
-0.011277882 0.050692059 0.20027459
-0.058024142 0.005386889 0.19636562
-0.059605911 0.0012988988 0.19665357
-0.015611947 0.048999928 0.19541481
-0.019762486 0.048138358 0.1955083
-0.053481154 0.013315028 0.19254839
-0.055127367 0.0099159293 0.19276816
-0.057043962 0.0059885904 0.19192392
-0.059254304 0.0010481477 0.19198322
-0.016884206 0.04853908 0.19039455
-0.020788766 0.047310419 0.19124237
-0.02559524 0.045892216 0.1897437
-0.050216835 0.020286413 0.18838114
-0.052703425 0.015113467 0.18880796
-0.054921821 0.010192705 0.18801388
-0.056769907 0.0062994007 0.18816623
-0.021932002 0.046721838 0.18685299
-0.025795214 0.044735089 0.18533841
-0.029784905 0.043301605 0.18548781
-0.033253092 0.041849051 0.18504342
-0.048629552 0.024655975 0.18423286
-0.050347876 0.020421404 0.18382609
-0.052205272 0.015989343 0.18405813
-0.026819028 0.044157274 0.18169188
-0.030085169 0.042948067 0.18090755
-0.03515505 0.040790617 0.18176198
-0.039203729 0.037432645 0.18130523
-0.042268965 0.034384012 0.18138024
-0.046137594 0.030603053 0.18047833
-0.048480738 0.025452761 0.17981175
-0.049470201 0.021383036 0.17941076
-0.03120907 0.042454433 0.17733461
-0.035931781 0.041589588 0.17729306
-0.039806645 0.038315065 0.17715305
-0.042601574 0.034744129 0.17656434
-0.045728557 0.030431895 0.17574736
-0.048322141 0.02602886 0.17600459
-0.036842167 0.040589094 0.17283028
-0.039220944 0.037962578 0.17313591
-0.04164023 0.035059616 0.17271948
0.0087735914 0.049571063 0.21725583
0.005152043 0.04931502 0.21558344
0.0039760955 0.050291263 0.21221831
-0.00014124624 0.04955899 0.21070248
0.0023775343 0.049663763 0.20626745
-0.00031914935 0.049248829 0.20676732
-0.056828782 -0.010434959 0.20180628
0.00049574301 0.049610894 0.20344326
-0.00281558 0.049893014 0.2027486
-0.057492748 -0.007981319 0.19941828
-0.0052766073 0.050173551 0.19839656
-0.0082118306 0.050079197 0.19737291
-0.058730021 -0.004162997 0.19462043
-0.0038835909 0.050350379 0.19488126
-0.0091095529 0.04862269 0.19285867
-0.01318928 0.048975125 0.19264963
-0.056991421 0.0031203572 0.18939662
-0.057993483 0.00086695515 0.18872628
-0.01037628 0.048688307 0.18869254
-0.014035441 0.049007222 0.18945256
-0.054899953 0.0088402461 0.185067
-0.056032479 0.0044646077 0.18490422
-0.05692894 0.0009077508 0.1856418
-0.015325962 0.049581699 0.1849077
-0.019738935 0.047369048 0.18407544
-0.023728643 0.045268275 0.18272829
-0.052146617 0.01495884 0.18065491
-0.054241475 0.010182936 0.18171304
-0.05585172 0.0058877692 0.18164623
-0.015921833 0.049451463 0.18060985
-0.020212982 0.046961755 0.17921221
-0.024694718 0.044638447 0.17901516
-0.027837014 0.043294892 0.17811164
-0.050141245 0.019992039 0.1772154
-0.05178244 0.015860217 0.17646268
-0.053710833 0.011225833 0.17678595
-0.025207877 0.045228943 0.17435244
-0.02968757 0.043488879 0.17517805
-0.03280282 0.042129554 0.17426112
-0.048227083 0.025084157 0.1730653
-0.050128177 0.020922644 0.17287767
-0.051777467 0.016791329 0.17212072
-0.029395586 0.043292046 0.16998672
-0.033788737 0.041015092 0.17011571
-0.038649272 0.037570186 0.1699844
-0.041813307 0.034001287 0.16994056
-0.044833262 0.030105855 0.1699622
-0.047456332 0.025384806 0.16836908
-0.049401242 0.021819262 0.16880029
-0.034585945 0.03974786 0.16587305
-0.037690889 0.036856264 0.16557875
-0.040679358 0.033831209 0.16552907
-0.0438486 0.030102259 0.16574511
-0.045817927 0.027783372 0.16542676
0.0087751392 0.049567465 0.20994172
0.0063701011 0.049885452 0.20835966
0.0064077899 0.04916627 0.20448193
0.0028346721 0.049296509 0.20096678
0.0020161401 0.048893124 0.19540495
-0.0013003312 0.049786873 0.19714192
-0.055181906 -0.010357294 0.19030267
-0.0025038701 0.04852888 0.19096202
-0.0055077784 0.048108488 0.19000858
-0.055965714 -0.0047282912 0.18523237
-0.056661405 -0.0063505359 0.18921131
-0.0034171455 0.048510045 0.18665969
-0.0073684659 0.048707575 0.18631831
-0.055801153 0.0020344425 0.18214518
-0.055431843 -0.0014186334 0.18211928
-0.0091639794 0.048896249 0.18237296
-0.055425771 0.0032576509 0.17839286
-0.0097623989 0.049008593 0.17780316
-0.013761882 0.049025454 0.17738733
-0.017782811 0.04768835 0.17662185
-0.054223169 0.0096454956 0.17397061
-0.054598235 0.0055132899 0.17434397
-0.014482146 0.048297014 0.17310625
-0.019281836 0.0469811 0.17268726
-0.051880226 0.01477965 0.16934863
-0.053369068 0.011144947 0.16937509
-0.054176562 0.0074569713 0.17060217
-0.020300444 0.046678819 0.16778299
-0.02461502 0.045064673 0.16858029
-0.029183973 0.043230712 0.1678246
-0.04976853 0.020102262 0.16627717
-0.050490387 0.015821273 0.16575944
-0.052018341 0.012078758 0.16562724
-0.021880928 0.047010452 0.16381735
-0.024902649 0.045446254 0.16366097
-0.028946601 0.043255582 0.164092
-0.032845125 0.040723208 0.16373357
-0.037784882 0.037112765 0.1630224
-0.040864769 0.033196345 0.16282952
-0.043609291 0.030010298 0.16286325
-0.046357989 0.02517971 0.16251326
-0.048388641 0.020017292 0.16186497
-0.026340324 0.045238506 0.16030169
-0.028991874 0.043178111 0.15968433
-0.032765925 0.040519688 0.15907454
-0.036824219 0.037317228 0.15794599
-0.040177062 0.033339687 0.1575678
-0.042958364 0.029841971 0.15754998
-0.045378055 0.026587434 0.15823144
-0.033656571 0.03993031 0.15531227
-0.037466452 0.037359543 0.15384763
-0.039435927 0.035016309 0.15351275
0.0076615792 0.047976468 0.19775051
0.005233584 0.048103243 0.1937564
0.0035693198 0.04857254 0.19045317
0.00045114756 0.04812884 0.18910176
-0.053809807 -0.010569075 0.1833733
-0.00067705847 0.048436996 0.18450367
-0.053352151 -0.0059563294 0.17907941
-0.0025526453 0.048272993 0.17986819
-0.005709175 0.048634209 0.17999697
-0.054311682 -0.0028500389 0.17555189
-0.0069455877 0.048953351 0.17568398
-0.054348692 0.0018822029 0.17244944
-0.055040065 -0.0013896506 0.17086819
-0.0081362557 0.048542064 0.17097548
-0.012439184 0.048510209 0.1710397
-0.054276094 0.0051466674 0.16757447
-0.055764832 0.00048908032 0.16712815
-0.0089531541 0.049091313 0.16748485
-0.012872281 0.048408054 0.16621631
-0.016938899 0.047546621 0.16613495
-0.050149273 0.013547853 0.16281909
-0.05265978 0.01033779 0.16297138
-0.054222934 0.0058195554 0.1622811
-0.055662677 0.0024840478 0.16419968
-0.018576741 0.047501422 0.1616993
-0.023143716 0.046300549 0.16126448
-0.046442192 0.022093557 0.15914136
-0.04836471 0.019120153 0.1589238
-0.050376132 0.015085177 0.1591202
-0.05256743 0.01135139 0.15843797
-0.02029017 0.04736083 0.15747952
-0.024554349 0.046068005 0.15786803
-0.028076123 0.043428026 0.1569258
-0.045407057 0.02474452 0.15563896
-0.047715463 0.020288564 0.15509981
-0.050351691 0.015918246 0.15428013
-0.052174971 0.012687346 0.15500605
-0.024087176 0.045619156 0.15396979
-0.028139606 0.042626299 0.15264857
-0.0316572 0.040531244 0.15264788
-0.036596961 0.037479412 0.15167084
-0.040565033 0.033837218 0.15133053
-0.043395638 0.030209195 0.15161407
-0.04566963 0.026355036 0.15112996
-0.048064966 0.021199584 0.1503576
-0.050448865 0.017814199 0.15042379
-0.036312174 0.036950089 0.14725053
-0.040834047 0.034676328 0.14657331
-0.043988641 0.031334266 0.14625156
-0.046167225 0.027599283 0.14580405
-0.047150809 0.02344331 0.14724341
-0.041742451 0.033629686 0.14271653
-0.043881476 0.031429213 0.14253286
-0.045788936 0.028994154 0.14211655
0.0069007147 0.047563568 0.18707341
0.0057619438 0.047988784 0.1829218
0.0017011929 0.048378233 0.18088347
-0.052304968 -0.0086246487 0.17736381
0.0043662079 0.048244275 0.17789727
0.00046493486 0.048339281 0.17747885
-0.053833324 -0.0067823473 0.17343733
-0.054177515 -0.010662491 0.1728121
-0.00077268854 0.048678793 0.17320904
-0.0044172592 0.048559554 0.17260063
-0.055361159 -0.0049407147 0.16951275
-0.056251332 -0.0085366294 0.16811562
-0.058199719 -0.01097063 0.16773498
-0.0022122413 0.048965491 0.16820008
-0.0053106602 0.04886464 0.16910681
-0.056568794 -0.0026915483 0.16565847
-0.057846118 -0.0061559565 0.16429335
-0.006415816 0.049312599 0.16443372
-0.011212066 0.048761211 0.16340199
-0.054855626 0.0040236078 0.16004252
-0.055484526 -0.00019367412 0.16071025
-0.057478674 -0.0042976886 0.1599648
-0.0081117079 0.049646668 0.15973032
-0.012096012 0.048519246 0.15936553
-0.01543247 0.047535084 0.15848851
-0.052592568 0.0085491948 0.1558311
-0.053826742 0.0053325165 0.15565073
-0.054939106 0.00135931 0.15642175
-0.057287864 -0.0035355389 0.15634719
-0.012474418 0.048555225 0.15461534
-0.016556874 0.0475033 0.15465614
-0.050765328 0.013545286 0.15204969
-0.052042469 0.010111488 0.1515373
-0.053362019 0.0059110373 0.15092844
-0.018605568 0.046934124 0.15079463
-0.023362869 0.045143541 0.15061527
-0.025539501 0.042970367 0.15046296
-0.04974575 0.019419504 0.1481654
-0.051147182 0.01574029 0.1484637
-0.052873131 0.011761341 0.14742956
-0.02029207 0.046766937 0.14634836
-0.023012001 0.04514965 0.14580372
-0.02692252 0.042479515 0.14618352
-0.030510232 0.039518021 0.1462605
-0.034906313 0.037144735 0.14453673
-0.046451706 0.025105886 0.14408052
-0.048507899 0.021645028 0.14458895
-0.051583171 0.017057357 0.14403826
-0.053712379 0.013220524 0.14325267
-0.024116315 0.044334207 0.14213908
-0.02740534 0.042566605 0.14146754
-0.030740369 0.040162593 0.14016721
-0.034730081 0.037073813 0.13989946
-0.039283246 0.034215122 0.13960144
-0.043441784 0.031142373 0.13937217
-0.045859918 0.026713498 0.13882494
-0.047772974 0.022235896 0.13942564
-0.051017318 0.018139085 0.13999167
-0.053481944 0.014739141 0.13994473
-0.032317705 0.039836433 0.1360321
-0.033473548 0.038804419 0.13601768
-0.038652398 0.033952795 0.1354534
-0.043333981 0.031237705 0.13562244
-0.045792185 0.027669268 0.13532007
0.0071177557 0.04852391 0.17637211
0.0059708953 0.048347019 0.17178506
0.0026018508 0.048448935 0.17049453
0.0013178065 0.048704851 0.16693223
-0.00081603043 0.049228877 0.16219851
-0.058767878 -0.0069495011 0.15772659
-0.0014666989 0.049713984 0.15762562
-0.0049594752 0.049780764 0.15826213
-0.055038679 -0.00095659681 0.15389705
-0.057685681 -0.0045064706 0.15364501
-0.058746796 -0.0076547787 0.15396345
-0.0022570584 0.050244592 0.1540536
-0.0066477694 0.04992754 0.15350544
-0.010550331 0.049046069 0.15215144
-0.054016151 0.0046341438 0.1488868
-0.054798424 -0.00030945614 0.14947516
-0.056684643 -0.0040126238 0.1493378
-0.0069337133 0.049744606 0.14933789
-0.011213759 0.048600119 0.14785963
-0.015397113 0.047240011 0.14810652
-0.052636534 0.0089829192 0.14587045
-0.053637102 0.0058308411 0.14520785
-0.053954337 0.0012142062 0.14521766
-0.012113608 0.048360202 0.14376721
-0.016345896 0.047009327 0.14354801
-0.05311634 0.0097416416 0.13993523
-0.017630462 0.046278656 0.13970855
-0.021897737 0.044797204 0.13924453
-0.02583289 0.043336745 0.13927343
-0.048427548 0.020782217 0.13707647
-0.050886013 0.017367013 0.13701713
-0.053022716 0.012997121 0.13654873
-0.022676548 0.044344187 0.1343171
-0.026511133 0.042860214 0.13493681
-0.030738408 0.040588386 0.13380933
-0.03435789 0.03737301 0.13353729
-0.038147792 0.033978447 0.13264298
-0.042553131 0.030611018 0.13208863
-0.045432352 0.02644716 0.13194329
-0.047401786 0.022120282 0.13354838
-0.049924374 0.018005727 0.13345698
-0.051467177 0.015134538 0.13263285
-0.027224928 0.043249827 0.12917325
-0.031074833 0.041467562 0.12914753
-0.034287855 0.037909359 0.12835339
-0.037611317 0.03384934 0.12788963
-0.041772068 0.030036723 0.1276153
-0.044095352 0.026611382 0.12760961
-0.046033375 0.023165762 0.12873948
-0.032347716 0.042229615 0.12436408
-0.034878466 0.039086219 0.1238144
-0.037536737 0.034798887 0.12439719
-0.042470314 0.029840698 0.12403822
0.0072043836 0.047613852 0.1646232
0.0039435346 0.047825985 0.16315198
0.0052440837 0.049076211 0.15950119
0.0035534892 0.04848624 0.15993515
0.0051329713 0.049496487 0.1560294
0.001912646 0.049607534 0.15525219
-0.00014385022 0.050269172 0.15125942
-0.0040268172 0.050047077 0.15100071
-0.054331075 -0.0030556358 0.14598221
-0.055658147 -0.0062724873 0.14678609
-0.0014821365 0.050109565 0.14707923
-0.0054962616 0.049967214 0.14679781
-0.0526383 0.0033798404 0.14106435
-0.053268656 -0.0017958023 0.14240527
-0.0060613696 0.049874321 0.14211714
-0.010220092 0.048894316 0.14130005
-0.051291965 0.0031748358 0.13751531
-0.052046604 -0.00069681741 0.13865742
-0.0108661 0.048424732 0.13693616
-0.015518138 0.046874534 0.13692391
-0.052032951 0.0087681804 0.13420853
-0.0519794 0.0055216327 0.13245127
-0.015393326 0.047118288 0.13225433
-0.019640818 0.045575779 0.13290742
-0.049118623 0.017292332 0.12985492
-0.051945161 0.012303583 0.13014573
-0.053289577 0.0080325734 0.12898105
-0.016668398 0.046734028 0.12859941
-0.021325883 0.045559056 0.1284346
-0.02543211 0.044429909 0.12864766
-0.039158359 0.031924069 0.12549943
-0.044593312 0.025165033 0.12629595
-0.046680685 0.021026876 0.1266585
-0.048808858 0.017137475 0.12581956
-0.05117498 0.013143223 0.12531132
-0.052806243 0.0099497456 0.12570983
-0.023322083 0.045545019 0.12475431
-0.026720382 0.044175249 0.12381345
-0.030101769 0.042932145 0.12243947
-0.036032535 0.037901718 0.12156898
-0.038287036 0.034359884 0.12222576
-0.041866757 0.030782185 0.12181258
-0.044257782 0.026171032 0.12191892
-0.046123717 0.021618156 0.12150103
-0.047342196 0.018034481 0.12179068
-0.027244519 0.043514639 0.12042004
-0.031498756 0.041665897 0.11826259
-0.034740802 0.039053019 0.11774778
-0.038495183 0.035093296 0.11737144
-0.04250915 0.031389281 0.11726463
-0.044690646 0.027552845 0.11673701
-0.045484778 0.023114447 0.11794549
-0.034484737 0.039043896 0.1137687
-0.037881386 0.035808079 0.11362267
-0.041662682 0.032538109 0.1132611
-0.044784736 0.029456094 0.11345226
0.0075797625 0.048220951 0.15243602
0.0065712556 0.048813269 0.14847177
0.0027907733 0.050114684 0.14987698
-0.053200692 -0.0089305658 0.14244062
0.00085454993 0.049520247 0.14478061
-0.052716464 -0.0046765506 0.1397118
-0.052458994 -0.0073090903 0.13916835
-0.00042414293 0.049651112 0.14069429
-0.0033349954 0.049620155 0.13979316
-0.052709498 -0.0025048442 0.13587916
-0.053106967 -0.0064301714 0.13423109
-0.0043337271 0.049024094 0.1358844
-0.0088512059 0.04848747 0.13445422
-0.051626779 0.0029269233 0.13311836
-0.053664774 -0.00052661262 0.13152421
-0.055222332 -0.0039404016 0.13080651
-0.005173929 0.048429526 0.13175935
-0.0092410501 0.048342668 0.1301716
-0.013248647 0.047705047 0.12941986
-0.05309438 0.0056154225 0.1254034
-0.054164022 0.0008960329 0.12670144
-0.055895157 -0.0030336492 0.12587515
-0.010189885 0.048710417 0.12532678
-0.01445671 0.047261361 0.12568462
-0.017895196 0.046019822 0.12496862
-0.051024854 0.011625173 0.1219528
-0.052492708 0.0074020103 0.12225926
-0.053675935 0.0026354622 0.1217607
-0.015089868 0.04723284 0.12108862
-0.019585047 0.045522302 0.12123972
-0.047042079 0.020144211 0.11897415
-0.048286363 0.016574351 0.11928129
-0.050584823 0.012450676 0.11835474
-0.051463552 0.0088144522 0.11677295
-0.020261858 0.044847943 0.11656302
-0.025278497 0.043215606 0.11682254
-0.028281571 0.041525662 0.11597025
-0.044644222 0.024630949 0.11549401
-0.046610579 0.021852005 0.11562544
-0.048109792 0.016914789 0.11384499
-0.051031932 0.013429735 0.11356974
-0.022047432 0.044415955 0.11259758
-0.025762893 0.04295788 0.11231369
-0.02985266 0.041396499 0.11256444
-0.03422901 0.038916845 0.11163896
-0.037826724 0.035474062 0.11070156
-0.041603938 0.031588197 0.11018378
-0.044510879 0.026252165 0.11086714
-0.046479154 0.022258982 0.11023349
-0.048464879 0.01817283 0.1091907
-0.051002815 0.015639868 0.10873938
-0.029968876 0.040067721 0.10758698
-0.033290718 0.038252376 0.10691422
-0.037010647 0.035642426 0.10673273
-0.04126488 0.031690642 0.10651684
-0.04400038 0.02804359 0.10589987
-0.037650932 0.035049852 0.10337639
-0.040672392 0.032562897 0.1024971
-0.04376547 0.029541384 0.10232395
0.0060002673 0.047470905 0.14519668
0.0083016679 0.047800258 0.14148724
0.0060207546 0.047296591 0.14082259
0.0027060863 0.048374303 0.13764822
-0.05226551 -0.0096944049 0.13213018
0.00098966621 0.048964158 0.13301259
-0.0019745585 0.048885472 0.13306653
-0.054944195 -0.0071523599 0.12849098
-0.05435532 -0.0095763989 0.12740827
0.00094136223 0.049326785 0.12939343
-0.0030246433 0.049063884 0.12894142
-0.056269914 -0.0056268461 0.1246565
-0.056153975 -0.0098358486 0.12426266
-0.0042467285 0.049579345 0.12490776
-0.0085865632 0.049156975 0.12320608
-0.052535631 0.0052207299 0.11916727
-0.054323167 0.0015220009 0.12030697
-0.056443293 -0.0029765554 0.12078887
-0.0053618792 0.049524859 0.12090409
-0.0092359986 0.049011782 0.11925411
-0.013392795 0.047959611 0.11874366
-0.052432422 0.0063995235 0.11590761
-0.054329842 0.0026264824 0.11570764
-0.05602096 -0.0014145747 0.11623114
-0.01060966 0.048475496 0.11509955
-0.014154254 0.047291294 0.11446458
-0.018369574 0.04566573 0.11391872
-0.052049901 0.012022331 0.11110395
-0.052846089 0.0082033724 0.11129922
-0.054216404 0.0042128712 0.1116876
-0.01452961 0.047141507 0.11043215
-0.01933692 0.045265932 0.10979581
-0.023837525 0.043441571 0.10969472
-0.050093167 0.017003691 0.10808766
-0.052070718 0.013339423 0.1079703
-0.053039558 0.0092721134 0.10643601
-0.020266347 0.0442512 0.10578018
-0.024280436 0.042728748 0.10495967
-0.028505255 0.040974665 0.10542268
-0.044369444 0.024879679 0.10483909
-0.045885842 0.021928187 0.1039167
-0.048961923 0.018308159 0.1033935
-0.050601564 0.014870197 0.10274559
-0.025317311 0.042565331 0.10081643
-0.028803935 0.040873062 0.1002956
-0.032761592 0.03810361 0.1007039
-0.03678561 0.035765804 0.10083687
-0.040968955 0.033017561 0.099976778
-0.044658199 0.027741577 0.09992522
-0.046549302 0.022883166 0.098924875
-0.049304746 0.019193493 0.098442256
-0.050680012 0.01570625 0.09885329
-0.03001532 0.040094778 0.096530497
-0.032632664 0.038222089 0.096780717
-0.036919966 0.035544962 0.096010625
-0.040583774 0.032852978 0.095758736
-0.044138331 0.029255766 0.095685303
-0.046594989 0.023115646 0.095151544
0.0060709044 0.047740392 0.13530147
0.008939229 0.049778257 0.13032895
0.0051703155 0.04845167 0.13081089
0.0077399649 0.05045579 0.12618864
0.0039348509 0.048969679 0.12587661
-0.056158595 -0.0097564254 0.12141764
0.0028479882 0.048135616 0.12206426
-0.0012796111 0.049219895 0.12137431
-0.056032665 -0.0050007477 0.11717671
-0.0031337589 0.049005426 0.11722428
-0.055988971 -0.0031358916 0.11284703
-0.0039979275 0.048859693 0.11307943
-0.0076865405 0.048737548 0.11317581
-0.011737518 0.047663316 0.11130464
-0.054085575 0.0011379253 0.10952508
-0.05544975 -0.0027186442 0.10843581
-0.0084847584 0.048521124 0.10851395
-0.013415869 0.04736907 0.10773271
-0.016517134 0.046032663 0.10688305
-0.052907463 0.0061698612 0.1043458
-0.052931298 0.0022256952 0.10475051
-0.054667149 -0.0013969 0.10487998
-0.0097321663 0.048441354 0.10488206
-0.012665864 0.047308002 0.1031695
-0.018257126 0.045150615 0.1029368
-0.051223576 0.012465792 0.10080647
-0.051425856 0.0082447287 0.099880517
-0.013799561 0.047210358 0.10030508
-0.018978653 0.044907115 0.098085165
-0.023769137 0.043416902 0.098556578
-0.050362445 0.017824747 0.095979035
-0.051359519 0.013927972 0.095961511
-0.051707022 0.0099223815 0.095068097
-0.020307541 0.045122236 0.09449178
-0.023937589 0.04320984 0.093255341
-0.028120225 0.04089608 0.093805015
-0.032424074 0.038203675 0.093704998
-0.035623562 0.035849821 0.092989266
-0.04592628 0.023561653 0.092437029
-0.04901392 0.018877067 0.091952562
-0.051040769 0.014850019 0.091311872
-0.025252804 0.042530112 0.08956784
-0.028444445 0.040525582 0.088717163
-0.032359354 0.038447432 0.088862002
-0.036625557 0.035951145 0.089607537
-0.039750315 0.032354344 0.089113593
-0.042776085 0.028655067 0.088508666
-0.045038804 0.024170112 0.087048948
-0.047037758 0.020848088 0.087461352
-0.033582423 0.038436342 0.084850967
-0.036552884 0.035935733 0.083844006
-0.039803691 0.032735754 0.08340162
-0.042996772 0.029183835 0.08296901
0.0095361657 0.049450491 0.12254736
0.0063513443 0.049132582 0.12289622
0.0043753255 0.048017964 0.11933476
0.0047136471 0.047967266 0.11621958
0.0019582827 0.047444336 0.1143133
-0.001337368 0.048215941 0.10996389
-0.055469893 -0.0053463262 0.106987
-0.055195518 -0.0080456659 0.1063354
-0.0036530942 0.049104892 0.10618633
-0.005625058 0.048804559 0.10600549
-0.052983031 6.4335763e-06 0.10156745
-0.054748558 -0.003615994 0.10204029
-0.0074829608 0.048360258 0.10174906
-0.050938033 0.0054009259 0.098021567
-0.052281342 0.0012472626 0.097565532
-0.053763822 -0.0022011958 0.098080099
-0.0082447212 0.04832983 0.09749645
-0.012252579 0.04738057 0.097082376
-0.016659519 0.045876622 0.096042991
-0.051576607 0.0062603354 0.093889952
-0.051829897 0.0029905941 0.093136668
-0.012780236 0.047187898 0.092512727
-0.0174817 0.046156667 0.092515469
-0.020755075 0.044661634 0.091477752
-0.051322669 0.013291994 0.08889848
-0.051547885 0.0083636958 0.089796066
-0.013959989 0.047164485 0.088450968
-0.017506404 0.046218954 0.087727308
-0.022995822 0.043689847 0.087309778
-0.026806176 0.041296303 0.086329043
-0.047918458 0.018998515 0.085220814
-0.049997967 0.013958447 0.085287452
-0.051004548 0.0095160548 0.085538924
-0.019013908 0.045789652 0.083255351
-0.022896275 0.044156745 0.082586169
-0.028077753 0.041339707 0.082355559
-0.031929139 0.039177734 0.082426429
-0.035107031 0.037159134 0.081564963
-0.04544523 0.024871644 0.081694722
-0.047187984 0.020109827 0.080356002
-0.048749126 0.015500544 0.081881583
-0.023585571 0.043828983 0.079468429
-0.028305616 0.041296277 0.077934682
-0.031762321 0.038549662 0.077618539
-0.035571489 0.03562364 0.076879442
-0.039704625 0.032968849 0.077481985
-0.042985782 0.029483113 0.077134907
-0.045258 0.025268851 0.076390028
-0.047088124 0.02217963 0.076948106
-0.036633074 0.034657225 0.072835267
-0.039855361 0.032215074 0.073085368
-0.042735998 0.029441493 0.072952569
-0.044518761 0.026696857 0.07224983
0.0083893742 0.047609117 0.11818945
0.0072076712 0.047697045 0.11324751
0.0087133646 0.050375178 0.10874927
0.0057523325 0.048700303 0.10925347
0.0020534825 0.047845438 0.10860163
-0.054343514 -0.0089085288 0.10249335
0.0082962699 0.051076412 0.10538876
0.0048232842 0.049242936 0.10474008
0.0007967893 0.048126012 0.10384643
-0.053158253 -0.0064783376 0.097345889
-0.054070789 -0.0099190958 0.0985021
-0.00096920133 0.047811218 0.099520266
-0.0044440087 0.048222519 0.099168003
-0.052551374 -0.0010351092 0.094178021
-0.052849505 -0.0050491579 0.094430268
-0.053736582 -0.009419756 0.095974684
-0.0059344582 0.048566893 0.094482839
-0.052464224 0.00069163926 0.090861559
-0.052918814 -0.003503738 0.08996886
-0.0079612881 0.049000848 0.090441048
-0.011192292 0.048057321 0.090213597
-0.051256493 0.0057918858 0.086164713
-0.052371528 0.0021185353 0.086221516
-0.0086972248 0.049547859 0.085630357
-0.012344155 0.048300859 0.0860309
-0.015960829 0.047116563 0.085455477
-0.049442418 0.01267302 0.082580864
-0.050852425 0.0081062969 0.08234936
-0.051746201 0.0049167015 0.081230819
-0.013217781 0.048613921 0.081180871
-0.017273769 0.047080673 0.081819177
-0.048446368 0.013803683 0.078139842
-0.050533306 0.0096024945 0.077572167
-0.052036844 0.0061535444 0.078084469
-0.014429711 0.048484065 0.077418268
-0.018018967 0.047266666 0.076816976
-0.022881495 0.044870149 0.077300966
-0.02718447 0.04198584 0.07624352
-0.047142766 0.019298203 0.074966967
-0.048300087 0.014860757 0.073504984
-0.049978595 0.011227818 0.073957741
-0.01901201 0.046575226 0.072630465
-0.023114268 0.045036681 0.07186538
-0.027877701 0.041801404 0.072461784
-0.031486578 0.038594946 0.072457016
-0.035692517 0.036387358 0.07110244
-0.039008118 0.032966476 0.070486367
-0.042292703 0.029694788 0.070341885
-0.04497258 0.024239372 0.070718467
-0.047105633 0.020452645 0.070117295
-0.048372962 0.016819445 0.069365144
-0.028148033 0.041798793 0.06804198
-0.031986427 0.039448097 0.067159534
-0.036693171 0.037125431 0.06651628
-0.03952799 0.033727363 0.065978527
-0.042623471 0.029371016 0.066520512
-0.04407084 0.024756229 0.06627202
-0.033283189 0.038773421 0.062357664
-0.037068717 0.03804101 0.062618852
-0.040375043 0.034227494 0.061836839
-0.042497255 0.030464081 0.061556399
-0.037214655 0.037278634 0.058479488
0.009893924 0.049954329 0.10100144
0.0075874645 0.049136665 0.10134345
0.0067462977 0.048309069 0.097838759
0.003537178 0.046861269 0.096911192
-0.053038489 -0.0076885596 0.092629075
0.001159586 0.046717033 0.092517555
-0.053264149 -0.0063601006 0.089107454
-0.05444314 -0.0096252747 0.088233709
-0.00088412315 0.047929171 0.088224828
-0.0036849268 0.048337597 0.088880539
-0.053224467 -0.003197927 0.084630609
-0.054282315 -0.007658286 0.083932579
-0.0014949925 0.0488731 0.084048212
-0.0044091139 0.048880599 0.084038317
-0.051749758 0.0021667723 0.079623699
-0.052354991 -0.0026371349 0.080657899
-0.053851478 -0.0063990951 0.079741895
-0.0066497978 0.048609942 0.079486549
-0.0098175984 0.048430525 0.077997506
-0.051373318 0.0079423897 0.074759662
-0.051774316 0.003212655 0.075059891
-0.0076519772 0.048812911 0.075060725
-0.011330001 0.048379857 0.074506283
-0.014695967 0.046847869 0.07252866
-0.048997298 0.012651486 0.071251571
-0.050175756 0.0091713089 0.070808232
-0.051937733 0.0048581827 0.07079035
-0.012576437 0.047179699 0.070583463
-0.016287565 0.046703763 0.068964362
-0.047656108 0.018524811 0.066963911
-0.048641287 0.014161902 0.066597879
-0.049837355 0.0089414865 0.067100942
-0.017431881 0.046338238 0.064847171
-0.021235453 0.044517253 0.064684451
-0.02542804 0.041874152 0.064321756
-0.043267552 0.023042504 0.062037706
-0.045987833 0.01930126 0.062453985
-0.047972076 0.015272731 0.061893404
-0.022490971 0.044049546 0.060728312
-0.025964003 0.041482333 0.059678853
-0.030472755 0.039032202 0.059660852
-0.034603253 0.0379925 0.059531391
-0.043253474 0.028361607 0.059359848
-0.043174788 0.02394592 0.058207393
-0.031133208 0.038731512 0.055507362
-0.035023607 0.036394902 0.054662704
-0.038971551 0.033473991 0.055031478
-0.041811842 0.029735638 0.054538071
-0.039817497 0.032261372 0.050621629
-0.041020177 0.031173917 0.050612271
0.0079785716 0.047877468 0.094450593
0.0078383163 0.047593746 0.090676129
0.004637979 0.046884712 0.090868056
0.0031894725 0.047325984 0.086211622
-0.054180846 -0.010124568 0.080441117
0.0011107009 0.048317611 0.080869317
-0.052231021 -0.0037631541 0.077211559
-0.0535326 -0.008704111 0.076213419
-0.00044468418 0.048432671 0.07716924
-0.0032153316 0.048298396 0.077005982
-0.05274231 -0.0025798827 0.073304594
-0.054517381 -0.006645551 0.071832836
-0.0046951752 0.047922041 0.071446061
-0.052351072 0.0019661896 0.069692314
-0.052811012 -0.0015294217 0.06819427
-0.005546635 0.047324054 0.067957342
-0.0098434426 0.047334738 0.068200171
-0.049835235 0.0084330402 0.064581692
-0.0518107 0.0039681271 0.06447947
-0.052880559 0.00028373301 0.064884603
-0.011439307 0.047527589 0.063430727
-0.015845425 0.046996959 0.063024938
-0.04844119 0.013691694 0.060364425
-0.050227787 0.0096110441 0.060896397
-0.052476697 0.0055736769 0.05965656
-0.012461483 0.047909997 0.059689164
-0.016142122 0.047308773 0.059005499
-0.020100024 0.044824578 0.059212804
-0.02501934 0.042254869 0.056894362
-0.043817155 0.023243371 0.055482209
-0.045702904 0.019563261 0.056562543
-0.04847664 0.014785023 0.056684673
-0.050410666 0.010323621 0.055515707
-0.052705597 0.0064717848 0.056210816
-0.016775433 0.046789177 0.055162609
-0.020605065 0.044578407 0.054425299
-0.025203262 0.04263116 0.054133296
-0.029539164 0.039500069 0.052964687
-0.033837467 0.036493316 0.052001894
-0.042457134 0.027926335 0.051449358
-0.043554947 0.024278214 0.052884758
-0.046284661 0.019760631 0.052030802
-0.048617236 0.01575196 0.051681697
-0.049770497 0.011885878 0.051736295
-0.021913372 0.044282548 0.049190521
-0.025394831 0.043150943 0.049385786
-0.029848032 0.039951701 0.049178064
-0.034459338 0.036148097 0.049026191
-0.038301181 0.033135451 0.04859513
-0.041949742 0.029420638 0.048790395
-0.043652948 0.024626547 0.047979891
-0.045810699 0.020370983 0.048078358
-0.026005983 0.042880002 0.045397699
-0.029836155 0.03978125 0.045599699
-0.033604763 0.0364567 0.044790626
-0.03735866 0.032867175 0.044223487
-0.041294415 0.029428588 0.04447943
-0.042880986 0.02636148 0.044479609
0.0088645257 0.046763219 0.084630609
0.0052833855 0.046983048 0.082519531
0.0064546093 0.046208102 0.078418434
0.0043910313 0.04698775 0.074833274
-0.054385625 -0.010451151 0.070544481
0.001466522 0.04715547 0.070308745
-0.0012935475 0.047580354 0.069961369
-0.05269444 -0.0040273014 0.065622568
-0.054173443 -0.0066241231 0.065947175
0.0011198148 0.047790363 0.066759408
-0.0032081623 0.047557037 0.065141141
-0.0073474869 0.04706569 0.064654648
-0.052381203 -0.0026072878 0.06117171
-0.054448713 -0.0060152356 0.061253786
-0.0033352841 0.047548264 0.061146259
-0.0077435989 0.047004901 0.060711086
-0.052706249 0.0027546249 0.058067858
-0.051469736 -0.0010147262 0.056144834
-0.0092156045 0.047240011 0.056687891
-0.050739355 0.0080927573 0.051998794
-0.052157614 0.0053619631 0.053165257
-0.052068073 -0.00026832893 0.053815246
-0.011086293 0.047126174 0.052241623
-0.01479483 0.046591125 0.051280081
-0.018772056 0.044491962 0.050692976
-0.049199373 0.013810337 0.048466384
-0.049917638 0.0097518507 0.048419595
-0.05105304 0.0053210724 0.048383355
-0.015379293 0.046426442 0.046539128
-0.019229179 0.044747625 0.046644509
-0.045673434 0.019305203 0.044524491
-0.047782145 0.014857093 0.0441643
-0.049170081 0.010733407 0.043752253
-0.017055275 0.046901301 0.041845739
-0.020535581 0.045729801 0.042021155
-0.024993205 0.043542456 0.042558134
-0.028730795 0.040048227 0.042011499
-0.032647867 0.036132503 0.041538417
-0.035745155 0.032132767 0.039919913
-0.040302061 0.028601717 0.040263295
-0.043173522 0.024165764 0.040906429
-0.045312587 0.019626942 0.039504826
-0.047935273 0.015233664 0.039257348
-0.021895584 0.046051875 0.037118137
-0.025166862 0.043759249 0.037101328
-0.028830193 0.040470097 0.037093937
-0.032206379 0.036910322 0.03674823
-0.036325995 0.032933582 0.036562204
-0.040563371 0.029077806 0.036520541
-0.043181907 0.024754848 0.035253823
-0.04527121 0.02160269 0.03496033
-0.029720429 0.040514003 0.032365501
-0.031186732 0.038452081 0.032939017
-0.035828434 0.03382564 0.032636106
-0.040681668 0.030352125 0.031278491
-0.043126334 0.027279891 0.031573176
0.0067261867 0.046474792 0.072294354
0.008276524 0.047811188 0.066094339
0.0051507857 0.047186866 0.068396509
0.0027525034 0.04833895 0.064160466
-0.053333949 -0.0089388154 0.061659515
0.0022365823 0.048088808 0.059451401
-0.0011918414 0.04768493 0.058280885
-0.051373821 -0.0045472346 0.055400789
-0.053188346 -0.0064949468 0.056854248
-0.0032108631 0.047043938 0.054545343
-0.0072936174 0.046704076 0.054064035
-0.051599003 0.0017669201 0.050653875
-0.052098107 -0.0026193876 0.05135721
-0.0079188533 0.046845913 0.050325811
-0.051458165 0.0027291123 0.046586573
-0.0097587761 0.04690614 0.045627534
-0.013422387 0.047646284 0.04551369
-0.05013559 0.0083729178 0.04298842
-0.050643448 0.0042757522 0.041935503
-0.010291418 0.047181875 0.041370571
-0.014503477 0.047826394 0.04204011
-0.050390974 0.010645755 0.038794219
-0.052245453 0.0061271787 0.036687613
-0.016256988 0.04765778 0.036611259
-0.020151094 0.047293216 0.03649354
-0.046577293 0.020033192 0.034177244
-0.048431572 0.015966538 0.034746468
-0.050431892 0.012121873 0.033435583
-0.050923496 0.0090153944 0.032795131
-0.01691908 0.047448345 0.032628477
-0.020521287 0.046464298 0.031595886
-0.025115702 0.04405722 0.031990469
-0.028962076 0.041586772 0.031033456
-0.032503489 0.037550136 0.031356573
-0.036228951 0.03439391 0.030063808
-0.038950965 0.032530509 0.029378772
-0.043817293 0.025676455 0.03041023
-0.045892067 0.021391416 0.029827058
-0.048010822 0.017179143 0.029788613
-0.021770097 0.046685234 0.026447237
-0.025891211 0.045199141 0.026823103
-0.029238343 0.042147711 0.026788831
-0.032430552 0.03748171 0.026410282
-0.035961781 0.0338994 0.025556445
-0.040201858 0.030964781 0.026060522
-0.042967856 0.026935808 0.025539279
-0.044563081 0.02305058 0.026495397
-0.02786956 0.045146145 0.022624671
-0.029995266 0.042125829 0.022747338
-0.031770922 0.038510211 0.022703886
-0.036640644 0.032909498 0.021898925
-0.040022835 0.030464396 0.022285402
-0.042199735 0.027984885 0.021941483
0.0068291258 0.047317073 0.061383426
0.009115234 0.047772486 0.057316244
0.0056419373 0.047484562 0.056706965
-0.050957918 -0.0063846726 0.051569939
0.0038193986 0.047764562 0.052424848
-4.1084364e-05 0.047273129 0.052024424
-0.049262963 -0.003171334 0.046346962
-0.049545694 -0.007804798 0.045757353
