# .PCD v0.7 - Point Cloud Data file format
VERSION 0.7
FIELDS x y z
SIZE 4 4 4
TYPE F F F
COUNT 1 1 1
WIDTH 1342
HEIGHT 1
VIEWPOINT 0 0 0 1 0 0 0
POINTS 1342
DATA ascii
0.040673513 0.013138148 0.27683699
0.0070060156 0.045564845 0.27332777
0.0036989786 0.046794631 0.27193731
0.043961093 0.010551469 0.27103102
0.042512693 0.014765719 0.27158198
0.0090746414 0.047293819 0.26903039
0.0050198324 0.047951337 0.26804194
0.044687316 0.011699433 0.26660395
0.043116838 0.016627163 0.26697537
0.042207509 0.020756595 0.26552787
0.015097902 0.045782547 0.26445413
0.010866953 0.047764704 0.2642141
0.0066943839 0.048792195 0.26287323
0.044228286 0.017343795 0.26195356
0.043096788 0.022062743 0.26198
0.016339257 0.046754234 0.26039338
0.012238473 0.048562992 0.25947341
0.010069925 0.049694896 0.25717974
0.045310169 0.019454785 0.25839922
0.043682784 0.023512781 0.25869271
0.041251209 0.027400527 0.25757644
0.025633112 0.04239089 0.25620776
0.022597674 0.044508282 0.25648901
0.01795385 0.047082193 0.25626144
0.013829948 0.049137361 0.25525561
0.044954091 0.019887229 0.25435904
0.043426052 0.023580106 0.25370702
0.041210286 0.027044848 0.253333
0.038572025 0.03155325 0.25296381
0.035523079 0.035618015 0.25226948
0.031214818 0.038807452 0.25183767
0.027295962 0.041956455 0.25215825
0.023114353 0.044761881 0.25186744
0.018880863 0.047100533 0.2522743
0.015176676 0.049280524 0.25257632
0.040144421 0.027716218 0.24899703
0.038952652 0.031703923 0.248384
0.035926729 0.03576152 0.24837279
0.031792711 0.038780581 0.24767706
0.02832634 0.042483144 0.24750483
0.024146559 0.045209453 0.24683812
0.039627049 0.03246421 0.24368489
0.036515944 0.036017261 0.24341941
0.031719252 0.038847387 0.24435955
0.028887901 0.041831393 0.24420536
0.025524093 0.0446252 0.24375597
0.015725192 6.3606538e-05 0.31674835
0.014934325 0.00011412334 0.31243688
0.01376058 0.0035018418 0.31243706
0.0024799625 0.016225735 0.31021211
-0.00027361233 0.017633393 0.31043139
0.015600203 0.0012984914 0.30755347
0.014634702 0.0045121047 0.30809018
0.01202668 0.0088504246 0.30821788
0.0083520459 0.01303512 0.30758893
0.004429765 0.016323511 0.30743551
-0.00016272347 0.01827744 0.30648875
-0.0037524891 0.019099506 0.30566388
0.018775122 0.0028417427 0.30292577
0.016995896 0.0065661315 0.30392712
0.013980474 0.010574447 0.30413198
0.009608849 0.014665713 0.30435732
0.0061291237 0.01775853 0.30398694
0.0024633622 0.020830695 0.30275336
-0.0014211573 0.022903828 0.30148038
-0.0042774519 0.024337918 0.29975146
0.023142245 0.0012306878 0.29797518
0.021879997 0.0049416665 0.2996386
0.019670608 0.0079585053 0.3004953
0.0005010711 0.026443914 0.2985878
-0.0032529049 0.027166689 0.29691711
0.02945764 -0.00041643903 0.29284412
0.02702396 0.0025911955 0.29504833
0.024131063 0.00601919 0.29756415
-0.0022728257 0.030497137 0.29365239
-0.0051934747 0.032395218 0.29077074
0.03138268 0.00031705946 0.29055232
0.030470449 0.0036973236 0.29200956
-0.00076299906 0.033228632 0.29156211
-0.0032305196 0.035011098 0.28817183
-0.0060380278 0.036727339 0.28636551
0.035719201 -0.00092158653 0.28534856
0.034210317 0.0013001692 0.28729337
-0.0013496447 0.037404925 0.28616169
-0.0050232224 0.039591644 0.28368828
0.038155839 7.5822696e-05 0.28171709
0.037075952 0.0033276174 0.28345364
-0.0030520428 0.042056337 0.28010777
-0.0068407319 0.042882945 0.27686629
0.041075729 0.0014721043 0.27823809
0.039716378 0.0047585797 0.27889654
-0.0017559696 0.044494562 0.2752561
-0.0057721492 0.044729576 0.27378291
0.04534401 -0.00064938329 0.27125067
0.043644622 0.0029391069 0.27422473
-0.00044055656 0.045669265 0.27079892
-0.0038834345 0.045971781 0.26974577
0.04697936 0.00086869486 0.26911098
0.045757856 0.0049635991 0.26994497
0.0015683156 0.04736957 0.26575392
-0.001645878 0.047167759 0.26474139
0.048510626 0.0020242911 0.26435861
0.047436982 0.0062904693 0.26532492
0.045608692 0.01011922 0.2646184
0.003454823 0.048736207 0.26155382
-0.00059943274 0.047996767 0.26132593
0.049699165 0.0029564109 0.26103351
0.048660345 0.007419493 0.26059875
0.046085343 0.011855448 0.26087964
0.0059845969 0.049897909 0.25721949
0.0022121668 0.050294798 0.25416353
0.048881408 0.0090670511 0.25614902
0.047149736 0.012580607 0.25662476
0.045718782 0.015830452 0.25672388
0.0075152069 0.050151121 0.25299203
0.003014544 0.050954662 0.25223517
0.048757091 0.0097090993 0.2530078
0.047322467 0.013095798 0.25246534
0.045361936 0.01728311 0.25143048
0.043567408 0.02163225 0.25052854
0.017384402 0.046867959 0.2488198
0.013035651 0.048308242 0.24837503
0.0091261975 0.049613949 0.2485154
0.044059977 0.018363131 0.24683243
0.043197516 0.022343446 0.24675152
0.041248444 0.026364628 0.24712828
0.038883198 0.030359689 0.24607724
0.022035329 0.046370268 0.24454179
0.018324748 0.046897583 0.2448079
0.01387207 0.048409589 0.24392435
0.01101427 0.050019927 0.24363422
0.043667525 0.023363663 0.24231821
0.042128667 0.027134284 0.24216565
0.040674761 0.031261139 0.24093467
0.036637258 0.035943743 0.24045387
0.031946592 0.038466461 0.24125239
0.027514057 0.041343018 0.24094638
0.023896871 0.04475183 0.24046701
0.019564979 0.046621166 0.2397444
0.015600042 0.048165277 0.24076396
0.04160548 0.02763884 0.23738676
0.039519578 0.031362146 0.236709
0.036460131 0.0355395 0.23689082
0.032239001 0.038518477 0.23613131
0.029266318 0.041217964 0.23581493
0.024988364 0.044677678 0.23520344
0.02226389 0.046136901 0.23538411
0.035454255 0.035330448 0.23302028
0.032234568 0.04051384 0.23216075
0.030464586 0.043006811 0.23224217
0.026220851 0.04469274 0.23239145
0.015798438 -0.0029964182 0.30587602
0.018048566 -0.0012018811 0.3026256
0.022179227 -0.0030274475 0.29785123
0.027271423 -0.0047531212 0.29320756
0.024925396 -0.0016827574 0.29565057
0.03108386 -0.0032585962 0.28939101
0.03475995 -0.0056326846 0.28461862
0.038689353 -0.0068410859 0.27980974
0.037933603 -0.0039689746 0.28094062
0.041251816 -0.0050389078 0.27603984
0.040917091 -0.0025418829 0.27790871
0.043752663 -0.0034243688 0.2725527
-0.006429337 0.046228606 0.26774225
0.046176687 -0.0031639747 0.26716504
-0.0053199138 0.046749257 0.26315105
-0.0080126282 0.047229171 0.26141346
0.047820382 -0.00096354075 0.26310149
-0.0028077606 0.048272915 0.25855491
-0.007122457 0.047943112 0.25869671
0.048732094 0.00059126876 0.25820059
0.049132667 0.0041906778 0.25791374
-0.00086614117 0.049745105 0.25458196
-0.0043331161 0.050246626 0.25229868
0.049142823 0.0016651191 0.25374973
0.049039632 0.0048602 0.25478917
0.00039411336 0.051050074 0.25012091
-0.0031750128 0.051207077 0.24977094
0.05000373 0.0023066606 0.2509934
0.048595347 0.0063930582 0.24958375
0.046941236 0.01097241 0.24880514
0.045460798 0.01431911 0.24823433
0.0069967546 0.050860163 0.24657845
0.0028951019 0.051953878 0.24616197
0.048503704 0.0080154724 0.2450957
0.046962846 0.01131773 0.2444818
0.045086443 0.015993107 0.24495491
0.01277462 0.048566408 0.24136931
0.0087646395 0.051473573 0.24218842
0.0045483857 0.052458514 0.24132967
0.047527824 0.012693785 0.23969704
0.045902338 0.016809221 0.24034417
0.044376977 0.020888424 0.23958921
0.025533935 0.040256541 0.2371971
0.018120952 0.047362268 0.23738018
0.014078233 0.048797112 0.23759684
0.010334617 0.051123746 0.23704323
0.0067304 0.05230958 0.23717776
0.047023792 0.0171769 0.23504606
0.044474594 0.0216984 0.23536366
0.041923791 0.025716923 0.23514935
0.026327642 0.04106719 0.23447871
0.01914097 0.046721321 0.23322502
0.014840305 0.04844445 0.23270506
0.047465593 0.01816717 0.23201108
0.044717014 0.02161698 0.23122078
0.041727137 0.02587666 0.23062265
0.038690444 0.030075936 0.22998235
0.035233214 0.03364215 0.22926259
0.032450076 0.036888655 0.22939929
0.027802311 0.042362578 0.22998545
0.024900634 0.044595469 0.22960621
0.020787537 0.047083639 0.22952729
0.016265439 0.049300142 0.22970197
0.038437963 0.030574383 0.22582072
0.035190582 0.03356079 0.22548604
0.033065647 0.035593845 0.22529656
0.043312602 -0.0072073378 0.27001145
0.044859197 -0.0081894174 0.26535642
0.044744447 -0.0059181824 0.26769066
0.046457462 -0.0082890261 0.25979644
0.046071157 -0.0051743817 0.26101643
-0.0094644055 0.048129838 0.25582933
0.048324935 -0.0073163863 0.25587314
0.047283664 -0.0038772989 0.25570294
-0.0077321474 0.049728028 0.25180706
0.048228756 -0.0024552569 0.25231135
-0.0063095279 0.050635032 0.24745116
0.049431562 0.00029236265 0.24755299
0.049312547 0.0040395427 0.24684393
-0.00089588948 0.051067241 0.24315485
-0.0033819694 0.050804503 0.24285862
0.049460117 0.0010197535 0.24361596
0.049212515 0.0052299146 0.24292743
0.0013391562 0.052156743 0.23910689
-0.0023781043 0.051569127 0.23850253
0.049646802 0.0071554314 0.23827207
0.048582755 0.01077594 0.23860058
0.0035308264 0.052190173 0.23432806
0.051517196 0.0089853648 0.23403385
0.049093526 0.012604907 0.23407775
0.048136342 0.015779186 0.23312369
0.013227772 0.048861194 0.23046365
0.0099615287 0.050539009 0.23077357
0.0065133739 0.051370263 0.23041847
0.051574431 0.0094573218 0.22977448
0.049622431 0.01280506 0.23014387
0.047181681 0.016596446 0.22932893
0.044607598 0.021290768 0.22851026
0.028729398 0.038629781 0.22619367
0.018393472 0.047116809 0.22644979
0.014016321 0.048076436 0.22628215
0.0098866019 0.049809515 0.22665763
0.042711914 0.020573681 0.2250171
0.040854912 0.02475087 0.22438025
0.039049216 0.029632695 0.22347203
0.035124537 0.033347402 0.22318786
0.031131363 0.035867289 0.22261578
0.029455308 0.038166363 0.22379312
0.022194855 0.042378753 0.22212124
0.019287016 0.044884507 0.22204277
0.015982408 0.047154833 0.22113055
0.040283523 0.025722571 0.21970335
0.039019041 0.029631602 0.21890074
0.035465028 0.033392552 0.21872103
0.031500932 0.035952229 0.21811238
0.029101191 0.037453569 0.21738157
0.023936966 0.042996615 0.21693486
0.021311481 0.045350585 0.21685451
0.038195435 0.030667286 0.21548969
0.036403947 0.033349842 0.21455547
0.032505631 0.037065245 0.21334088
0.030991696 0.039007388 0.21282211
0.049091898 -0.0081098173 0.25377199
0.048999902 -0.0074457228 0.25060335
0.048214719 -0.0040192828 0.24976426
-0.0089560337 0.049830806 0.2444059
0.048583455 -0.0074847993 0.2460385
0.048513487 -0.0037147589 0.24528039
-0.0071977805 0.050311394 0.24109298
0.048965376 -0.0015810244 0.24080813
-0.0055172276 0.051235683 0.23596802
-0.008519182 0.052947946 0.2355364
0.050082829 -0.0001597181 0.23584911
0.049762279 0.0028393492 0.23678073
0.00034687854 0.051827967 0.23215002
-0.0037181303 0.051822603 0.23104957
0.051817954 0.0014736149 0.231567
0.051394086 0.0046151951 0.23175582
0.003251981 0.050883368 0.22772771
-0.001102889 0.052096277 0.22672462
0.051731482 0.0055793785 0.22870329
0.046305887 0.011111101 0.22549513
0.045876428 0.012845427 0.22594672
0.011029854 0.047203012 0.22321773
0.0076694656 0.048537739 0.22290647
0.0033647604 0.050253533 0.2231538
0.044843301 0.013995806 0.22179788
0.043257862 0.018723715 0.22183132
0.040899456 0.023268195 0.22076777
0.023321737 0.036145613 0.21943507
0.0217056 0.038772173 0.22055277
0.017737783 0.045212746 0.22033346
0.012308715 0.047350988 0.21919227
0.0090337954 0.047882572 0.21886644
0.045485307 0.015930153 0.21661705
0.043641008 0.019411435 0.21710628
0.041418303 0.024351601 0.21776474
0.03263969 0.034615219 0.21618843
0.026137862 0.038672607 0.21650228
0.023560099 0.040382147 0.21770239
0.018703129 0.045907822 0.21588317
0.015536919 0.0473933 0.21518499
0.010467628 0.048363306 0.21481085
0.043451168 0.021556469 0.21309257
0.042399645 0.025288448 0.21361944
0.039545059 0.029362174 0.21353841
0.035955291 0.034113761 0.21177292
0.033266902 0.036360785 0.21226883
0.028560527 0.039964519 0.21227393
0.025022198 0.043505121 0.21181825
0.021319833 0.045919392 0.2115688
0.016703364 0.047285754 0.21056998
0.042686015 0.025665635 0.20851266
0.040151924 0.030021563 0.20836845
0.036870874 0.034044147 0.2075561
0.033692811 0.037160087 0.2073012
0.029675571 0.040742207 0.20710552
0.025916893 0.044072498 0.20639825
0.021917734 0.046433073 0.20633259
0.039625019 0.030237937 0.20386389
0.03664583 0.033962198 0.20324677
0.033818569 0.03699505 0.20257595
0.030202657 0.040865608 0.20249894
0.026218804 0.044142917 0.20222008
0.02423406 0.046363261 0.20217037
0.047807243 -0.0083252564 0.23837543
0.047921941 -0.0054879896 0.23814198
0.049012378 -0.0070425477 0.23293164
0.049121954 -0.0046428647 0.23383516
-0.0089004133 0.052440464 0.22923547
0.049981069 -0.0035220087 0.22861195
-0.0043929685 0.05283799 0.22491547
-0.0078291725 0.05399818 0.22405005
0.050650377 -0.00054932386 0.22568938
0.048339084 0.0033860598 0.22396725
0.046230033 0.0076975338 0.22419801
0.0030750018 0.049903587 0.22069123
-0.0014925078 0.051573668 0.221221
0.047144458 0.0045614671 0.2196421
0.046170741 0.0083505884 0.22010642
0.045224272 0.01167389 0.22006559
0.0234174 0.034033641 0.21695897
0.0066009127 0.048267033 0.21677309
0.0029547848 0.049242318 0.21642667
-0.00076409057 0.050318923 0.21655199
0.048165012 0.0056970567 0.21567452
0.04758355 0.0093682203 0.21506938
0.046089578 0.013277967 0.21588057
0.011937145 0.047600418 0.21259439
0.0084942989 0.048725694 0.21210876
0.0044073816 0.049457133 0.21190816
0.047653854 0.010568308 0.21150675
0.046133474 0.013981415 0.21096525
0.044149205 0.018148644 0.21144724
0.013571622 0.047606044 0.20900998
0.0098186657 0.048496895 0.20763117
0.04674039 0.015230814 0.20562708
0.044640288 0.019573048 0.20635486
0.043138873 0.024007212 0.20536643
0.020180296 0.046690401 0.20301408
0.016815761 0.047702469 0.20445782
0.01206951 0.047843158 0.20318124
0.047241457 0.016516184 0.20199028
0.045570672 0.020396054 0.20115322
0.042782865 0.024768166 0.20142382
0.040333994 0.028351627 0.20119989
0.037336893 0.03231322 0.20070332
0.03385371 0.036891289 0.2003071
0.030292401 0.040353216 0.20000991
0.026133467 0.043920245 0.19947207
0.021553705 0.046365187 0.19978592
0.017183671 0.047533996 0.19866174
0.042386997 0.024591763 0.19721666
0.040293876 0.028275084 0.19638702
0.03729089 0.032707687 0.19674909
0.033857595 0.036677349 0.19671798
0.030482508 0.04006929 0.19665626
0.0265886 0.043413687 0.19581804
0.022615777 0.046313539 0.19547725
0.018927494 0.04722932 0.19563162
0.040101781 0.029932117 0.1925621
0.038623311 0.033677667 0.191618
0.034883276 0.03716179 0.19177341
0.031179864 0.039757747 0.19191015
0.02713554 0.043444585 0.19185096
0.023621358 0.046328925 0.19222328
0.049579814 -0.0085269287 0.22785014
0.049288429 -0.0052510407 0.2259559
0.048175886 -0.00249427 0.2212882
0.047912583 -0.00052283704 0.22190115
-0.0049399901 0.050622955 0.21740478
-0.0085114259 0.052214086 0.21829855
0.048592664 -0.002368195 0.21804622
0.047864899 0.0012893677 0.21851003
0.00067716837 0.049498234 0.213424
-0.0029919334 0.050507277 0.21411166
0.050417904 -0.0017253123 0.21387929
0.049075004 0.0025983788 0.21356952
0.0025490932 0.049707856 0.20942214
-0.0018035099 0.05117593 0.20945907
-0.0082381126 0.053513356 0.21005711
0.047784552 0.0047776252 0.20992035
0.047761016 0.0086087063 0.20928842
0.007429773 0.049257062 0.20508349
0.0038210973 0.050048139 0.20547777
0.0008673463 0.051400311 0.20464414
0.04729487 0.0098172259 0.20507845
0.047673997 0.012918927 0.20515376
0.0098133329 0.048874386 0.20183691
0.0050421227 0.049779803 0.20102891
0.04820437 0.010954292 0.20111379
0.047776021 0.014425559 0.19943023
0.046841115 0.018001221 0.19887972
0.0156978 0.048353948 0.19631231
0.010857577 0.049099602 0.19676363
0.0064548161 0.050106086 0.19706261
0.046320222 0.015055954 0.19568482
0.044770285 0.019254988 0.19522524
0.042898197 0.02396803 0.1948283
0.020708218 0.046707101 0.19274503
0.016947111 0.047571704 0.19284248
0.012695935 0.048150625 0.192453
0.043614835 0.020575484 0.19131276
0.042848818 0.024028705 0.19058129
0.041463956 0.028814482 0.19089407
0.034213323 0.037564863 0.18843365
0.031054907 0.039768822 0.18899271
0.026844453 0.043014366 0.1888828
0.022356916 0.046327781 0.18934083
0.018109163 0.046965986 0.18841612
0.042894132 0.025231017 0.18695283
0.041390158 0.028580271 0.18523529
0.038517963 0.033150729 0.18514428
0.034960642 0.037036292 0.18502623
0.03087428 0.039543498 0.18472058
0.026714178 0.042647816 0.18422443
0.022695955 0.045677613 0.18388116
0.038115278 0.032686368 0.18082726
0.034327202 0.036165424 0.18078339
0.047592301 -0.0070275627 0.22065672
0.048190899 -0.0062615294 0.21641254
-0.0096495003 0.050291874 0.21170801
0.050149791 -0.0039724391 0.21185684
-0.0044830721 0.050670788 0.20542574
-0.0076322369 0.05120213 0.20726624
0.049343526 -0.003715178 0.20736808
0.047535181 0.0013028178 0.20671126
0.04669857 0.0054937266 0.20619106
-0.002734419 0.050648134 0.20314094
0.047352113 0.0027514677 0.20225102
0.046962142 0.0063338969 0.20276672
0.0025174953 0.050172556 0.19921827
-0.0009888839 0.050536804 0.19817346
0.047970235 0.0039059594 0.19821188
0.047798682 0.0076028444 0.19747153
0.0045757908 0.050328314 0.19393811
0.00075662136 0.050948374 0.19383869
0.04725581 0.0085365027 0.19291013
0.047040738 0.013154654 0.19326475
0.045112547 0.016785748 0.19226298
0.011049243 0.048591159 0.19007367
0.0068375878 0.049503643 0.18962067
0.04715341 0.013415489 0.18852821
0.044804212 0.018067677 0.18891838
0.015353085 0.047096491 0.18634045
0.011511395 0.048144013 0.18536288
0.0085762907 0.049565285 0.18542546
0.047412463 0.014542138 0.1847204
0.045226298 0.018723277 0.18435928
0.043199148 0.023617599 0.18390283
0.041714255 0.026555549 0.18216836
0.020831309 0.046280973 0.18107954
0.016953379 0.046850882 0.18210462
0.012250556 0.047654867 0.18194181
0.044755328 0.020163801 0.18038207
0.043225791 0.023872245 0.17922017
0.040983077 0.027718563 0.17870978
0.038230643 0.032267883 0.17824906
0.034344405 0.036015794 0.17804044
0.030754728 0.038879193 0.17837226
0.026948746 0.042546179 0.17804089
0.022733502 0.045814887 0.17733824
0.017814292 0.047221161 0.17664558
0.040440917 0.028313406 0.1744929
0.038395204 0.032299981 0.17397416
0.035014167 0.036421455 0.17405033
0.031507507 0.039327182 0.17354158
0.027838679 0.042513348 0.17325222
0.02367191 0.045692615 0.17218694
0.037262648 0.034161173 0.17059427
0.03487841 0.036572047 0.16998264
0.03209826 0.03863604 0.16992739
0.049394421 -0.0086975954 0.21253255
0.048147038 -0.004527159 0.20444733
-0.0056355577 0.049477048 0.20003462
-0.0091339648 0.049387913 0.199278
0.047315221 -0.0038166381 0.19975263
0.047583017 -0.00014926866 0.20042479
-0.0048918985 0.050025776 0.19616199
-0.0069673136 0.050183427 0.19526032
0.047958102 -0.0029043034 0.19640082
0.048157766 0.0010662097 0.19603023
-0.0028948151 0.050669868 0.19201398
-0.0059690122 0.051444702 0.19043228
0.048174571 0.0024009719 0.19146717
0.047301829 0.0061514154 0.19018283
0.0041599479 0.049719654 0.18739155
-0.00029713847 0.050306648 0.18751687
0.047454759 0.0073201302 0.18620756
0.047561809 0.011151703 0.18578261
0.0058036577 0.049351811 0.18310836
0.0014523193 0.049160566 0.18273228
0.047859564 0.0083593559 0.18162441
0.047673002 0.012414241 0.18216816
0.046152584 0.015906541 0.18168208
0.011547308 0.04823808 0.17953271
0.0080869365 0.049714848 0.17933303
0.047342509 0.012689102 0.17753515
0.045227371 0.017459743 0.1775535
0.042988852 0.021646881 0.17593056
0.016768403 0.048380002 0.17366961
0.01222224 0.048159018 0.17457733
0.0089189224 0.049477894 0.17477018
0.044953234 0.018082684 0.17243156
0.042873211 0.022682754 0.1720905
0.041000437 0.026566524 0.17221594
0.018458279 0.047743127 0.17062232
0.014004678 0.048773304 0.16974512
0.044790715 0.019986548 0.16825631
0.042876363 0.023060694 0.16740656
0.040537484 0.026464036 0.16709396
0.038044807 0.030909795 0.16776389
0.035313573 0.035226088 0.16704741
0.030953143 0.038729083 0.16705519
0.027343059 0.041288704 0.16685975
0.023178756 0.044657774 0.16621712
0.01796416 0.047102481 0.16646677
0.04116638 0.026866473 0.16393912
0.03807776 0.030650262 0.16329262
0.034757748 0.034695454 0.1624437
0.030934364 0.038112707 0.16182664
0.027783288 0.040609241 0.16204664
0.023562279 0.043784674 0.16238475
0.047324557 -0.0090333857 0.20143571
0.046741847 -0.0074139498 0.19763395
0.048105709 -0.0043394919 0.19375432
-0.009252131 0.051258378 0.18962267
0.04812232 -0.004083164 0.19003367
0.047552228 -0.00069142319 0.18902969
-0.0037315749 0.048633311 0.18363738
-0.0066989698 0.050720762 0.18538001
0.047997087 0.00071227737 0.18450704
0.047858387 0.0047265477 0.184181
0.003457509 0.048822116 0.17995897
-0.0010117721 0.048621781 0.18029752
0.048235506 0.002510393 0.17983258
0.048242882 0.0056228135 0.17986035
0.0044020712 0.049040299 0.17644402
0.001166245 0.049185582 0.17583263
0.048422869 0.0070417076 0.1756897
0.048225373 0.010930175 0.1751911
0.0061329342 0.048914388 0.17225623
0.04783605 0.0079646874 0.17100739
0.047421958 0.011998776 0.17160821
0.046305943 0.016038012 0.17059499
0.011075135 0.048613232 0.16821405
0.0074469373 0.048701011 0.16771764
0.046883631 0.012230188 0.16778767
0.045522675 0.01807793 0.16574323
0.043870263 0.021748586 0.16551381
0.017512362 0.046541993 0.163257
0.012783773 0.048164025 0.16317061
0.0086340159 0.048826382 0.16434342
0.045589939 0.018810526 0.16143703
0.043884873 0.022929341 0.1617648
0.041151099 0.026679955 0.16149503
0.038597766 0.030031888 0.160815
0.036485117 0.032762658 0.16047961
0.026683236 0.041362852 0.16016805
0.02352244 0.043627854 0.1599406
0.018330365 0.045735791 0.15934929
0.014262965 0.047542185 0.15929338
0.04349231 0.022753432 0.1573481
0.041071579 0.026529944 0.15662602
0.038702987 0.030412957 0.15690303
0.035304043 0.034601983 0.15701449
0.031181552 0.038042538 0.15641701
0.027789861 0.04114148 0.15604579
0.02386616 0.043718077 0.15516615
0.020150833 0.044455484 0.15542269
0.038404983 0.030374039 0.15257841
0.035478804 0.034027163 0.15236753
0.03087718 0.038038984 0.15210631
0.027901432 0.041003436 0.15142772
0.024725942 0.043303028 0.15173402
0.047939733 -0.0077434424 0.1870479
-0.0093974993 0.049690727 0.18196717
0.048605807 -0.0057495441 0.1829631
0.048190437 -0.0018262099 0.18164837
-0.0046186652 0.04766956 0.17830092
-0.0082092583 0.048290573 0.17825523
0.049107112 -0.0047180522 0.17817146
0.048546921 -0.00022893399 0.17767867
-0.0031066984 0.048177864 0.17318237
-0.0067096148 0.047749348 0.17459759
0.048765574 0.00049389154 0.17310131
0.048185948 0.0039971583 0.17223802
0.0032280665 0.048252031 0.16963261
-0.00062877499 0.04863555 0.1690332
0.04851535 0.0017905384 0.16871551
0.048157535 0.0052526351 0.16883367
0.0043752603 0.048623137 0.16533101
0.00075062178 0.048936971 0.16411525
0.048063908 0.0061554834 0.16453618
0.046533279 0.010166455 0.16435987
0.045021925 0.013370845 0.16459215
0.010370668 0.048180658 0.16035175
0.0067402162 0.049060188 0.16104391
0.0025499705 0.049435973 0.16155106
0.047948658 0.0071800109 0.16061711
0.04661056 0.010719351 0.15963453
0.045421064 0.014571181 0.15887183
0.017054416 0.045811065 0.15627596
0.011986433 0.047670074 0.15611279
0.0078144316 0.049327254 0.15586585
0.04557886 0.017102435 0.15470737
0.043797709 0.021876521 0.15462106
0.041923739 0.024766229 0.15420285
0.017963186 0.045456022 0.15288985
0.013325114 0.047399811 0.1513592
0.0089574605 0.049703363 0.15198708
0.045565501 0.018827299 0.15017977
0.043803807 0.021992903 0.1502234
0.041012164 0.025769096 0.15047053
0.038704704 0.029516961 0.14984521
0.034722488 0.034221407 0.14951938
0.031195866 0.037232149 0.14940685
0.028086826 0.041037969 0.14876059
0.023709331 0.043567155 0.14893866
0.019205654 0.045078911 0.1480307
0.015524797 0.04683492 0.14791036
0.044340141 0.022505684 0.14567921
0.041681521 0.026075356 0.145374
0.038824528 0.029783709 0.14556143
0.035198983 0.033792708 0.14548069
0.031399392 0.037616238 0.14522365
0.028337654 0.041087728 0.14519477
0.024402965 0.043691169 0.1443074
0.021248151 0.044913296 0.14319971
0.041640703 0.026887964 0.14198506
0.038973317 0.029685244 0.14185682
0.035860017 0.033459075 0.14131713
0.032255799 0.037926286 0.14042088
0.028949775 0.041397698 0.14005575
0.025049414 0.043576274 0.14039055
0.049461681 -0.0078028105 0.17576206
-0.0078526922 0.048896559 0.17152876
0.048988465 -0.0057511926 0.17096537
0.048639216 -0.0024747625 0.16972381
-0.0032431055 0.048506968 0.16562581
-0.0065881182 0.049429633 0.16643056
0.048900247 -0.0048004836 0.16609943
0.048687644 -0.00082678162 0.16676497
-0.0019457601 0.049590915 0.16305095
-0.0054793209 0.050541636 0.1616956
0.048495363 0.00025479868 0.16195711
0.048274077 0.0039016102 0.16182113
0.00035282038 0.049694031 0.15848014
-0.0046146568 0.051226623 0.15872473
0.048685763 0.0010208823 0.15830332
0.048319604 0.0051048137 0.1580449
0.04713618 0.0097431857 0.15700555
0.0050612427 0.049382959 0.15448472
0.001286108 0.049525626 0.15381458
0.048172705 0.0058627576 0.15309191
0.047249019 0.010258166 0.15295345
0.046366397 0.013758779 0.15250802
0.010773348 0.048125774 0.14943376
0.0073171221 0.049462099 0.14943951
0.0026876722 0.049183041 0.15039289
0.047430113 0.010340827 0.14792573
0.046076342 0.015039369 0.14803585
0.017467018 0.045712877 0.14531124
0.013274813 0.047936574 0.14557487
0.0084920451 0.049810953 0.14503986
0.047502991 0.011991248 0.14388674
0.045989413 0.016424589 0.14360839
0.044906568 0.02147067 0.14309889
0.018177591 0.045157149 0.14168814
0.01461087 0.047095574 0.14069089
0.010966917 0.048667669 0.14073992
0.04490054 0.017890591 0.13956666
0.043653406 0.021776877 0.13944063
0.041580349 0.025199054 0.13875473
0.03906364 0.029587671 0.1390447
0.035794429 0.03340859 0.13860086
0.033508983 0.036017891 0.1381208
0.024228251 0.043615192 0.1374357
0.019818746 0.044585854 0.13741204
0.015334204 0.046554565 0.13706368
0.040645599 0.025759965 0.13465175
0.038732626 0.029216774 0.13421503
0.035752565 0.032538138 0.13392881
0.032446485 0.036918547 0.13420084
0.029217297 0.04135979 0.13454348
0.025161667 0.043876298 0.13353592
0.022239886 0.045350172 0.13265097
0.038096234 0.030247405 0.13033211
0.03605669 0.032610975 0.1303423
0.032099586 0.036343437 0.12995797
0.028592909 0.040488221 0.12925449
0.024933113 0.044109657 0.12815666
0.02260807 0.045531496 0.12914768
0.049030352 -0.0082023628 0.16471472
0.048232585 -0.0034797136 0.16355428
0.048894711 -0.0059994198 0.15954921
0.048405141 -0.0031021684 0.15962461
-0.0059466027 0.049922623 0.15470549
-0.0093712788 0.052543394 0.15530774
0.048959997 -0.0011997782 0.15560892
0.048413396 0.0027058441 0.15517882
-0.0011896491 0.049908202 0.15152466
-0.0055643823 0.050142936 0.15056354
-0.0085196309 0.052502818 0.14985853
0.049396835 0.00021160953 0.15121445
0.048797831 0.0033333525 0.15144977
0.00088388659 0.049820036 0.14764532
-0.0040468648 0.050677545 0.1463466
-0.0080502909 0.054070689 0.14610419
0.048834264 0.0049687121 0.14727771
0.048035771 0.0089305844 0.14528218
0.0063437186 0.050122604 0.14241666
0.0018512569 0.050277565 0.14295852
0.049239226 0.0060360301 0.14246359
0.047991827 0.0097352769 0.14099297
0.046579819 0.014124118 0.14060938
0.008905204 0.049305491 0.13841981
0.0045043677 0.049992263 0.13819078
0.047629796 0.010481855 0.13759938
0.046119019 0.014458729 0.13673693
0.0440109 0.018520022 0.136361
0.017904155 0.044591695 0.13469398
0.014376214 0.04691609 0.13429117
0.010363193 0.049257904 0.13377324
0.0063089691 0.050479524 0.13344049
0.045898236 0.016064458 0.13167322
0.044125825 0.019893974 0.13251445
0.041584868 0.024353113 0.13260415
0.039530698 0.027374299 0.13165098
0.019170631 0.045609493 0.13111621
0.015622227 0.047590964 0.1301305
0.01163605 0.048970945 0.1290074
0.044413522 0.020679759 0.1280452
0.041915677 0.02509444 0.12806505
0.039012264 0.028527047 0.12787437
0.035953101 0.032366518 0.12803119
0.032341555 0.036421955 0.12727612
0.028857926 0.040615167 0.12689453
0.026041549 0.04297189 0.12727031
0.020997196 0.046304747 0.12649855
0.016535042 0.047533393 0.12552208
0.044115834 0.022596976 0.12425876
0.04193962 0.025244731 0.12356624
0.038882848 0.028965067 0.12279537
0.036489535 0.032571618 0.12293816
0.033143856 0.03702677 0.12294436
0.0299685 0.041093782 0.12226897
0.026186112 0.044080693 0.12241462
0.022011057 0.046072289 0.12209165
0.036287516 0.033577204 0.1188401
0.034361336 0.036746379 0.1180293
0.031098876 0.041022558 0.11701524
0.026477486 0.043899655 0.11750764
0.049221527 -0.0090104006 0.15825555
0.048884735 -0.0080870036 0.15278447
0.048823021 -0.0039000418 0.15248016
-0.0059065297 0.04976631 0.14811736
0.048507325 -0.0068288166 0.14914453
0.048752423 -0.0035568401 0.14883479
-0.0061031673 0.05085545 0.1434837
-0.0074644201 0.052494533 0.14570683
0.048767276 -0.0010432191 0.14468062
0.049040191 0.0023636222 0.14409244
-0.003430957 0.050502576 0.1406875
0.04862836 -0.00073740073 0.13962919
0.049023535 0.0025380738 0.13990405
0.0014027059 0.049655505 0.1363073
-0.0018038061 0.0499001 0.13520515
0.04842462 0.003997039 0.13566333
0.047371835 0.0088625941 0.13481373
0.0038363338 0.050188508 0.13153678
-0.00068739615 0.049744219 0.13191801
0.047665156 0.0087725073 0.13016075
0.046540737 0.013289157 0.13071698
0.0093153846 0.049642913 0.12721154
0.0055324826 0.050255358 0.12689209
0.048304792 0.0096544586 0.12613282
0.046561584 0.013997873 0.12532341
0.045062892 0.018625297 0.1252721
0.014799433 0.047951661 0.12286165
0.010493776 0.048684023 0.12237537
0.0048208386 0.050204821 0.12361065
0.046420649 0.015028862 0.12125474
0.044701464 0.019299114 0.12090141
0.042245246 0.024354026 0.12071663
0.039894082 0.027027108 0.12118769
0.019353317 0.045573063 0.11846697
0.01546842 0.046960674 0.1182729
0.012022017 0.048044071 0.11785984
0.044047814 0.020321045 0.11687201
0.042011324 0.024361532 0.11625481
0.039195381 0.028233424 0.1165728
0.036852203 0.031786636 0.11635721
0.035242978 0.035295505 0.11588967
0.02489442 0.04415619 0.11508179
0.020669879 0.044930592 0.11462945
0.017307578 0.046345711 0.11417204
0.041810181 0.02535234 0.11211318
0.03994846 0.02862994 0.11138779
0.037052479 0.032416824 0.11162543
0.034364823 0.036403779 0.11207849
0.030369608 0.040256113 0.11155355
0.025648916 0.043209091 0.11052853
0.02241572 0.044477902 0.11030549
0.033379629 0.036288776 0.10758716
0.030478815 0.038945641 0.10726392
0.048302285 -0.0095569398 0.14688545
0.047123745 -0.0063975025 0.14484
0.047192231 -0.0089060348 0.14185336
0.047566421 -0.0050676465 0.14187071
-0.0056250803 0.049693149 0.13690558
-0.0093919393 0.048990592 0.1374771
0.04794921 -0.003190523 0.13720378
-0.0050775297 0.049537145 0.13284025
-0.0092627313 0.050120309 0.13214383
0.048891291 -0.0010724887 0.13293588
0.048678882 0.0017409697 0.13284826
-0.0030391365 0.049913932 0.12859681
0.049163591 -0.0011270568 0.1292195
0.048657525 0.0028846152 0.12889695
0.002207594 0.050011255 0.12498516
-0.0020192806 0.049023718 0.12449178
0.049361587 0.0040011257 0.12467334
0.048486345 0.0085123777 0.12376678
0.0082092118 0.04886993 0.11905354
0.0040243026 0.049684525 0.12045985
0.047873311 0.0084740762 0.11955225
0.046934597 0.013096677 0.11867791
0.010064412 0.048925497 0.11596423
0.0059409086 0.049736172 0.11573988
0.047533154 0.0097298287 0.11609286
0.046382289 0.013677306 0.11413103
0.044852085 0.018413959 0.11421251
0.018909499 0.045581669 0.11178964
0.015356924 0.047220442 0.11226696
0.011275858 0.049246006 0.11125654
0.0072100088 0.049814001 0.11121446
0.046337184 0.014820844 0.11012393
0.044575918 0.019084115 0.10967207
0.042818107 0.023986161 0.11006409
0.020335749 0.045214571 0.10824925
0.016363993 0.047333464 0.10733533
0.012673089 0.0489472 0.1073541
0.041732039 0.02403466 0.10492229
0.039864 0.028142381 0.10525864
0.036786843 0.031768043 0.10531908
0.034127269 0.035457429 0.10509205
0.030483803 0.038787998 0.10426432
0.025932174 0.042088035 0.1042971
0.020690585 0.044190273 0.1038332
0.017527334 0.046093501 0.10347503
0.039831266 0.027807258 0.10066718
0.036556348 0.031954452 0.10006195
0.034168575 0.035504293 0.09982866
0.030486064 0.038518108 0.099235058
0.026373062 0.041805867 0.099655509
0.046434816 -0.0076522976 0.13916051
0.047000371 -0.006918801 0.13452479
0.048291914 -0.0088810679 0.12997946
0.048020266 -0.0056652129 0.13035348
-0.0088229738 0.050771732 0.12615338
0.04872258 -0.0036984477 0.1262418
-0.0042658541 0.049042583 0.12136519
-0.0093038008 0.050912097 0.12081808
-0.010010887 0.053869318 0.12310526
0.048099477 -0.0028891414 0.12202531
0.048912581 0.00093120709 0.12104088
-0.0019796137 0.049198836 0.1175161
0.048513591 0.0034957882 0.11800289
0.048352458 0.0061610341 0.11773664
0.0024343543 0.049871486 0.11443049
-0.00012688525 0.049651541 0.11291808
0.04861581 0.0037233271 0.11281151
0.048156567 0.0075678062 0.11320078
0.046751387 0.011990529 0.11189365
0.004238585 0.049806736 0.1092816
0.00025847182 0.049885403 0.10934395
0.048324615 0.0082656238 0.10829669
0.047177784 0.012978243 0.10822397
0.045282729 0.016869541 0.10663384
0.010553997 0.048881318 0.10482806
0.0062739216 0.049609847 0.10512853
0.048495539 0.0097924564 0.1049425
0.04718145 0.012884127 0.10344034
0.044162244 0.018181626 0.10312146
0.042371366 0.022260744 0.1024403
0.019639045 0.044035651 0.1005128
0.015135493 0.045914467 0.10039294
0.0098136142 0.047528941 0.10112572
0.046694167 0.014413875 0.10031849
0.044312008 0.018382356 0.098484457
0.042207293 0.023295904 0.098276913
0.039898064 0.027696459 0.097994864
0.0374697 0.030495718 0.097883403
0.026529633 0.04116495 0.096331894
0.021321792 0.043543134 0.096506894
0.016658455 0.044972882 0.096029997
0.042471439 0.023219906 0.093451083
0.039881714 0.027355401 0.093070984
0.037245613 0.03148983 0.093656003
0.034258783 0.035243563 0.09384197
0.030540392 0.038244277 0.093217373
0.026716933 0.041148089 0.092481673
0.023372281 0.043420944 0.091702521
0.039804 0.028499437 0.088985741
0.037816182 0.03170336 0.088151932
0.034478385 0.03511348 0.087958992
0.03072425 0.037713043 0.088295639
0.026079014 0.041430712 0.088290989
0.023207765 0.044184458 0.088032126
0.037394021 0.033306811 0.084754884
0.035645179 0.034932584 0.084570169
0.048880145 -0.0087814685 0.12453336
0.048693605 -0.0055500679 0.12400535
-0.0086985826 0.049261551 0.11843324
0.04785876 -0.0050691757 0.11989552
-0.0054247342 0.049257793 0.1156711
-0.0083998553 0.050583877 0.11492443
0.047632456 -0.0039770864 0.1154092
0.047193609 -0.0010383409 0.11461884
-0.0035467073 0.049734596 0.11107844
-0.00748997 0.050920106 0.11003989
0.047927871 0.0010115299 0.10964578
-0.0021973923 0.049984753 0.10582745
-0.0058409553 0.050730802 0.10539466
0.049092829 0.003639536 0.10617334
0.04912854 0.0059887487 0.10636711
0.0033681821 0.049794756 0.10270572
-0.00024581142 0.050051503 0.10168892
0.049603328 0.0038583484 0.10262769
0.04856059 0.0073083453 0.10177481
0.047887169 0.01115736 0.10134
0.0090060737 0.047105879 0.097961843
0.0049331859 0.048733659 0.098302543
0.048054315 0.0079374369 0.09718436
0.047013104 0.011915525 0.097019255
0.045466371 0.015949845 0.097096264
0.013765944 0.045517728 0.095139742
0.010156047 0.046844192 0.093738794
0.006158594 0.048262343 0.094148338
0.046586137 0.012965251 0.09292233
0.045293022 0.016965628 0.092885256
0.043222144 0.022026991 0.09149164
0.020492254 0.043934092 0.090292156
0.016671276 0.04475034 0.090477645
0.01244347 0.046011508 0.089070737
0.045341209 0.017390244 0.087819874
0.043209035 0.02240568 0.087498128
0.040666293 0.02695832 0.08670181
0.030205991 0.038058247 0.085482359
0.0267177 0.040490925 0.085618436
0.022862252 0.043738451 0.085357726
0.01782468 0.044896066 0.085913837
0.043754686 0.022291873 0.082578838
0.040482648 0.027543372 0.082139552
0.038317055 0.031537637 0.08212626
0.035008974 0.035592474 0.081969798
0.031157725 0.038205959 0.08162719
0.02690313 0.040718287 0.080420315
0.022914443 0.043563697 0.080549181
0.019114166 0.044455841 0.081776977
0.043273259 0.024162795 0.079441607
0.040888276 0.027395774 0.07871902
0.03841009 0.031680875 0.078498304
0.035046987 0.035341196 0.076987147
0.031887848 0.038339172 0.076361716
0.028572379 0.040404052 0.075723529
0.023854963 0.04322394 0.07791847
0.04735852 -0.0074439403 0.11332345
0.046936385 -0.0027183555 0.11171031
0.050294802 -0.0088064577 0.10865903
0.048638858 -0.0058226343 0.1091854
0.047689766 -0.00223043 0.10842925
-0.0091856103 0.050282158 0.10352188
0.050992399 -0.0083935652 0.10529453
0.049383081 -0.0046632532 0.10489714
0.048165374 -0.00075202622 0.10389048
-0.003106989 0.050316516 0.099325776
-0.007134933 0.050701708 0.099333644
0.047714595 -0.00069506466 0.099303722
0.048479669 0.004644664 0.098423064
0.0026911497 0.048753712 0.095062435
-0.0013615116 0.04986503 0.094885528
-0.0066162236 0.05086055 0.096134245
0.048149452 0.0054658912 0.094006598
0.0051471293 0.048486337 0.091411769
0.00075491704 0.049292862 0.089984238
-0.0035154782 0.050265267 0.091624081
0.048669949 0.0075913705 0.090061128
0.047359649 0.011270914 0.090514004
0.010325743 0.046940021 0.087420762
0.0062478166 0.048064463 0.086131036
0.049183302 0.0081607755 0.08597821
0.047844023 0.012158254 0.085917473
0.046310626 0.015922483 0.085629821
0.015818659 0.045091376 0.08284086
0.011956396 0.046621569 0.082704008
0.0080676712 0.04814063 0.08255285
0.048537459 0.013132989 0.081091523
0.046677858 0.017533876 0.082003832
0.017387711 0.045192011 0.078882515
0.013478478 0.046520002 0.077918947
0.048376948 0.014311599 0.077292383
0.047238532 0.018056292 0.077144802
0.044494394 0.02247737 0.076862156
0.040860303 0.026610987 0.075768352
0.037869487 0.030988602 0.075795293
0.02662215 0.041669901 0.07539475
0.022930821 0.043635406 0.074994266
0.018475302 0.04508847 0.073965073
0.044011198 0.022159858 0.072765768
0.04084504 0.0266206 0.071437061
0.038257286 0.031134211 0.072065353
0.035649262 0.035053842 0.07233572
0.031797286 0.038587023 0.071575701
0.027837534 0.041403163 0.071017146
0.023554727 0.043373205 0.07031852
0.040210247 0.02825992 0.067645311
0.038890768 0.031774152 0.067286551
0.036090389 0.035446212 0.066985846
0.032358255 0.03825162 0.066483736
0.028569223 0.040826492 0.065991223
0.038661167 0.033230565 0.063281238
0.036734357 0.035804495 0.062482238
0.034257844 0.037874125 0.062091172
0.049264528 -0.007440526 0.10148758
0.048400626 -0.0064898822 0.098316729
0.046610907 -0.0036962293 0.095860064
-0.0073892102 0.050741963 0.093251228
-0.010193415 0.052109383 0.092343926
0.046581335 -0.0010322239 0.092904806
-0.001695741 0.049636684 0.088353693
-0.006202504 0.049935929 0.088261545
-0.0093518458 0.052184928 0.088593185
0.047609031 0.00052216277 0.087855875
0.047829576 0.0031131506 0.088295758
-0.00059602782 0.048602045 0.084200382
-0.0040212814 0.049622819 0.085006535
0.048568018 0.0012413766 0.084749997
0.048499469 0.0047663078 0.083295405
0.0061480291 0.048307888 0.080177367
0.0017254297 0.04866416 0.080295384
0.048655033 0.0071042366 0.07975024
0.048546329 0.0099464133 0.078133225
0.010647262 0.046781614 0.075473249
0.0067073535 0.048114903 0.075695753
0.049007863 0.0078699831 0.075291514
0.048479199 0.011440888 0.074623883
0.046385977 0.015385285 0.07261771
0.01584002 0.045357876 0.071230948
0.012311514 0.046185527 0.071155071
0.0075004641 0.048131607 0.071273923
0.046616204 0.012037961 0.07097888
0.045772348 0.016163372 0.069813967
0.04383653 0.020563181 0.06875807
0.04192796 0.024354029 0.068620265
0.022256058 0.043421295 0.066948771
0.017579593 0.044580854 0.066778481
0.013342889 0.045814596 0.066925108
0.044803854 0.016769148 0.066287518
0.043168351 0.021151029 0.064926803
0.041054137 0.025158642 0.064255774
0.039048322 0.030273376 0.063949645
0.030649755 0.038969759 0.063538134
0.026640069 0.041070189 0.062907636
0.022869833 0.042702064 0.062852204
0.018200783 0.043876968 0.062692344
0.041524082 0.025637932 0.059868574
0.038873807 0.030685432 0.059715509
0.035592835 0.03444216 0.057959259
0.031924386 0.038381618 0.059615374
0.027883181 0.040547449 0.058605731
0.023787821 0.043315105 0.057599723
0.037963666 0.032054134 0.055024505
0.035776112 0.033896502 0.055199862
0.032429472 0.037517607 0.054814637
0.028812654 0.0406655 0.054618776
0.025333218 0.043507844 0.054545522
0.047593504 -0.0082729403 0.094477534
0.047580451 -0.0078541841 0.09066093
0.046869811 -0.0040887371 0.090633452
-0.007604206 0.049681172 0.084989607
-0.010102909 0.052164115 0.085478485
0.047425043 -0.0068658665 0.086022913
0.047446489 -0.003335515 0.085802734
-0.0066327155 0.049630508 0.081237733
-0.010124981 0.052349042 0.082067251
0.048217122 -0.00084777176 0.081046343
-0.0012061 0.048887588 0.077792108
-0.0049334206 0.049112588 0.076647043
0.047920149 -0.00013582408 0.076566696
0.047957987 0.0032065995 0.076902628
0.00071407296 0.049168825 0.073386192
-0.0033820886 0.04982648 0.072333574
0.048306562 0.0051267091 0.07190305
0.0059917886 0.048322268 0.068948567
0.0018716957 0.049333602 0.068727493
0.047324054 0.0055466387 0.067957342
0.047100917 0.009988172 0.068136513
0.046106175 0.013554202 0.067396581
0.011072543 0.046462372 0.065495431
0.00684545 0.047562502 0.064203382
0.045928009 0.010776443 0.063749015
0.04512129 0.014554432 0.06323719
0.043501072 0.019225493 0.0627231
0.017405439 0.044730477 0.06113261
0.012830488 0.046575073 0.060882688
0.0093736146 0.047802463 0.060472548
0.045766994 0.015487127 0.058254659
0.043896049 0.019623883 0.058811545
0.042219177 0.02498102 0.056851208
0.040176839 0.027538398 0.056995451
0.01832772 0.044862039 0.057144344
0.014098879 0.046915174 0.055963814
0.043863129 0.020296093 0.053910315
0.042308234 0.024859346 0.053742588
0.039283182 0.029461022 0.053376555
0.035551988 0.034092814 0.052589715
0.031620599 0.037578538 0.051558077
0.028226355 0.040966041 0.051634192
0.024593085 0.04411336 0.051766813
0.019414637 0.045650911 0.052056909
0.014975643 0.047096461 0.052175343
0.042854186 0.025393445 0.049458623
0.039759643 0.029646099 0.048944533
0.03514757 0.033788405 0.048467517
0.032102142 0.037287835 0.04807055
0.02901889 0.04109804 0.048268139
0.025625734 0.044590659 0.048093617
0.021255381 0.045828573 0.047499001
0.039468139 0.030161232 0.044751287
0.036395926 0.033789616 0.044499695
0.03266456 0.037075996 0.044665813
0.029302038 0.040617391 0.044538677
0.02549177 0.044284862 0.044200182
0.046324071 -0.0085152276 0.080489814
0.046931695 -0.0056282058 0.079263151
-0.0086854473 0.048800565 0.074469864
0.047114257 -0.0046594851 0.074767828
-0.0071748141 0.048939727 0.070325673
0.047258645 -0.0023015309 0.070343792
0.047856756 0.0016055219 0.070289791
-0.00027585216 0.049489968 0.065485537
-0.0035606734 0.049481604 0.065916657
0.047647618 0.0028600674 0.065490603
0.046623796 0.0068549886 0.064124405
0.0051459726 0.048391484 0.061313927
0.00042729639 0.04820966 0.061020613
-0.0037961677 0.049173739 0.062532246
0.04686866 0.0038038213 0.061950803
0.04586637 0.0081327576 0.060571611
0.04561542 0.012520337 0.060381472
0.0063008275 0.047728144 0.05724144
0.0011793114 0.048354194 0.057522416
0.046066999 0.0093801282 0.05605787
0.046646245 0.013240043 0.056239426
0.01200738 0.047754571 0.053809643
0.0078386776 0.048031013 0.053026438
0.046318181 0.014888566 0.051756084
0.04433699 0.018255295 0.051003039
0.013614744 0.046822488 0.048760235
0.0087860394 0.047575168 0.048612237
0.046751462 0.015265515 0.046579421
0.044413261 0.019576952 0.046925843
0.043706287 0.023459774 0.046571553
0.01818821 0.04586935 0.044661999
0.013746291 0.046437383 0.04391408
0.010135746 0.047951713 0.045487702
0.045180544 0.020261714 0.041781127
0.043064952 0.024865232 0.042781174
0.040192787 0.027949814 0.041869938
0.036797438 0.032347415 0.040954173
0.031853333 0.036276795 0.040740907
0.027923685 0.040126871 0.040569365
0.02456414 0.043232858 0.040198505
0.019656198 0.045041494 0.039969623
0.045246683 0.022036627 0.03731662
0.043382827 0.024764832 0.036631167
0.040166568 0.028510537 0.036716521
0.036719035 0.032023992 0.036784351
0.032887023 0.035589214 0.036321104
0.028759167 0.039390519 0.035454094
0.025202803 0.04298085 0.035725057
0.040801521 0.028902877 0.033135116
0.030253313 0.039204776 0.032282531
0.026117433 0.043176871 0.031909585
0.04717911 -0.0060171485 0.072051585
-0.0093294159 0.048764281 0.067258
0.048602916 -0.0085207596 0.06746912
0.047845513 -0.0050675571 0.068316877
-0.0083294027 0.0484575 0.06357342
0.048558481 -0.0077134669 0.063731968
0.047589447 -0.0031283163 0.064199448
-0.0063933786 0.048408896 0.059027553
0.046994105 0.0016525462 0.059077382
-0.00034581497 0.048526488 0.05517292
-0.0044012442 0.048402302 0.054518104
0.046241883 0.0032636374 0.05366689
0.046112474 0.0061528198 0.054638743
0.0016800631 0.048717029 0.051407456
0.046318643 0.0081504248 0.050127983
0.0067568775 0.048494861 0.047446072
0.0028569158 0.048911296 0.046100676
0.047061421 0.0095542707 0.045505583
0.01213187 0.047434691 0.04226476
0.008404823 0.048765942 0.042508006
0.0042459127 0.049123712 0.041422427
0.047076926 0.0101751 0.041239321
0.047242366 0.014753537 0.041549027
0.013873829 0.046944074 0.03862673
0.010424221 0.048837364 0.038199127
0.0070763007 0.049349394 0.038064182
0.046248026 0.015364006 0.035733521
0.046294212 0.019950012 0.036794722
0.036641747 0.031798162 0.034237623
0.023271035 0.043967936 0.033701599
0.019319065 0.044828184 0.034830868
0.015493569 0.045724139 0.033609092
0.045893151 0.0204443 0.031961262
0.04390981 0.024958141 0.031804621
0.041235179 0.029220866 0.031485379
0.036781486 0.031749118 0.031129658
0.033444516 0.03537783 0.031073391
0.029690865 0.039716732 0.03063041
0.025800996 0.042785242 0.029893935
0.021245744 0.044158157 0.029868603
0.017831694 0.045491587 0.030032098
0.043285511 0.024632193 0.027500927
0.041170683 0.028874088 0.027001083
0.036596876 0.031606499 0.026230156
0.033498317 0.034234956 0.025990963
0.029428406 0.038147323 0.026902199
0.025511298 0.041210447 0.026142895
0.041178677 0.028602425 0.022589087
0.038746826 0.03373041 0.021573603
0.035857841 0.035693765 0.022562444
0.047027763 -0.0060064048 0.060608983
-0.0080753621 0.048128605 0.056658924
0.047469422 -0.0093644541 0.058044732
0.047039524 -0.005446652 0.057197332
0.046498504 -0.0010369755 0.055666029
-0.0062042475 0.04820215 0.052280188
0.047140919 -0.0042416658 0.052234471
0.046515904 0.00013905205 0.052555203
-0.0044763479 0.048467882 0.048105657
-0.0087635666 0.048780736 0.048950016
0.047829583 -0.0026831441 0.048259795
0.04708242 0.0012727417 0.047866702
0.046384841 0.0052668788 0.047534168
0.0017866138 0.049178869 0.043072283
-0.0030418653 0.048662454 0.043402016
0.048031311 0.0018812604 0.043532014
0.047412619 0.0065428447 0.043103576
0.0034104977 0.049981132 0.039802134
-0.0012812819 0.049263276 0.039109826
0.04833778 0.003457576 0.03967464
0.04765927 0.0081828572 0.038376629
0.0091217645 0.048870444 0.034868121
0.0058170855 0.050627489 0.035617411
0.00088078529 0.050325781 0.034716547
0.048514701 0.0086939987 0.033912718
0.046960738 0.012767162 0.033756435
0.014483733 0.045820907 0.031256139
0.010553636 0.047501624 0.03137362
0.0059350673 0.049843669 0.030434012
0.049242169 0.0094761439 0.029506326
0.047033116 0.014246037 0.029307723
0.04579366 0.018092444 0.028701246
0.019022513 0.043431107 0.026069939
0.014908615 0.045362893 0.026806056
0.010467412 0.047563992 0.026497424
0.006889293 0.04994455 0.027699471
0.047557965 0.014614539 0.025411069
0.045952257 0.019515794 0.024655163
0.043721005 0.023810886 0.024429917
0.037426256 0.030772658 0.023544133
0.032140087 0.034857724 0.023554027
0.028285205 0.036880061 0.02329284
0.024590265 0.040188681 0.02281934
0.02028428 0.042499185 0.022649467
0.016185483 0.044820897 0.023265421
0.048105136 0.016730286 0.021220863
0.046546791 0.019763265 0.01983726
0.043707296 0.024240671 0.019806683
0.04118152 0.028446166 0.020092785
0.038726255 0.030737989 0.02117008
0.031251613 0.034949113 0.019820273
0.029092871 0.035229966 0.020716727
0.024068462 0.039563749 0.019975364
0.021761291 0.041938275 0.01985997
0.04654796 0.020747241 0.017196953
0.04395441 0.023933709 0.01594013
0.041393839 0.028369226 0.015627146
0.040288217 0.032034427 0.017612278
0.033909693 0.032688476 0.01593858
0.047307774 -0.0078224186 0.050396502
0.048093185 -0.0057412479 0.045393407
-0.0056922976 0.049094617 0.041552246
-0.0083134137 0.048966914 0.040920138
0.04859608 -0.0037423074 0.040764511
0.048797883 6.5147877e-05 0.040889621
-0.0038042031 0.049771916 0.037398636
-0.0072068758 0.050699137 0.035794139
0.049471498 -0.0030346047 0.035761118
0.048765033 0.0012552664 0.036589444
-0.0020712279 0.050974891 0.03322506
-0.0051538255 0.05209513 0.032444954
0.055703007 -0.0056286752 0.031410635
0.052086726 -0.0014912877 0.031157732
0.049159743 0.002778491 0.032329977
0.0037432201 0.050466392 0.028117657
