# .PCD v0.7 - Point Cloud Data file format
VERSION 0.7
FIELDS x y z
SIZE 4 4 4
TYPE F F F
COUNT 1 1 1
WIDTH 1309
HEIGHT 1
VIEWPOINT 0 0 0 1 0 0 0
POINTS 1309
DATA ascii
-0.0091992039 -0.021885497 0.31508386
-0.0050075101 -0.022463271 0.31485486
-0.00094396039 -0.02256402 0.31413323
0.0030426164 -0.020941922 0.31508449
0.0064858976 -0.019984093 0.31469598
-0.0011624168 -0.023184249 0.30901003
-0.0013476392 -0.024974637 0.30486637
0.0016820309 -0.02555665 0.30380821
-0.0046544806 -0.027622921 0.29980063
-0.0014029327 -0.02784792 0.30030978
0.002578588 -0.028498547 0.30046546
0.0067585567 -0.027734961 0.29899371
-0.013811997 -0.030263033 0.29596606
-0.010147231 -0.030091014 0.29734221
-0.0059967344 -0.030207498 0.29734525
-0.0017008606 -0.030579381 0.29728031
0.0025878097 -0.030821647 0.29714492
0.0068706539 -0.030057244 0.29646337
0.010493347 -0.029745493 0.29449037
0.012895898 -0.029653175 0.29270914
-0.014657091 -0.032392297 0.29300857
-0.010451538 -0.033306703 0.2938011
-0.0062296414 -0.03375021 0.29412276
-0.0018412966 -0.033506259 0.29436284
0.0023971668 -0.033420987 0.29306817
0.0066750715 -0.03293477 0.29253379
0.010630313 -0.032715902 0.29150963
0.014000905 -0.031859536 0.29069415
-0.018185932 -0.034658331 0.28631863
-0.014937961 -0.035176739 0.28958735
-0.01063813 -0.03565228 0.28958887
-0.0081773642 -0.036161646 0.28972289
0.0031640998 -0.035545606 0.28986153
0.0064966809 -0.035646711 0.28897825
0.010760729 -0.03504467 0.28792363
0.014440486 -0.034062471 0.28714335
-0.019375848 -0.035993561 0.28376812
-0.015133953 -0.037219662 0.28520408
-0.010827053 -0.037913151 0.2853353
-0.0083587691 -0.038287587 0.28566149
0.0063127656 -0.037750993 0.28497773
0.010562761 -0.037335739 0.28368467
0.01473734 -0.036163229 0.28253877
0.017262653 -0.035755582 0.28077281
-0.022442879 -0.038030967 0.27926281
-0.019810043 -0.038159199 0.27987391
-0.015331625 -0.039219722 0.28079629
-0.011628267 -0.040127277 0.28109628
0.011331816 -0.039715037 0.27966991
0.014648793 -0.039035387 0.27884305
0.018320501 -0.037489977 0.27691787
0.020758737 -0.03714088 0.27576345
-0.022367736 -0.040073786 0.27532855
-0.019751756 -0.040533442 0.27576071
-0.01552753 -0.04126668 0.27641582
-0.011337561 -0.04206378 0.27641124
-0.0067704576 -0.042650137 0.27554128
0.015061797 -0.041142888 0.2744627
0.018010322 -0.039503984 0.27283072
0.020619186 -0.03851274 0.27256653
-0.022566494 -0.042074151 0.27090564
-0.020056866 -0.042334352 0.27171361
-0.015724201 -0.043292336 0.27202296
-0.011422408 -0.043797255 0.27206221
-0.0071381149 -0.043939948 0.27188545
-0.0040719174 -0.044421826 0.27198711
0.01174643 -0.044493709 0.26945677
0.01459669 -0.043121133 0.26983166
0.017313762 -0.041433081 0.26807499
-0.022769758 -0.043990526 0.26643056
-0.020260548 -0.044219408 0.2672244
-0.015930071 -0.045095649 0.26749426
-0.011634421 -0.045366272 0.26739702
-0.007335647 -0.045941286 0.26748547
0.011182442 -0.045731153 0.26568726
0.014062509 -0.044704814 0.26542035
0.01712033 -0.043197665 0.26350582
-0.02029893 -0.045406785 0.26275536
-0.016158545 -0.046380401 0.26264253
-0.011835736 -0.047253475 0.26292047
-0.0075384681 -0.047735557 0.26295686
-0.0039171842 -0.048693128 0.26171505
0.0064960532 -0.048636574 0.26185197
0.0098121911 -0.04764206 0.26151651
0.013870385 -0.046227235 0.26071468
0.017009541 -0.044212665 0.2608974
-0.0157404 -0.047473773 0.25843012
-0.012059004 -0.048523922 0.25805226
-0.0077513447 -0.049165711 0.25819483
-0.0035768519 -0.049640842 0.25801864
0.00098252832 -0.049478225 0.25751156
0.0051007443 -0.049201727 0.25743362
0.0092665786 -0.048690319 0.25702021
0.013005035 -0.047704902 0.25628135
-0.012259448 -0.049358878 0.25370875
-0.0078121079 -0.049832635 0.25307301
-0.0036694615 -0.050877877 0.25334102
0.00061091944 -0.050368771 0.25275508
0.0047499654 -0.049794827 0.25234061
0.0085751824 -0.049439397 0.25167701
0.011643939 -0.049192533 0.25133288
-0.006883658 -0.050511055 0.25003472
-0.0038371666 -0.05101582 0.24935684
-0.0001567799 -0.050880227 0.24904588
-0.0083001116 -0.0078575956 0.34220022
-0.0058489973 -0.0075542759 0.34190753
-0.018700602 -0.013632622 0.33020076
-0.018785043 -0.01357489 0.32863531
-0.014368028 -0.017622573 0.31730676
-0.013782848 -0.018485222 0.31307566
-0.010296095 -0.019706778 0.31170297
-0.0059470562 -0.021201406 0.31219533
0.0028200937 -0.019483414 0.31135413
0.0057494268 -0.018727746 0.31097946
-0.012284571 -0.018946717 0.30908364
-0.009850949 -0.020169957 0.30799085
-0.0055072089 -0.021214895 0.30826074
0.0023439187 -0.021321161 0.30762973
0.0055162744 -0.019570675 0.30514655
-0.012595191 -0.022204246 0.30213657
-0.010052403 -0.022093229 0.30349874
-0.0057151774 -0.022820745 0.30361149
-0.0013993883 -0.02481544 0.30360785
0.0029541117 -0.023497224 0.30421412
0.0060856482 -0.022288391 0.30220142
-0.014092037 -0.024671266 0.29924116
-0.010194574 -0.025987539 0.30005699
-0.0064847032 -0.02593267 0.30019084
-0.0027435566 -0.025881784 0.30111152
0.0068344348 -0.025070071 0.29976669
0.010572045 -0.024229698 0.29762411
0.013580145 -0.023806674 0.29635054
-0.018397922 -0.026502013 0.2941924
-0.015303189 -0.027400119 0.29639506
-0.011505566 -0.028158955 0.29815093
0.010908267 -0.02682393 0.29563954
0.014452116 -0.026314106 0.29294607
0.017872954 -0.025645494 0.29019836
-0.021828081 -0.028678384 0.28955451
-0.019276239 -0.028629031 0.29096365
0.016007002 -0.029248953 0.28943941
0.018814033 -0.028039303 0.28807741
-0.022764608 -0.030341506 0.28595167
-0.019529985 -0.031653132 0.28731006
0.016280133 -0.032079067 0.28511792
0.01875654 -0.031144278 0.28443757
0.021928225 -0.029950874 0.28276819
-0.023626156 -0.032845516 0.28226435
-0.020749474 -0.034193516 0.28461799
0.018900909 -0.034025688 0.28070548
0.022716196 -0.032396078 0.27916148
-0.027347922 -0.034369215 0.27710563
-0.024884963 -0.035215769 0.27847224
0.019655908 -0.03535882 0.27799886
0.022942565 -0.035007939 0.27530217
-0.027508087 -0.036287531 0.27340123
-0.024948316 -0.037877746 0.27418613
0.022832805 -0.03742877 0.2708236
0.025613416 -0.035033736 0.26939493
-0.027721757 -0.03808134 0.26881731
-0.025151752 -0.039819464 0.26970696
0.019177804 -0.040161762 0.26719511
0.02228266 -0.03893929 0.26626849
-0.027903002 -0.039652348 0.26490584
-0.025351331 -0.041829638 0.26526639
0.018981336 -0.042116251 0.26273081
0.022096274 -0.04047009 0.26153323
-0.024940247 -0.042952895 0.26105374
-0.02120658 -0.04525505 0.26062864
0.017738059 -0.044268303 0.25880003
0.021765912 -0.042044878 0.25778809
-0.024861543 -0.043492861 0.25741979
-0.020831104 -0.044727292 0.25619462
-0.017523553 -0.046651483 0.25584745
0.014576742 -0.046140585 0.2537055
0.01729643 -0.044610143 0.25428963
0.020888163 -0.04280673 0.25449336
-0.02063993 -0.045740351 0.25163507
-0.016684536 -0.04737895 0.251894
-0.012387492 -0.049000535 0.25103411
-0.0099190138 -0.049249496 0.25104412
0.0060616266 -0.04922349 0.25005695
0.014124242 -0.046729445 0.24960637
0.016015524 -0.045341849 0.24942589
-0.019971441 -0.046617407 0.2483165
-0.016640142 -0.04795897 0.24766245
-0.012585557 -0.048880324 0.24685913
-0.0085906321 -0.049487013 0.24682155
-0.0043489402 -0.050226126 0.24547362
-0.00029181316 -0.050549116 0.2455565
0.0040694382 -0.049480781 0.2462402
0.0083789844 -0.049156055 0.2457673
0.012305358 -0.048133697 0.24541566
-0.0090621756 -0.049124837 0.24268124
-0.0047814017 -0.050235834 0.24149832
-0.00045397665 -0.050609045 0.24148214
0.0038597977 -0.050038218 0.24084538
0.0081807505 -0.049714565 0.24037081
0.010974919 -0.04924449 0.24030578
-0.0042916336 -0.050704069 0.23846534
-0.0005870366 -0.050469365 0.23808545
0.0031220834 -0.050491333 0.23787603
0.0074491138 -0.05050467 0.23762351
-0.015124589 -0.017356651 0.31054047
0.0075680078 -0.016242998 0.30881256
-0.017345861 -0.01615962 0.30796343
-0.014179008 -0.017073512 0.30634034
0.0037738569 -0.018193807 0.30769151
0.0068834745 -0.017384343 0.30567694
0.0097965263 -0.016090903 0.30148125
-0.018136648 -0.018240809 0.30011708
-0.01443418 -0.019323196 0.30209488
0.0081983544 -0.019349251 0.30210117
0.010756281 -0.019169109 0.29966936
0.013784559 -0.018371191 0.29819724
-0.018698622 -0.020925164 0.2976433
-0.016060952 -0.021644711 0.29915094
0.012036062 -0.02155602 0.29788268
0.015405565 -0.02085042 0.29590651
0.018162386 -0.019541197 0.29323852
-0.022522356 -0.023215465 0.29316941
-0.019673878 -0.024218712 0.29493511
0.016472138 -0.023147464 0.29250515
0.019094793 -0.022561312 0.29073939
0.021660332 -0.022095067 0.28801265
-0.027008574 -0.024619358 0.28761289
-0.023901138 -0.0259622 0.28991634
0.02030679 -0.025313668 0.28826964
0.02300591 -0.024422714 0.28585041
0.025286417 -0.022879243 0.28501213
-0.027651353 -0.026987417 0.28461742
-0.024964297 -0.028470397 0.2862334
0.02407355 -0.027285831 0.28255638
0.026277676 -0.026016457 0.28027558
-0.031152625 -0.028573189 0.27882206
-0.028498545 -0.02975239 0.28095204
-0.025924314 -0.030548625 0.28205365
0.02484701 -0.029846601 0.2793217
0.026582241 -0.028216021 0.27634883
-0.031263553 -0.030526042 0.27591112
-0.029057361 -0.032413092 0.27714494
0.027112484 -0.031008022 0.27259925
0.029573612 -0.029954705 0.26939893
-0.03149518 -0.032102365 0.27116659
-0.02949374 -0.034224577 0.27230087
0.027049005 -0.033629946 0.26847488
0.029440731 -0.031647 0.26715428
-0.031690765 -0.034223456 0.26673907
-0.029717641 -0.0358923 0.26762176
0.026701298 -0.035463758 0.2639055
0.029238278 -0.033767328 0.26272902
-0.031872667 -0.036547322 0.2624341
-0.029662456 -0.037985954 0.26294661
0.02652242 -0.036862597 0.25905555
0.029113362 -0.034725819 0.25922993
-0.029320715 -0.039392915 0.25931945
0.02376231 -0.04108654 0.2552892
0.02597318 -0.037882805 0.25535026
-0.02892286 -0.040685944 0.25529668
-0.02553577 -0.042956013 0.25399864
0.017969476 -0.043474112 0.2505838
0.02208158 -0.041548081 0.25089553
0.024964342 -0.039474249 0.25092262
-0.025356026 -0.043613587 0.25016248
-0.021995177 -0.045117617 0.24967268
0.017593127 -0.044101238 0.24747962
0.020841917 -0.042645182 0.24679253
0.023566961 -0.040614009 0.24677753
-0.024281733 -0.043812275 0.24621531
-0.021390921 -0.045592699 0.24525812
-0.01747817 -0.047382269 0.24425611
0.013893431 -0.046907291 0.24232155
0.016964346 -0.04463068 0.24253467
0.020050269 -0.04305099 0.24303356
-0.020375637 -0.04533853 0.24087965
-0.016772192 -0.047022291 0.24047339
-0.012876863 -0.048350215 0.24074373
-0.009185072 -0.048738752 0.23994774
0.013285991 -0.047830429 0.2386117
0.01566508 -0.045781631 0.23815665
-0.01309815 -0.048111472 0.23607957
-0.0092668068 -0.048598714 0.23536205
-0.0051960554 -0.050122008 0.23505831
-0.00070420757 -0.050542474 0.23514611
0.0037228581 -0.050365347 0.23490286
0.0080878725 -0.049803205 0.23411894
0.011840969 -0.048695121 0.23433465
-0.0083409883 -0.049072418 0.23093924
-0.0052544633 -0.051057357 0.23042253
-0.00091172918 -0.050770588 0.2299653
0.0031040183 -0.04972044 0.23035315
-0.0041423831 -0.0514392 0.22725973
-0.017386893 -0.013212613 0.30803251
-0.018835723 -0.013947334 0.30405745
-0.016295539 -0.015387041 0.30433005
0.0087239807 -0.014216577 0.30533186
0.011266654 -0.014359065 0.30227298
0.014240094 -0.012300508 0.30081666
-0.022531839 -0.015565293 0.29883915
-0.019384328 -0.016323261 0.30077347
-0.016409367 -0.016577892 0.30178273
0.012228919 -0.016485879 0.29994792
0.015399641 -0.015335594 0.29778016
0.018912453 -0.014266491 0.29580784
-0.023622992 -0.018010907 0.29599893
-0.020339951 -0.018803768 0.29763272
0.017040597 -0.017837865 0.29558688
0.019754769 -0.017915726 0.29368669
0.023094404 -0.016576104 0.29165593
-0.02802554 -0.019849062 0.29126954
-0.024730902 -0.020995719 0.29269397
0.020541634 -0.020420194 0.29036921
0.023154425 -0.02017946 0.28867486
0.02675014 -0.019037196 0.28693649
-0.028433511 -0.022500157 0.28833216
0.027586738 -0.021130238 0.28406027
0.030280959 -0.020368645 0.28007799
-0.032206167 -0.02343234 0.28196657
-0.029429818 -0.025024652 0.28444892
0.028043095 -0.023494516 0.27981684
0.030949445 -0.022582514 0.27750397
-0.032899182 -0.025906563 0.27901667
0.028343985 -0.026150465 0.27578324
0.031197729 -0.024556058 0.27428856
-0.036545046 -0.025742259 0.2742649
-0.033896193 -0.028483937 0.27488348
0.030870132 -0.026682258 0.27047741
0.033598792 -0.02526927 0.27129921
-0.036736399 -0.027946012 0.26984546
-0.034096055 -0.030555215 0.27040967
0.031108201 -0.028438568 0.26474181
-0.036999259 -0.030553069 0.26403213
-0.034307901 -0.032456212 0.26583529
0.031185972 -0.031591415 0.26130199
0.033077709 -0.030669553 0.25980863
-0.034519348 -0.034364156 0.26126131
0.03052016 -0.03348802 0.25654173
0.032928802 -0.031872615 0.25561148
-0.03372157 -0.035583206 0.2571848
-0.030907582 -0.03812737 0.2567814
0.027221669 -0.036444172 0.25273621
0.029883573 -0.034215126 0.25252575
-0.032344077 -0.036768541 0.25437051
-0.030425724 -0.039010406 0.2523534
0.026646629 -0.037856087 0.2487022
0.029075226 -0.035416603 0.2477912
-0.029478155 -0.040162735 0.24805588
-0.027584579 -0.042009473 0.24746555
0.022213917 -0.041579757 0.24416542
0.025596317 -0.03940114 0.24407119
0.028674839 -0.036751576 0.24400735
-0.029371869 -0.040710978 0.24307323
-0.026260551 -0.042787161 0.24328351
-0.022843627 -0.044088826 0.24187613
0.018257909 -0.043606587 0.23907146
0.021102851 -0.042315193 0.23990658
0.024525104 -0.040431771 0.23935035
-0.025390837 -0.043419752 0.23845875
-0.021904917 -0.044762392 0.23871529
-0.018831806 -0.045870528 0.23835716
0.017263917 -0.043757457 0.23565346
0.020533821 -0.042427082 0.23502618
0.023257125 -0.041206188 0.23552522
-0.02446935 -0.043750253 0.2350581
-0.021547848 -0.044896603 0.23452485
-0.01746756 -0.046192545 0.23391196
-0.013263354 -0.047662292 0.2326327
-0.01016154 -0.048165068 0.23211393
0.013232046 -0.047084112 0.23123312
0.01649672 -0.04460248 0.23113519
0.019305307 -0.043102231 0.23114201
-0.013446104 -0.046803374 0.22886777
-0.00984539 -0.048503689 0.22875202
0.0036531207 -0.049096584 0.22759259
0.0077798846 -0.048351035 0.22779745
0.01152726 -0.047212806 0.22679821
-0.0089875059 -0.048462458 0.22339478
-0.0057636523 -0.049614329 0.22407809
-0.0011265646 -0.049842186 0.22429425
0.0032322949 -0.048795003 0.22331211
0.0072084945 -0.048126187 0.22317815
0.010792264 -0.047228999 0.22347572
-0.00067861169 -0.049173422 0.21957019
0.0024634765 -0.049214039 0.21969312
0.00623798 -0.048865609 0.21979097
0.01610359 -0.011282904 0.29937154
0.032288965 -0.024663959 0.26694512
0.034142897 -0.023188386 0.26777059
-0.03851356 -0.0266819 0.26815203
0.032162812 -0.026118943 0.26453224
0.033425942 -0.025489161 0.26326093
-0.03878909 -0.028171727 0.26380473
0.034182042 -0.027160661 0.25845119
-0.038221709 -0.030164327 0.25915524
0.034272119 -0.029742684 0.25422773
-0.038202532 -0.031130128 0.25453243
-0.036211535 -0.033164773 0.25484365
0.031543691 -0.03224327 0.25013575
0.033212256 -0.030431118 0.2501556
-0.037161935 -0.032301769 0.25020161
-0.034403086 -0.034241438 0.25048265
0.030797057 -0.032630272 0.2454333
0.032798797 -0.031007204 0.24679488
-0.033852011 -0.034889717 0.2451885
-0.031626415 -0.03606442 0.24556434
0.029434673 -0.035326634 0.24104905
-0.033140704 -0.035939403 0.24138504
-0.031317212 -0.038054824 0.24060616
0.026915517 -0.038998351 0.2375451
0.028737934 -0.037260942 0.23663878
-0.030138047 -0.040319733 0.23649138
-0.027871955 -0.041758928 0.23688409
0.02190215 -0.041907139 0.23271319
0.024644775 -0.040306449 0.2329596
0.027074084 -0.038006902 0.2315062
-0.029748501 -0.041063294 0.23189905
-0.026727542 -0.041990418 0.23132029
-0.022592658 -0.04368639 0.23097032
-0.019662514 -0.044905543 0.23049
0.016678404 -0.043259487 0.22719005
0.020782355 -0.041753564 0.2281242
0.024214769 -0.040383391 0.22839791
-0.026186496 -0.042114668 0.22730523
-0.022273721 -0.043078575 0.22623596
-0.01815114 -0.044122849 0.22663853
-0.014249079 -0.045339193 0.22538337
0.015946573 -0.04367362 0.22412682
0.020091381 -0.04165905 0.22335938
-0.021330733 -0.043612514 0.22292766
-0.018321196 -0.044360265 0.2222375
-0.014418856 -0.045090742 0.22182333
-0.010709045 -0.04642025 0.22285566
0.0084020169 -0.047319073 0.22085482
0.011532618 -0.046360988 0.22065288
0.01531217 -0.043985777 0.21965504
-0.014154797 -0.045928869 0.21840572
-0.010088577 -0.047208667 0.21729106
-0.0057977131 -0.047693558 0.21714008
-0.0015185119 -0.048761487 0.21728849
0.0031416635 -0.04891818 0.21700168
0.0075081894 -0.047875438 0.21623662
0.011069302 -0.046593957 0.2155939
0.013787643 -0.044921026 0.21659938
-0.0097747538 -0.048434921 0.21276462
-0.0058451626 -0.04876399 0.21206012
-0.0016144232 -0.048867039 0.21172372
0.0026314035 -0.049393926 0.21199906
0.0069403914 -0.048763275 0.21096778
-0.00048190035 -0.049303599 0.20852938
0.002042036 -0.049569316 0.20856866
0.0058064256 -0.049613461 0.2079449
0.035470691 -0.024033053 0.25620848
-0.040069014 -0.028130038 0.2569558
0.035670925 -0.026593463 0.25221509
0.036963202 -0.025944063 0.25173873
-0.040324006 -0.028256996 0.25288171
0.035007577 -0.027908156 0.24773246
0.037159327 -0.026607258 0.24712819
-0.038609557 -0.030603699 0.24838519
0.031402323 -0.03187665 0.24241388
0.0336865 -0.028991971 0.24352622
-0.037241049 -0.03221415 0.24386558
-0.035579119 -0.034323182 0.24385276
0.031310737 -0.032439608 0.23942208
0.032653309 -0.030467341 0.23807943
-0.03716065 -0.032845005 0.23962709
-0.034811966 -0.035451598 0.23914829
0.030573167 -0.03444365 0.23498821
0.032458797 -0.032330737 0.23338121
-0.034412377 -0.035790682 0.23432902
-0.032188967 -0.037900124 0.23501983
0.029659366 -0.03618576 0.23014882
0.032710657 -0.03388514 0.22901386
-0.031798787 -0.038705144 0.23044634
0.024307456 -0.040244684 0.22554752
0.028701853 -0.037515879 0.22615525
-0.030417496 -0.039733581 0.22637433
-0.027187666 -0.041546192 0.224709
-0.023795025 -0.043028969 0.22438064
0.020613501 -0.041855998 0.2219305
0.024238832 -0.039731894 0.22180149
0.027544515 -0.037002631 0.22231847
-0.025717998 -0.040986963 0.22082004
-0.022908309 -0.042547449 0.22036695
-0.019528748 -0.044440679 0.22082973
0.017228046 -0.043949246 0.21799868
0.020224348 -0.042769179 0.21814302
0.023251722 -0.040622234 0.21762666
-0.022299916 -0.042234216 0.21689892
-0.018846 -0.044345651 0.21624994
-0.014990276 -0.045673165 0.21507883
-0.011595685 -0.047012635 0.21444422
0.012358933 -0.045962386 0.21227163
0.015609639 -0.04438642 0.21354637
0.01936296 -0.042754259 0.21304137
-0.018121351 -0.044024143 0.21100748
-0.014436048 -0.04618299 0.21097106
-0.010986866 -0.048184633 0.21111295
-0.0079880338 -0.048742838 0.2102989
0.010983058 -0.047005124 0.20965061
0.014575517 -0.044426937 0.20864522
-0.013740947 -0.047179647 0.20641765
-0.010658567 -0.048965745 0.20716864
-0.0062233685 -0.049495187 0.20728442
-0.0019780989 -0.0492309 0.20662534
0.001944319 -0.049469233 0.20591593
0.0066832076 -0.049162287 0.20562804
0.010815024 -0.047485165 0.20482469
-0.010210536 -0.047984157 0.20297146
-0.006196246 -0.047992282 0.20273817
-0.0019688117 -0.048078522 0.20254877
0.0020606758 -0.048117552 0.20164168
0.0056326198 -0.047857199 0.20193571
0.038134553 -0.025491307 0.24469993
-0.040529143 -0.027412431 0.24522704
0.034939073 -0.02661063 0.24021015
0.036809199 -0.025114877 0.24033234
-0.039758239 -0.028979711 0.24128681
0.034680095 -0.027586954 0.23611358
-0.039506827 -0.030827625 0.23631012
0.034286913 -0.029273324 0.23156834
-0.039214928 -0.03214334 0.23164824
-0.035892006 -0.034300856 0.231736
0.034020387 -0.03254899 0.22720516
-0.037923947 -0.033110518 0.22707933
-0.035237011 -0.034943208 0.22814074
0.03080708 -0.035466261 0.22279719
0.033295415 -0.033795681 0.2234509
-0.034157403 -0.035050392 0.22472233
-0.031977519 -0.037478432 0.22329232
0.025486436 -0.038181577 0.21810713
0.028147105 -0.036060948 0.21879011
0.030818732 -0.033763595 0.21907878
-0.030570015 -0.038137846 0.21886802
-0.027872993 -0.039390206 0.21832407
0.024527546 -0.038785815 0.21456876
0.027400652 -0.036655121 0.21522865
-0.026740201 -0.039720859 0.21426761
-0.023293408 -0.041085873 0.21394265
-0.02018258 -0.042749509 0.21253687
0.020401485 -0.040675111 0.20980439
0.023162479 -0.039068241 0.21139705
-0.025886629 -0.039858036 0.21026921
-0.022795239 -0.041374583 0.20941561
-0.019680386 -0.043341942 0.2086702
-0.016555622 -0.044329252 0.20824617
0.015081321 -0.044037122 0.20600322
0.018783242 -0.041908726 0.20591795
-0.019746235 -0.043878131 0.20405915
-0.01622187 -0.045678172 0.2048932
0.014645149 -0.044318423 0.20232293
0.018334387 -0.042712159 0.20116824
-0.018636448 -0.044013008 0.20059857
-0.01526862 -0.045945168 0.20020926
-0.01112604 -0.04757503 0.19959393
-0.0065951864 -0.04784264 0.19943964
-0.0021083136 -0.047972865 0.19899961
0.0015021983 -0.048023958 0.19832382
0.0062979739 -0.046800513 0.19791114
0.010622831 -0.04655952 0.19808185
0.014076964 -0.044704862 0.19798571
0.017099038 -0.04365303 0.19820911
-0.013696157 -0.046038099 0.1965248
-0.010794755 -0.047701225 0.19465148
-0.0067602349 -0.048595242 0.1944868
-0.0023049787 -0.048564639 0.19419926
0.0015071157 -0.048090883 0.19362256
0.0057689976 -0.047157373 0.1932658
0.0096123703 -0.046913471 0.19344315
0.01309291 -0.045755778 0.19472539
-0.0056401109 -0.048279405 0.1906724
-0.0024509628 -0.048185859 0.19041368
0.0016782439 -0.048036065 0.18961674
0.0039267046 -0.04785388 0.18978828
-0.04132393 -0.02784368 0.23749799
0.035162978 -0.028169939 0.22966236
-0.043050427 -0.029048529 0.229839
-0.041627515 -0.030735049 0.23086566
0.036333665 -0.028463244 0.22465265
-0.043215364 -0.030351827 0.22641662
-0.040602751 -0.031603217 0.22623327
-0.039201155 -0.032103386 0.22260886
-0.035727065 -0.03280684 0.22114635
-0.033257145 -0.033993348 0.21878207
0.029422294 -0.03456923 0.21540448
0.031919543 -0.032642789 0.21640798
-0.03180128 -0.035159521 0.21559709
0.028229551 -0.034916028 0.21176052
0.030996623 -0.033498235 0.21154666
-0.031462196 -0.035333276 0.21207684
-0.028640468 -0.037519354 0.21169057
0.024453307 -0.036910467 0.20808381
0.027182123 -0.034844041 0.20740619
-0.027724929 -0.038373932 0.20711556
-0.024273161 -0.040355597 0.20669502
0.021267749 -0.039480329 0.20457122
0.023457594 -0.037430253 0.20328122
-0.026330812 -0.039494175 0.20218191
-0.023699498 -0.041518554 0.20260125
0.020641249 -0.041383777 0.19986004
0.022609001 -0.039306574 0.19825053
-0.023549074 -0.042359795 0.19818908
-0.02020614 -0.04332253 0.19821876
-0.017498815 -0.044713445 0.1975362
0.01530935 -0.043910623 0.19558313
0.018494474 -0.042890005 0.19560042
-0.023473579 -0.043147139 0.19410482
-0.020080697 -0.043527298 0.19380409
-0.015917519 -0.044970836 0.19305634
-0.012176512 -0.046909027 0.19238967
0.0065344456 -0.045892648 0.18993878
0.010836339 -0.045821838 0.19080544
0.014411149 -0.044621382 0.19093388
0.017638028 -0.043337703 0.19091886
-0.014608447 -0.045863271 0.18798694
-0.011514683 -0.04675816 0.18811846
-0.007822318 -0.04741139 0.18816668
-0.0032005524 -0.047933631 0.18762213
0.0010175854 -0.048239503 0.18742478
0.0052902279 -0.047131624 0.18718198
0.0096171536 -0.046537247 0.18670177
0.013620903 -0.045095906 0.18609625
-0.014253328 -0.046444774 0.18449771
-0.011359746 -0.04713336 0.18440142
-0.0078342762 -0.047684211 0.18416482
-0.0033680212 -0.048394356 0.18355003
0.0011168942 -0.048461385 0.18333545
0.0049568135 -0.048120566 0.18285102
0.009389082 -0.047583818 0.18234348
0.012712665 -0.04611126 0.18265128
-0.0028895007 -0.049363732 0.17968524
0.00077752129 -0.049428463 0.17897689
0.0044976766 -0.048421331 0.17910266
0.034993261 -0.026987467 0.2168552
-0.035945255 -0.031598516 0.21817678
0.033579215 -0.028004918 0.2132858
-0.035708729 -0.030478375 0.21408829
-0.033568196 -0.032441601 0.21426561
0.032473598 -0.031103151 0.20937687
-0.032971196 -0.033559084 0.20918608
0.028944133 -0.033471927 0.2055591
0.031496894 -0.03176691 0.20523813
-0.032068543 -0.034961291 0.20544198
-0.029235223 -0.037621941 0.20481902
0.025179032 -0.035997238 0.2009975
0.02749645 -0.033904858 0.20138347
-0.031647082 -0.035348348 0.20129415
-0.028927382 -0.037852816 0.20044088
0.024678085 -0.037541933 0.1964201
0.02665724 -0.035231967 0.19649464
-0.027033538 -0.038281612 0.19562265
-0.025394469 -0.039953981 0.19541562
0.022917906 -0.038850956 0.19262078
-0.02464998 -0.040580392 0.19096005
-0.020435978 -0.04324564 0.19046068
0.018800471 -0.042213473 0.18825448
0.022594858 -0.039575715 0.18801793
-0.02316599 -0.04115086 0.18818212
-0.020446854 -0.04275712 0.18667156
-0.017127631 -0.044250831 0.18632075
0.014730902 -0.0448495 0.18424889
0.01814189 -0.042718701 0.18369558
0.020717021 -0.040577736 0.18515387
-0.016048657 -0.044446606 0.18182045
-0.012064361 -0.046592779 0.18163019
-0.0079548378 -0.047421046 0.18130398
0.010027196 -0.047166366 0.18004835
0.014107686 -0.045177598 0.17985785
0.016545516 -0.043885741 0.17895818
-0.014559498 -0.044948664 0.17802206
-0.012000657 -0.046566673 0.17731392
-0.0080918306 -0.047977719 0.17816508
-0.0040560095 -0.04900825 0.17722929
0.0014708149 -0.049333386 0.17596173
0.0049920972 -0.048609443 0.17680663
0.0092692357 -0.047556028 0.17681748
0.013510063 -0.045327749 0.17620683
-0.0082722269 -0.046972122 0.17381614
-0.0034535038 -0.047999997 0.17232782
0.00070694729 -0.048355069 0.17233324
0.0044274633 -0.048012666 0.17229891
0.0082270503 -0.047048707 0.17218426
-0.037289172 -0.027796729 0.21094158
0.033473995 -0.02797728 0.20774826
0.035577256 -0.024832556 0.20663276
-0.039410509 -0.029137271 0.20530832
-0.036685057 -0.029410703 0.20709905
0.03265927 -0.028890815 0.20170093
-0.039521445 -0.03046969 0.20271629
-0.036868423 -0.031176057 0.20305663
-0.034151524 -0.032867279 0.20408827
0.029193113 -0.032046113 0.198838
0.031224797 -0.030145016 0.19825414
-0.035782859 -0.031839404 0.19903678
-0.033403605 -0.03417027 0.19843501
0.02848413 -0.032955255 0.19384578
0.030429915 -0.031093597 0.1936633
-0.032521848 -0.034527693 0.19396609
-0.029622592 -0.036235571 0.19362479
0.027543049 -0.035136275 0.18964612
0.030135799 -0.034537401 0.18816665
-0.030956537 -0.036039028 0.19022208
-0.028199781 -0.037371907 0.18947479
-0.025774527 -0.039077844 0.18858323
0.027083935 -0.037502136 0.18588698
-0.027279692 -0.037982278 0.18517891
-0.024838859 -0.039112482 0.18475521
-0.021670621 -0.041432008 0.18354404
0.021971475 -0.039545212 0.18193138
0.026052281 -0.038480658 0.18188909
-0.026166946 -0.038868122 0.18128833
-0.020984415 -0.042106085 0.17982894
-0.017427919 -0.043386955 0.17924476
0.018517984 -0.041785546 0.17725179
0.021686791 -0.039519414 0.17634884
0.024527425 -0.038150158 0.17774859
-0.020836512 -0.042782001 0.17519274
-0.016812118 -0.04392549 0.17541051
0.014030645 -0.044107113 0.17281446
0.017709704 -0.042581115 0.17250735
-0.020081358 -0.043163843 0.17156908
-0.016325306 -0.044746451 0.17116433
-0.012140934 -0.046211448 0.17129156
-0.0084316805 -0.046761736 0.17005646
-0.0047801915 -0.04715487 0.16954568
0.00056623988 -0.047206778 0.16806692
0.0044693537 -0.047091622 0.16835034
0.0097187357 -0.04615806 0.16955155
0.013487699 -0.044091687 0.16872668
0.016305301 -0.042888064 0.16921344
-0.015509647 -0.045283251 0.16690135
-0.012520887 -0.046708345 0.16572455
-0.0086301528 -0.047895007 0.1655218
-0.0040870672 -0.048245993 0.16553262
0.00043261636 -0.047311306 0.16453058
0.0044605741 -0.046589613 0.1640881
0.0079765385 -0.046285577 0.16489404
0.011340453 -0.045459867 0.1654627
-0.011392495 -0.047611613 0.16182235
-0.0088189514 -0.048063703 0.16111824
-0.0043528215 -0.048237104 0.16069093
-0.00035400211 -0.047241468 0.16088167
0.033352748 -0.027370283 0.19971192
0.035734728 -0.024900965 0.20011926
-0.040987235 -0.028448429 0.20137605
0.033277623 -0.027534895 0.19628963
0.035309575 -0.025791356 0.19493687
-0.039966449 -0.027631657 0.19717816
-0.037660103 -0.03006833 0.19674116
0.032467615 -0.028890865 0.19196722
0.034812693 -0.027228918 0.19019243
-0.03681577 -0.030985544 0.19314328
-0.034040585 -0.032899566 0.19108894
0.031394295 -0.030821035 0.18913934
0.03436039 -0.028771417 0.18819854
-0.032932848 -0.034016542 0.18706399
-0.029864775 -0.035889797 0.18647015
0.030103298 -0.03290759 0.18250746
-0.031862803 -0.034010105 0.18279827
-0.029147875 -0.035874471 0.18256539
0.027883109 -0.036689863 0.17915261
0.028598489 -0.034237452 0.17637679
-0.027988538 -0.03687077 0.17854041
-0.024910072 -0.038727317 0.17815894
0.023091588 -0.039172001 0.17410117
0.025419513 -0.037568603 0.17494208
-0.027839417 -0.037554298 0.17497662
-0.025128799 -0.03949862 0.17289823
-0.022646409 -0.041226931 0.17294407
0.021661252 -0.039887462 0.17021012
0.024873769 -0.037698627 0.16943416
-0.024617467 -0.040128555 0.16888389
-0.021728292 -0.041592121 0.16840491
-0.018477345 -0.043524027 0.1687308
0.014893917 -0.04351059 0.16615292
0.017726 -0.041966304 0.16637385
0.021091752 -0.040393915 0.16579098
0.024199219 -0.039136291 0.16584986
-0.020455763 -0.041923899 0.16425702
-0.017690547 -0.043463588 0.16398233
-0.013954295 -0.046417084 0.16284895
0.008832559 -0.045645528 0.16181469
0.013331792 -0.043299794 0.16203266
0.017480522 -0.041269694 0.1624307
-0.016276648 -0.044116005 0.15994203
-0.012995911 -0.046293087 0.15880856
-0.008962038 -0.047172189 0.15767342
-0.0041696504 -0.047831655 0.15792125
0.00038802304 -0.046753202 0.15809864
0.0041220794 -0.046009645 0.15780941
0.008175252 -0.045354366 0.15741608
0.01151426 -0.04411963 0.15747589
-0.012151847 -0.046014037 0.15448046
-0.0091270469 -0.046553645 0.1537402
-0.0052021542 -0.047110625 0.1537292
-0.00088681496 -0.046611123 0.15344313
0.0039614202 -0.046030588 0.15324545
0.0076265996 -0.045613904 0.1528801
0.036671266 -0.025535755 0.18967599
-0.038067937 -0.028494153 0.19007212
0.034411505 -0.027180791 0.1861501
-0.037134413 -0.027864883 0.18580356
-0.035406649 -0.030621324 0.18380845
-0.03336959 -0.032657657 0.18007326
0.030046726 -0.030363679 0.17339316
-0.032171834 -0.03297697 0.17585391
-0.02993466 -0.034731951 0.17622817
0.02716809 -0.034960832 0.17248055
0.028557783 -0.033152614 0.17193857
-0.029213427 -0.03589981 0.17152321
-0.026766693 -0.038475189 0.17016411
0.026499111 -0.035589337 0.16736299
0.028497688 -0.032620158 0.16789803
-0.028332839 -0.037513886 0.16585779
-0.026076991 -0.039179001 0.16640776
0.022386506 -0.038945265 0.16276634
0.025694944 -0.037263189 0.16294309
-0.028520785 -0.037671752 0.1623199
-0.025682125 -0.039158616 0.16200274
-0.022257447 -0.040765233 0.16227576
0.017409651 -0.040931072 0.15942347
0.021382947 -0.039964966 0.15934771
0.025194092 -0.03864067 0.1583147
-0.021199564 -0.040919729 0.15830916
-0.018578535 -0.042705674 0.15773129
0.013304526 -0.04236475 0.15528676
0.016618833 -0.041509919 0.15533316
0.021231491 -0.040498853 0.15425971
0.024594905 -0.039163727 0.15484956
-0.017158272 -0.04343738 0.15314618
-0.013557018 -0.045632448 0.15241033
-0.0092173349 -0.046478543 0.15161112
0.000592203 -0.046079535 0.15071541
0.0038640958 -0.04602538 0.1504806
0.0081335912 -0.045854177 0.15055439
0.011926114 -0.044206433 0.15105879
0.016289266 -0.042624898 0.1504223
0.020225536 -0.04139844 0.15072614
-0.017216278 -0.0438345 0.14931688
-0.012887442 -0.045315742 0.14779216
-0.0093776155 -0.046403188 0.14785653
-0.0054337997 -0.046735168 0.14789826
-0.00085895829 -0.045914054 0.14696094
0.0037351437 -0.04615438 0.14688981
0.0076701343 -0.046491776 0.14693648
0.011452704 -0.04535912 0.14602348
0.014994446 -0.043284826 0.14668256
-0.0056072776 -0.045737334 0.14337391
-0.0010356073 -0.045849171 0.14226726
0.0035713357 -0.045999631 0.1421234
0.0075234207 -0.046053734 0.14212438
0.01017754 -0.045796294 0.14250422
0.03185831 -0.024147954 0.18140107
-0.03853377 -0.025755236 0.18277204
0.031837247 -0.02376049 0.17930719
-0.037543967 -0.026726911 0.17954737
-0.035784226 -0.029077752 0.17815197
0.031509463 -0.026553461 0.17045623
-0.034857426 -0.030500038 0.17346191
0.030359732 -0.029029727 0.16918182
-0.033169519 -0.032048158 0.16953361
-0.030853856 -0.03455656 0.16922197
0.029299267 -0.030998571 0.16441873
0.037108153 -0.03007957 0.16178283
-0.033136293 -0.033147149 0.16459838
-0.030278871 -0.035370979 0.16562331
0.02683099 -0.035972819 0.15958041
0.028688984 -0.032371249 0.16081908
0.03771117 -0.030657547 0.16034874
-0.032629687 -0.034646835 0.16111988
-0.03016814 -0.03629683 0.1599569
-0.026697448 -0.038385734 0.15908796
0.026661355 -0.037453756 0.15522325
0.028193016 -0.034029827 0.15706444
-0.029354136 -0.036709376 0.15545109
-0.026241355 -0.038234252 0.15524057
-0.022670643 -0.03971345 0.15559131
0.025420327 -0.038023148 0.15151858
-0.02555762 -0.03869503 0.15123561
-0.022458244 -0.04012033 0.15095747
-0.019781278 -0.041771956 0.15120202
0.021509018 -0.040736623 0.148265
0.024424298 -0.039074983 0.14737698
-0.02237979 -0.040834207 0.14705914
-0.018253366 -0.042702097 0.14618152
-0.014333519 -0.044075999 0.14500362
0.012876861 -0.044007387 0.14274198
0.016110953 -0.042480979 0.14433509
0.019966556 -0.0403791 0.14333251
-0.0175777 -0.042933378 0.14176178
-0.013656825 -0.043915324 0.14046901
-0.0096595418 -0.044951268 0.14109239
-0.0057149413 -0.045963306 0.14076564
-0.0011057007 -0.045882329 0.14043087
0.0035121643 -0.0459303 0.14038947
0.0074409908 -0.045732327 0.13934249
0.011601557 -0.044426069 0.13918865
0.015258168 -0.042416148 0.13942614
0.018198118 -0.040914673 0.13989687
-0.016471012 -0.043994565 0.13694215
-0.013830134 -0.044336047 0.13660252
-0.0096891178 -0.044880409 0.1359418
-0.0059107938 -0.045683332 0.13585541
-0.0012745506 -0.046365228 0.13615713
0.0033457428 -0.04642766 0.13594091
0.0073101115 -0.045554027 0.13521537
0.010847984 -0.044797082 0.13477063
-0.0047303536 -0.046026912 0.13230866
-0.0020968202 -0.046274289 0.13189238
0.001888462 -0.046151571 0.13203046
0.031796847 -0.023398008 0.17631596
0.031675383 -0.024170484 0.17233038
0.034297545 -0.024441464 0.17146105
-0.038697634 -0.02715734 0.17208827
0.03140131 -0.026976893 0.16619587
0.034093045 -0.026431408 0.16654372
0.037083171 -0.026126964 0.16567832
-0.038432214 -0.027491927 0.16795173
-0.035764229 -0.029052615 0.16713887
0.031247109 -0.028588209 0.16283137
0.033905856 -0.028390748 0.16252273
0.037226666 -0.028581977 0.16339329
-0.035284694 -0.030895881 0.16298488
0.030541638 -0.030071292 0.15810227
0.033775572 -0.029044135 0.15748683
0.036390431 -0.029937642 0.15802243
-0.034146078 -0.032319598 0.1589303
-0.03153944 -0.034989391 0.15669504
0.029953994 -0.031698141 0.1539478
0.03236796 -0.029237764 0.1540094
-0.032997143 -0.033090949 0.15528423
-0.030416705 -0.035386205 0.15275878
0.028940275 -0.033483319 0.14927143
-0.029312382 -0.035408787 0.1485076
-0.027051404 -0.037507296 0.14850345
0.026461123 -0.037248835 0.14579123
0.02818935 -0.035412211 0.14468318
-0.026368614 -0.037933946 0.1444369
-0.023153283 -0.039875813 0.14379913
0.021817241 -0.039748449 0.14123082
0.024977241 -0.038320288 0.14113149
0.027747191 -0.035981245 0.14094892
-0.022289202 -0.039595947 0.14117271
-0.019302849 -0.041175485 0.13928723
0.016792618 -0.041188512 0.13738751
0.019924279 -0.040430292 0.1375196
0.023738997 -0.038824186 0.13660449
-0.018284494 -0.041866779 0.13500559
-0.013952838 -0.044113602 0.13387817
-0.010655404 -0.044527326 0.13327909
0.0072386977 -0.044531569 0.13224581
0.01212202 -0.043495111 0.13172281
0.015320797 -0.042339716 0.13371801
0.019155683 -0.040641803 0.13262263
-0.016702076 -0.042669091 0.13207024
-0.013881211 -0.043010373 0.12953782
-0.0099871028 -0.044222269 0.1294331
-0.0063187163 -0.045495272 0.12982324
-0.0022048126 -0.045643535 0.12881181
0.0026723966 -0.04507751 0.12855533
0.0071138665 -0.044462547 0.12841034
0.01094302 -0.04381258 0.1278764
0.014999172 -0.042410579 0.12835672
-0.0096616764 -0.044118915 0.125287
-0.0059041488 -0.045501813 0.12497917
-0.0023787236 -0.045619521 0.12424064
0.0020980206 -0.045270734 0.12385771
0.0069282418 -0.045249581 0.12338737
0.0096199373 -0.045068726 0.12403053
0.002746911 -0.046360373 0.11885446
0.0074711498 -0.046014447 0.12019676
-0.036692843 -0.026943428 0.16373113
-0.038879216 -0.026204007 0.15957144
-0.036858194 -0.026907716 0.16092628
-0.034505107 -0.029117601 0.15411374
0.033412173 -0.027530603 0.15121815
0.036452953 -0.026935713 0.1510407
-0.033727549 -0.030502899 0.15141383
-0.031912923 -0.032499433 0.15101835
0.030843925 -0.030383911 0.14753354
0.032255344 -0.028460383 0.14593077
-0.030798759 -0.033050179 0.14670342
0.029991763 -0.031819124 0.14216465
-0.030240962 -0.0338552 0.1418547
-0.027896373 -0.036313638 0.14132684
0.028192028 -0.034788966 0.13807514
-0.026771652 -0.036083121 0.13729066
-0.023407843 -0.036927328 0.13661706
0.024849411 -0.037468877 0.13385195
0.027234413 -0.036167212 0.13311154
-0.026082631 -0.03736072 0.13292795
-0.023412997 -0.03808609 0.13242543
-0.020631859 -0.040194869 0.13401955
0.019959085 -0.04009315 0.12968406
0.023228448 -0.038031783 0.12990996
-0.023237411 -0.039113149 0.12898815
-0.019275747 -0.040799312 0.12874573
-0.015148548 -0.042208314 0.12715864
0.01507693 -0.042504635 0.12534362
0.019190934 -0.040261693 0.12606627
0.022242777 -0.038725939 0.12507373
-0.019415209 -0.040752158 0.12441826
-0.015081974 -0.042440977 0.12369138
-0.010753391 -0.043801088 0.1231693
-0.0073360382 -0.044596501 0.12237948
0.0041995985 -0.044781908 0.1212365
0.01140498 -0.043013997 0.12217307
0.015004044 -0.041817222 0.12189957
0.017747449 -0.040585041 0.12260714
-0.014266678 -0.043119039 0.11943454
-0.010644708 -0.044431686 0.11795604
-0.0066104829 -0.045267258 0.11844701
-0.0025979015 -0.045571752 0.11847949
0.0019421269 -0.045870066 0.11847657
0.0065346179 -0.045998454 0.11777538
0.010412999 -0.043681536 0.11746925
0.013558669 -0.041558299 0.11792904
-0.013428904 -0.043760419 0.11561042
-0.0099207629 -0.045093045 0.11399728
-0.006641204 -0.046237402 0.11376333
-0.0028014476 -0.046426639 0.11346668
0.0016762225 -0.046379533 0.11381125
0.006763583 -0.046058793 0.11314684
0.0092604961 -0.044942126 0.11244148
-0.0056244838 -0.046590891 0.10991269
-0.0042842766 -0.04661807 0.10985982
-0.036052842 -0.025530748 0.15232694
0.03452095 -0.024488006 0.14736632
0.03651486 -0.024604185 0.14640108
-0.035593241 -0.026317172 0.14821196
0.033412468 -0.025247302 0.14426288
0.036487661 -0.024500523 0.14443725
-0.040517297 -0.029337849 0.14334586
-0.034448802 -0.027979271 0.14379448
-0.032323983 -0.030265741 0.14455712
0.030696755 -0.030297928 0.13995594
0.032232124 -0.026321666 0.13856819
-0.040579133 -0.029972332 0.1419653
-0.032103352 -0.030781286 0.14023027
0.02993479 -0.030708127 0.13654909
0.030647434 -0.029089911 0.13424507
-0.030726971 -0.033342414 0.13558546
-0.028266871 -0.035161156 0.1347205
0.02913757 -0.030928526 0.13107234
-0.030838121 -0.034166083 0.13074058
-0.027920455 -0.03653511 0.13112277
0.024714606 -0.036813498 0.12666702
0.026811736 -0.035358615 0.12723801
-0.027622368 -0.036872763 0.12616187
-0.023996623 -0.038612008 0.12602973
0.024080666 -0.036826935 0.12250721
0.026569994 -0.035040889 0.12162602
-0.026655989 -0.036844816 0.121999
-0.023502704 -0.038157053 0.12164676
-0.020211097 -0.039335642 0.12066603
0.016310992 -0.040115271 0.11845547
0.019239293 -0.038303122 0.11841923
0.022277886 -0.036908016 0.11858213
-0.019751662 -0.039621234 0.11653024
-0.016255781 -0.041271124 0.11692357
0.01213318 -0.041499086 0.11507207
0.014876039 -0.039597325 0.11456025
-0.0189521 -0.040312938 0.11293399
-0.015596068 -0.041558709 0.11236995
-0.011227684 -0.044355664 0.11213976
-0.008255654 -0.045488734 0.11102855
0.0017928173 -0.044907179 0.10994107
0.0051472774 -0.045160227 0.10997081
0.011006151 -0.04275012 0.11084241
-0.010797159 -0.043572053 0.10793561
-0.0070735933 -0.045397129 0.10700041
-0.002880509 -0.045549579 0.10665196
0.00082588731 -0.045079045 0.10650963
0.0056881737 -0.044881735 0.10581321
0.010055503 -0.043765172 0.10596669
-0.0072262096 -0.044565234 0.1030249
-0.0032334509 -0.045068622 0.10161692
0.0011089593 -0.044612903 0.10193908
0.0044451435 -0.045123033 0.1005283
0.0098462524 -0.044308152 0.10181898
0.033805404 -0.023055553 0.14061409
-0.036650449 -0.025549855 0.14198038
0.033103943 -0.024807522 0.13730404
-0.039212052 -0.026982563 0.13728908
-0.035475761 -0.02757694 0.13782632
-0.032747105 -0.029448764 0.13728228
0.032803029 -0.026215861 0.13274157
0.036390956 -0.02525619 0.13151565
-0.040150292 -0.027307136 0.13357782
-0.035025328 -0.027428882 0.13385797
-0.033002563 -0.028809123 0.13295162
0.031788122 -0.027360015 0.12854058
0.037232786 -0.027496321 0.12821501
0.040096629 -0.027509196 0.1285913
-0.032537349 -0.031145863 0.12814024
0.029007286 -0.031248553 0.12560871
0.030417537 -0.029092312 0.12277666
0.037941523 -0.028518574 0.12475014
0.038561665 -0.029057214 0.12323722
-0.031074107 -0.03332356 0.12506303
0.028457683 -0.033330049 0.12065518
0.030567428 -0.031326003 0.11933178
-0.030863751 -0.032810315 0.12075549
-0.028170897 -0.03496686 0.11952555
-0.024990262 -0.03738223 0.11914521
0.023605866 -0.035860572 0.11568403
0.027280945 -0.034373302 0.11549389
0.030056708 -0.033099838 0.11554152
-0.027406694 -0.035797734 0.11437339
-0.024300197 -0.037698016 0.11485845
-0.021560315 -0.039304323 0.11511815
0.015495007 -0.038841505 0.11161536
0.0189394 -0.037638444 0.11231571
0.022863833 -0.03611587 0.11102062
0.026831696 -0.034768581 0.11133367
0.029960427 -0.033608336 0.11210209
-0.0239859 -0.038150258 0.11017597
-0.020587742 -0.040054627 0.11061692
-0.016398184 -0.041114893 0.10960132
0.014701057 -0.03976592 0.10858083
0.018765301 -0.03886383 0.10756087
0.021492541 -0.037764482 0.10644531
-0.020309633 -0.039402723 0.10588515
-0.015635628 -0.040531192 0.1055336
-0.012076092 -0.042456407 0.10533631
0.011780109 -0.042527933 0.10435778
0.014523406 -0.040854845 0.10369962
0.017795209 -0.039756928 0.10293549
-0.01404075 -0.04114994 0.10168219
-0.011351989 -0.043024626 0.10123456
-0.0076456447 -0.044695515 0.10104686
-0.0040093055 -0.045610633 0.099211514
0.0010808951 -0.045335822 0.099653423
0.0061684102 -0.044900127 0.099951208
0.0098673841 -0.043906126 0.099969566
0.014342679 -0.042215466 0.099043429
0.017091362 -0.041074533 0.098851383
-0.010832323 -0.043272052 0.097500086
-0.007317638 -0.04431469 0.096514165
-0.0032480706 -0.045096312 0.096179783
0.00042544145 -0.045352325 0.096201241
0.0048635681 -0.045066629 0.095690131
0.0090200454 -0.044460602 0.095664799
0.013056537 -0.042991929 0.094571233
-0.0036108233 -0.044907078 0.091663718
0.00019165661 -0.044859461 0.091601729
0.0031960388 -0.044277601 0.091692269
-0.039734397 -0.026773605 0.13052168
-0.036089577 -0.026731508 0.13087901
0.03263171 -0.026852386 0.12560737
0.03515571 -0.026258316 0.12561247
-0.035627451 -0.02640944 0.12612396
-0.033330821 -0.028678026 0.12709618
0.032258112 -0.027242865 0.12237275
0.035986811 -0.026295049 0.12141734
-0.032691307 -0.029450502 0.12190729
0.032537434 -0.028235385 0.11749339
0.037237573 -0.027150495 0.11786407
0.038610369 -0.026916249 0.11758864
-0.031961586 -0.030469231 0.11650395
-0.02968616 -0.033231396 0.11716652
0.031514343 -0.030441234 0.11320025
-0.031326644 -0.032144155 0.11243439
-0.029300222 -0.034325585 0.11380082
0.024355659 -0.035348959 0.10808355
0.028064001 -0.034235053 0.10950673
0.030660514 -0.032032117 0.10876417
-0.031478759 -0.033027854 0.10928994
-0.02854153 -0.035702705 0.10899299
-0.025334232 -0.037442207 0.10787851
0.023440901 -0.036076784 0.10525316
0.027071137 -0.033960395 0.10476762
0.029900564 -0.032042436 0.10490358
-0.028862419 -0.036145195 0.10596818
-0.023970965 -0.036653433 0.10351408
-0.021058774 -0.039160557 0.10306847
-0.017407801 -0.039590582 0.1024549
0.01962854 -0.038286466 0.10065174
0.0225801 -0.036141004 0.10020572
0.02628151 -0.034692917 0.10153025
-0.023664178 -0.036910519 0.10044134
-0.020815395 -0.038682256 0.098468184
-0.016401378 -0.040103622 0.098739803
0.018839687 -0.038964577 0.095605612
0.021948155 -0.037114315 0.096036792
-0.016207933 -0.040353708 0.093864679
-0.01184794 -0.042219758 0.094073355
-0.0089591974 -0.043352775 0.09352237
0.014413719 -0.042243261 0.091976285
0.017630905 -0.039979834 0.091926932
-0.014556219 -0.041323647 0.090019464
-0.011692675 -0.042483177 0.089171708
-0.0077497144 -0.04381432 0.089912117
-0.0037231711 -0.044945188 0.088734925
0.00070726179 -0.044922505 0.088957667
0.0046456419 -0.043921351 0.089057505
0.0085586291 -0.04318944 0.088413894
0.012213212 -0.041899376 0.087692976
0.015439443 -0.04094461 0.087966621
-0.0072921696 -0.044402003 0.084460437
-0.0038656667 -0.045390896 0.085177481
0.00021959947 -0.045768552 0.085294247
0.0042898948 -0.044783849 0.084155083
0.0083718644 -0.04376328 0.082982719
-0.0040167612 -0.045414858 0.081219971
0.00039637461 -0.045495886 0.080544829
0.0041573364 -0.045026064 0.080395579
-0.03701181 -0.02564151 0.1238229
0.035312355 -0.025316834 0.11838537
-0.035231277 -0.024923597 0.11922938
-0.033798344 -0.027352605 0.11923593
0.035452843 -0.025881018 0.11528534
-0.035556942 -0.027250784 0.11240971
-0.033981558 -0.028590202 0.11541605
0.033006214 -0.027244806 0.11040097
0.035005011 -0.025802903 0.11023766
-0.0334993 -0.030345287 0.11101514
0.032484904 -0.02875226 0.10535222
0.034289703 -0.027160816 0.10535479
-0.033030659 -0.031895347 0.10643309
-0.030273212 -0.033785924 0.1059528
0.031043686 -0.030897975 0.1018821
-0.031866554 -0.031984143 0.10249931
-0.02908691 -0.033376951 0.10257202
-0.025956353 -0.034299936 0.10089958
0.024145925 -0.034759436 0.097773671
0.027132211 -0.033789143 0.098156512
0.030454287 -0.031854987 0.097819269
-0.024972228 -0.035643086 0.097416043
0.023665808 -0.036121435 0.094561934
0.026629645 -0.03464004 0.093817532
-0.024626156 -0.036507625 0.092209041
-0.021431068 -0.038248453 0.093342304
-0.01726687 -0.039650049 0.09064424
0.018633274 -0.038857803 0.089371741
0.022488181 -0.037157483 0.090102136
0.02528947 -0.035546627 0.089491606
-0.024228647 -0.037334356 0.088944972
-0.021331184 -0.038637504 0.088213682
-0.017380634 -0.040167078 0.08813256
-0.014240122 -0.041505881 0.086849689
0.013523516 -0.041341323 0.085119784
0.016775295 -0.039836731 0.085223496
0.020085754 -0.037487473 0.085892081
-0.020283297 -0.039628081 0.084809542
-0.017469196 -0.04063705 0.083170891
-0.01281344 -0.042462692 0.08298558
-0.0093804207 -0.042907834 0.083201349
0.012473307 -0.042107005 0.081222296
0.016246498 -0.040240545 0.080720365
-0.017780354 -0.041454025 0.079326332
-0.012723718 -0.04258183 0.078219056
-0.0082452204 -0.043352876 0.077532947
-0.0041580931 -0.044131842 0.077024817
-0.00032307848 -0.044895735 0.077320576
0.0040541464 -0.044711862 0.077101707
0.0080207819 -0.043466143 0.076968849
0.012360232 -0.04168766 0.076829195
0.015106527 -0.041163478 0.076186597
-0.0079807946 -0.04417726 0.072918236
-0.0045053703 -0.044415697 0.072525084
-0.00022947894 -0.044438943 0.072052956
0.0039453013 -0.043592691 0.073040903
-0.0058488315 -0.045382824 0.06921798
-0.00020890895 -0.045907922 0.067951679
-0.036755424 -0.026263628 0.10910839
0.035787143 -0.024634328 0.10369664
-0.036723409 -0.028919935 0.10564315
-0.034632977 -0.030147059 0.10303104
0.032709744 -0.028700761 0.098888993
0.034696806 -0.026354568 0.099707782
-0.03613355 -0.028446998 0.10163516
-0.033006825 -0.029750399 0.09928596
-0.029600689 -0.031400442 0.09868753
0.031521935 -0.030115638 0.094747305
0.034160383 -0.026501451 0.095898688
-0.03223969 -0.029616799 0.096472085
-0.028519699 -0.031329684 0.094284236
-0.026723133 -0.033863731 0.094940484
0.028151745 -0.033732023 0.090689719
0.030204954 -0.031199865 0.090306997
-0.028376894 -0.033498902 0.089721918
-0.026548022 -0.035305586 0.09123987
0.026914857 -0.0340239 0.087035775
0.029487388 -0.032300849 0.084940493
-0.028561819 -0.034695268 0.085798442
-0.025912128 -0.03689228 0.08638823
-0.023000108 -0.038289018 0.085742891
0.021429325 -0.036527038 0.082943857
0.025141682 -0.035297308 0.082281888
0.027942766 -0.034398641 0.082310617
-0.025162637 -0.037223801 0.081275284
-0.021956407 -0.039214559 0.082268894
0.018019393 -0.038822398 0.078884363
0.020456711 -0.036360536 0.077775121
0.024107199 -0.035659585 0.077980995
-0.021689201 -0.039981518 0.078383625
-0.017917342 -0.040766768 0.076343715
-0.015148491 -0.041965537 0.07663244
0.012311279 -0.040327039 0.073549807
0.016728522 -0.03967391 0.074709475
0.019347798 -0.03715539 0.074246824
-0.016723156 -0.040417418 0.072240174
-0.013252274 -0.042279892 0.072778881
-0.0094391024 -0.04402915 0.070838273
-0.0030474397 -0.044425607 0.070177853
0.0035749888 -0.043509416 0.070152938
0.008235978 -0.042406745 0.071105421
0.012230289 -0.040137444 0.070543408
