# .PCD v0.7 - Point Cloud Data file format
VERSION 0.7
FIELDS x y z
SIZE 4 4 4
TYPE F F F
COUNT 1 1 1
WIDTH 1339
HEIGHT 1
VIEWPOINT 0 0 0 1 0 0 0
POINTS 1339
DATA ascii
0.0066056754 0.021714449 0.29754189
0.0024484079 0.021813972 0.29786572
-0.0016780717 0.021648543 0.29752034
-0.00646532 0.021674037 0.29829255
-0.015697828 0.021716798 0.29615486
-0.019276377 0.020394953 0.29502431
-0.021883743 0.01998266 0.29324499
0.013585907 0.022902848 0.29192474
0.010771657 0.02373377 0.29394174
0.0073200213 0.023631437 0.29543898
-0.01638131 0.023732491 0.2934908
-0.019512584 0.023426004 0.2918928
-0.0230512 0.022600189 0.28995019
-0.026043853 0.021662336 0.28830433
0.014725502 0.025169289 0.28860196
0.011901964 0.026501197 0.29012442
-0.023720214 0.025903853 0.28694719
-0.02698989 0.023861747 0.28513059
0.018455667 0.025769388 0.28370607
0.015878078 0.028017489 0.28481442
-0.025023956 0.027871931 0.28300551
-0.027261084 0.026730383 0.28110039
0.018615127 0.028734175 0.27975741
0.016705977 0.02983669 0.28027213
-0.027656237 0.029411161 0.27752069
-0.030317904 0.027901359 0.27593744
0.018827101 0.030516082 0.2751399
0.016896345 0.032094344 0.2759414
-0.027910212 0.032025624 0.27341163
-0.030466225 0.029849613 0.27198687
0.019042742 0.032223448 0.27047327
0.017100798 0.034023643 0.27142042
-0.027497571 0.034088932 0.26871935
-0.030039636 0.032267533 0.26748526
0.019279961 0.034383111 0.26525745
0.016482109 0.036489792 0.26698321
-0.027341947 0.035956006 0.26578763
-0.030121632 0.035108428 0.2634815
0.019458577 0.035991311 0.26133537
0.016262082 0.038077712 0.26241586
0.011929592 0.039496012 0.26179576
-0.027291857 0.03781848 0.25850382
-0.029043373 0.036190506 0.25930753
0.016278462 0.039298501 0.25840864
0.012420508 0.040861592 0.25875923
-0.017903432 0.040910177 0.25594589
-0.021912122 0.040179182 0.25632489
-0.025974177 0.037845198 0.25532648
0.015172464 0.039811797 0.25467849
0.012329897 0.04076539 0.2531817
0.0087149534 0.041955728 0.25321919
0.0052259532 0.042990752 0.25309724
-0.013703403 0.0423037 0.2517454
-0.017564092 0.041247115 0.25144097
-0.021807216 0.040758181 0.25109875
-0.024935301 0.039784208 0.25029534
0.011270151 0.041006941 0.2491461
0.0088091176 0.041853242 0.24835408
0.0044460003 0.043293867 0.24853709
0.00052177836 0.044393726 0.24845323
-0.0023387417 0.045618806 0.24796721
-0.013083864 0.043433446 0.24741191
-0.017279997 0.041902337 0.24632728
-0.020855179 0.04131113 0.24620506
-0.023572227 0.040412966 0.24664924
0.0043105059 0.044538055 0.24398673
0.0002895548 0.046253648 0.24441043
-0.003884143 0.046792135 0.24334899
-0.0083993897 0.044693775 0.24342117
-0.011872001 0.042982221 0.24362347
-0.018417366 0.042545147 0.24335909
-0.019664986 0.042336244 0.24314857
0.003571311 0.045573134 0.24001658
0.0010623614 0.046934471 0.24075872
-0.0038892471 0.045811057 0.23972133
0.0082629053 0.0089743147 0.31637654
0.0084320279 0.0081122275 0.31280228
0.0060957693 0.0097601768 0.31207603
0.0034990492 0.011702402 0.31113794
0.0059859823 0.01034311 0.30743697
0.0036287834 0.012080261 0.30817604
-0.016070519 0.011494413 0.30648535
0.008909734 0.01218331 0.30220154
0.0063327965 0.013807553 0.30368149
0.0022585941 0.01485857 0.3039729
-0.015385558 0.013579384 0.30252492
0.010140747 0.015546748 0.29905641
0.0071023763 0.016602211 0.30041981
-0.017209632 0.016258528 0.29951769
-0.019825745 0.015683463 0.29765928
0.014584134 0.017526578 0.29432392
0.010694162 0.017986435 0.29699445
-0.020772679 0.017967325 0.2954236
-0.023393208 0.017466798 0.29359683
0.018213136 0.018970935 0.29038137
0.015998233 0.020480635 0.29129827
-0.02371271 0.019710965 0.29138711
-0.027882928 0.019097939 0.28794584
0.022311725 0.020752432 0.28354806
0.01926467 0.021344919 0.28669211
0.017016364 0.022603411 0.2882846
-0.028764417 0.0214708 0.28441763
0.022393087 0.022602594 0.28135407
0.020407075 0.023999693 0.28282893
-0.028883932 0.024074536 0.28143507
-0.031251773 0.023260524 0.27899826
0.023449115 0.0248369 0.27758878
0.020571552 0.02681024 0.27877504
-0.032095432 0.025737811 0.27531523
-0.033728253 0.023747254 0.27366835
0.023984347 0.027113048 0.27347404
0.020767219 0.0289698 0.274358
-0.032141574 0.028769678 0.27017161
-0.034136012 0.026202522 0.26936483
0.024177073 0.029332282 0.26907599
0.020962602 0.031128597 0.2699427
-0.031986121 0.030123452 0.2660948
-0.03393352 0.028293675 0.26489142
0.024378806 0.03138563 0.26458272
0.020949645 0.03301074 0.26562291
-0.031798098 0.032293998 0.26250315
-0.033641078 0.030572632 0.26088771
0.024403296 0.033606142 0.26038438
0.021378104 0.034946378 0.26081353
-0.030754253 0.032587867 0.25594765
-0.032984309 0.030935114 0.25586051
0.02382103 0.034654912 0.25625351
0.020949179 0.036266737 0.25666419
0.018467987 0.037774649 0.25580284
-0.027213044 0.03671341 0.25290442
-0.029861748 0.034674779 0.25257593
0.020562615 0.036669988 0.25193387
0.01712976 0.038571496 0.25164825
-0.026850535 0.038155876 0.24915352
-0.02957426 0.036417857 0.24851555
0.016410595 0.03914462 0.24661058
0.012766911 0.040782042 0.24722931
0.0089052971 0.0418326 0.24621764
-0.021600101 0.041230503 0.24397832
-0.025429999 0.039395977 0.24422914
-0.02865026 0.037459832 0.24445987
0.016162371 0.040334854 0.24291927
0.012700968 0.041520596 0.24258709
0.0090707336 0.042545252 0.24253184
0.0062194513 0.043570623 0.24108556
-0.0089473678 0.042981353 0.24005985
-0.012730978 0.041799445 0.24022585
-0.016622331 0.041575007 0.23989499
-0.020972794 0.041269235 0.23965392
-0.023926288 0.039896909 0.23998043
0.009279063 0.041832805 0.23790595
0.0047674328 0.044297524 0.23737299
0.00014045925 0.044454064 0.23712528
-0.0037903772 0.044977274 0.23667693
-0.0081811119 0.044495497 0.236929
-0.011927919 0.043174267 0.23583025
-0.016304387 0.042713132 0.23526099
-0.019461662 0.042175617 0.23555419
0.0040851701 0.044770513 0.23254624
0.00046017376 0.044763055 0.2317622
-0.0037385707 0.045363359 0.23207757
-0.0079805013 0.046197653 0.23221269
-0.011612491 0.044049077 0.23160785
-0.018023053 0.043499097 0.23064262
-0.019279361 0.043248449 0.23039979
0.0094137546 0.0072703203 0.30979878
0.0068209702 0.0090334769 0.30682099
0.011229384 0.0096774623 0.3013615
0.014761208 0.011323879 0.29662374
0.012443625 0.011763302 0.29846933
0.019311061 0.01352794 0.29212815
0.015855106 0.013547149 0.29494393
0.020200593 0.016588008 0.2892015
0.023971526 0.017415661 0.28385264
0.020953499 0.018456001 0.28623381
0.025065839 0.019541861 0.27978832
0.027813194 0.020339424 0.27551132
0.025920432 0.022299888 0.27684516
0.02800327 0.022630183 0.27110854
0.026644198 0.024344396 0.27202448
0.028155612 0.025543675 0.26707596
0.026814641 0.026961312 0.26783326
-0.035873584 0.026838385 0.26390955
-0.037205204 0.025187319 0.26285002
0.028823946 0.027128631 0.26201603
0.027014716 0.02906166 0.2633453
-0.035423346 0.028667701 0.25878546
-0.037717305 0.027048567 0.25733817
0.029424859 0.028792877 0.25809491
0.026921382 0.031213557 0.2584556
-0.034616116 0.029988881 0.2541208
-0.037954729 0.028236607 0.25308052
0.028749106 0.029695122 0.25473201
0.026360644 0.03193561 0.25410214
-0.031538319 0.032818638 0.25132287
-0.034098443 0.031564794 0.25038895
-0.037017729 0.029688884 0.24946398
0.024677657 0.033146847 0.24976212
0.021995885 0.034806136 0.24918601
-0.031022472 0.034248177 0.24518928
-0.033474971 0.032421824 0.24663883
0.024131406 0.034307193 0.24482429
0.02159176 0.035585102 0.24464846
0.018993063 0.037348051 0.24561808
-0.027350752 0.036622215 0.24066851
-0.029313777 0.035376698 0.24142233
0.020845685 0.03640151 0.24051762
0.018174376 0.038168654 0.23982209
0.014276111 0.040010795 0.23869097
-0.025216032 0.038092319 0.23672375
-0.027692931 0.036039997 0.23607928
0.017505417 0.038445611 0.23482999
0.013821397 0.039670844 0.23507625
0.0094138058 0.041102886 0.23491406
0.0068879379 0.041690111 0.23514992
-0.021069663 0.040844627 0.23350075
-0.024533954 0.038823057 0.23219809
-0.02796408 0.038134623 0.23129618
0.013777418 0.039487585 0.2315765
0.009524853 0.040799517 0.22988623
0.0058394927 0.042749252 0.23040056
0.00060891832 0.04329535 0.23022506
-0.0016250185 0.044128418 0.22868308
-0.011987498 0.042923827 0.22766858
-0.015699586 0.042155027 0.22884306
-0.02079965 0.041625995 0.22854653
-0.024781365 0.040383387 0.22801188
-0.028806804 0.039639775 0.22797805
0.009809087 0.041791983 0.22610027
0.0054263864 0.043659467 0.22540396
0.0010204602 0.043884721 0.22529185
-0.0032131514 0.043939795 0.22522798
-0.0075193341 0.043996248 0.22468314
-0.011072616 0.042452268 0.22427052
0.005195898 0.044076715 0.221935
0.0012113616 0.044558339 0.22066277
-0.0025659951 0.044511795 0.22040421
-0.0067325146 0.044304986 0.22035259
-0.010179635 0.043388385 0.22087973
-0.003074751 0.045122012 0.21738163
-0.004936072 0.045367904 0.21658567
0.030253233 0.022258045 0.26525852
0.032434929 0.023866095 0.25971794
0.030617325 0.024864642 0.26131639
0.03260636 0.024245795 0.25662592
0.030893356 0.027069775 0.255467
-0.040267412 0.026953336 0.25160027
0.029359587 0.028188741 0.2521717
-0.039070308 0.028381497 0.24811193
0.029098153 0.028658256 0.24909902
0.027052024 0.031426758 0.24757057
-0.034258869 0.029737929 0.24256206
-0.037971098 0.028237527 0.24474692
0.026365766 0.032835402 0.24318084
-0.030971954 0.032824818 0.23926932
-0.033289518 0.030400001 0.23799753
0.025372911 0.033414554 0.23787129
0.022408694 0.035523538 0.23814833
0.019435193 0.037004676 0.23703802
-0.030103633 0.034400221 0.234869
-0.032447074 0.032618724 0.23356956
0.022015201 0.036064219 0.23340574
0.019294703 0.037388716 0.23347959
-0.030395908 0.036910158 0.23092106
-0.032529559 0.035453945 0.22949326
0.021064719 0.03662467 0.23011214
0.018102748 0.038025346 0.22973248
0.014188224 0.038889732 0.22894108
-0.023017269 0.040584832 0.22500548
-0.029750824 0.038588911 0.22538042
-0.03209389 0.036718007 0.22696319
0.021248277 0.038238749 0.22609279
0.012821693 0.038329788 0.22507679
0.0093629435 0.04137877 0.22477248
-0.012160584 0.041852627 0.22226655
-0.01597783 0.041181669 0.22243181
-0.020281747 0.040940423 0.22234872
-0.024072511 0.039276376 0.22162354
-0.02753612 0.03725731 0.22249064
0.0088438131 0.041977949 0.2193431
0.0059663788 0.043130279 0.21898821
-0.0081738476 0.044308409 0.21822104
-0.011539611 0.042823181 0.21848905
-0.015815578 0.042094078 0.21794352
-0.019897847 0.041393537 0.21746078
0.0053648087 0.043026567 0.21509677
0.0014480235 0.044603758 0.21471947
-0.0022060571 0.045403004 0.21454531
-0.0070283492 0.044714212 0.21404412
-0.011085404 0.043496184 0.21343005
-0.015037946 0.042494316 0.21354976
-0.01887022 0.042611413 0.21469095
0.0013939259 0.044457335 0.2096217
-0.0021530434 0.044843979 0.20951006
-0.0061740512 0.044417996 0.20925653
0.030885031 0.024164559 0.24976939
0.030773593 0.026606647 0.24516028
-0.035362307 0.027926136 0.23966834
-0.037683532 0.025615195 0.23999164
0.030238131 0.028287753 0.24050662
0.028282167 0.030571463 0.2401596
-0.035275064 0.028471721 0.2366429
-0.036985833 0.026052881 0.23541683
0.029849926 0.028924841 0.23579761
0.027980587 0.03080908 0.23569164
-0.034452919 0.030199474 0.23187578
-0.036549691 0.02709797 0.23229095
0.026288876 0.032869786 0.23172545
0.023626164 0.034444269 0.2305218
-0.034528289 0.0312439 0.22773248
0.025542472 0.032705735 0.22720417
0.022482889 0.035168465 0.22780722
0.019542217 0.036117706 0.22684073
-0.032137454 0.034799591 0.2239787
0.018501753 0.035687275 0.22120297
0.014407679 0.036975607 0.22159204
0.010975124 0.037977729 0.22144824
-0.025104519 0.037236109 0.21805665
-0.027981613 0.035823327 0.21904653
0.018402316 0.03732276 0.21706027
0.014690139 0.038093142 0.21702206
0.010812964 0.039789625 0.21795726
-0.021533886 0.039659243 0.21506467
-0.023734124 0.037811223 0.215094
0.013602826 0.039575305 0.21280232
0.010377998 0.040802225 0.2134642
0.0066231401 0.042536873 0.21198606
-0.012383217 0.042602062 0.20990753
-0.015465491 0.042140927 0.21043488
-0.019744664 0.040452465 0.21106905
-0.02277026 0.038348842 0.21149749
0.01354998 0.04035759 0.20930344
0.010489809 0.041836023 0.20837381
0.0061569288 0.043342967 0.20807871
0.00205794 0.044402108 0.20728689
-0.0020527847 0.044493303 0.20667335
-0.0069384445 0.04412714 0.2066983
-0.011001365 0.043170538 0.20693076
-0.014826374 0.041941728 0.20583045
-0.018231219 0.040696058 0.2062642
0.010155314 0.042382274 0.20415828
0.006359383 0.044047698 0.20338216
0.0018881642 0.044823494 0.2036722
-0.0019295884 0.045062389 0.20361575
-0.0063766157 0.04461183 0.20302668
-0.010679797 0.043656249 0.20230228
-0.013851235 0.042258892 0.20205578
0.0052222637 0.044382997 0.20006731
0.0023464214 0.045040473 0.19862363
-0.0017352384 0.045136776 0.19845054
-0.0060026357 0.044643607 0.19842154
-0.0094128363 0.04437891 0.19831795
0.031927921 0.021973731 0.24762926
0.034190137 0.024344601 0.23856562
0.032283124 0.026291629 0.23935434
0.034521528 0.025347289 0.23461896
0.031619031 0.027066557 0.23384556
-0.037827067 0.026184896 0.22906271
0.03026022 0.027827078 0.22911945
0.028572967 0.029268624 0.2279647
-0.033681016 0.029912043 0.22405586
-0.036441799 0.026812073 0.22527516
0.026618196 0.029912764 0.22426045
0.023397988 0.031865668 0.22365084
-0.032308795 0.029709011 0.21884337
0.022353303 0.032525543 0.21885672
0.019941004 0.034204297 0.2215752
0.015824569 0.034351435 0.22056586
-0.029049678 0.03344224 0.21523401
-0.031513933 0.031404577 0.21571553
0.022203198 0.034014501 0.21510026
0.020219099 0.036174163 0.21560094
-0.025009632 0.03621079 0.2121886
-0.02807638 0.034374729 0.21189213
-0.031214867 0.032786503 0.21095839
0.022069659 0.035178173 0.21111518
0.019467428 0.03686377 0.2112624
0.016225612 0.037802186 0.21172249
-0.024209233 0.036420051 0.20811772
-0.02766631 0.034427095 0.20804548
-0.030589985 0.033637863 0.20775756
0.019230152 0.037457891 0.20621815
0.015552038 0.03912035 0.20604944
0.012033448 0.041123323 0.20511547
-0.020200899 0.039242096 0.20417771
-0.022601798 0.037187725 0.20287064
0.015251768 0.040154763 0.20127714
0.011089238 0.042004466 0.20169777
-0.012055876 0.042782206 0.19962907
-0.015082592 0.041659612 0.19980541
-0.01852607 0.040557709 0.19939083
-0.021823851 0.038216773 0.19927093
0.013655752 0.040582079 0.19781816
0.010951348 0.041958127 0.19711548
0.0074048522 0.043433037 0.19753733
0.0047161165 0.044921227 0.19692743
-0.0067716907 0.04438591 0.19585332
-0.011022705 0.043258872 0.19628218
-0.014514673 0.041950569 0.19537345
-0.018150372 0.040724158 0.1953226
0.010341343 0.04298503 0.19276369
0.0073505105 0.044194169 0.19239262
0.0029729838 0.045099325 0.19255865
-0.0015027116 0.044830389 0.19209471
-0.0053401352 0.044291086 0.19146961
-0.0095586749 0.043859992 0.19115344
-0.013764733 0.042214241 0.19208974
0.0063727447 0.044470105 0.1878778
0.0029425996 0.045432329 0.18697345
-0.0012824575 0.045723695 0.18658638
-0.0053289817 0.045219846 0.18647674
-0.0083367275 0.045333929 0.18587711
0.032089271 0.025480019 0.22731608
0.031218985 0.025996637 0.22226828
0.028500117 0.027643155 0.22227913
-0.033783916 0.025941402 0.2179614
-0.035051472 0.025684625 0.21597749
0.026234934 0.027744414 0.21792993
0.024011062 0.029382044 0.21898985
-0.033510339 0.029630333 0.21439245
-0.034901273 0.02760989 0.21380892
0.025851266 0.029030496 0.21494883
0.023927238 0.031362947 0.21381813
-0.032977905 0.031658441 0.20929331
-0.034701467 0.029564887 0.20905501
0.023165386 0.033964384 0.20902568
-0.028198322 0.034222275 0.20551705
-0.031891923 0.032325469 0.20502001
0.022385865 0.035167087 0.20500791
0.020784859 0.037235856 0.20418555
-0.024681292 0.036019713 0.2017445
-0.027838772 0.03451027 0.20153952
-0.030793957 0.033171669 0.20085716
0.022552349 0.035453442 0.20170689
0.020034974 0.037837133 0.19973809
0.017471129 0.039495297 0.1990197
-0.023497103 0.037291899 0.19675076
-0.027140198 0.03537108 0.19691905
0.018956352 0.037990861 0.19537321
0.01589112 0.039584756 0.19530326
0.012503771 0.041386433 0.19481063
-0.01867268 0.040167894 0.19250786
-0.022452006 0.037784096 0.19226593
0.015126062 0.039981622 0.19061828
0.011811707 0.042412825 0.19110435
0.0088892039 0.043658752 0.18919614
-0.011728253 0.042374153 0.18879297
-0.014531108 0.041389808 0.18916419
-0.01809158 0.039911527 0.18859285
0.014169005 0.041109987 0.18672702
0.011619813 0.042475156 0.18581042
0.0079147993 0.044068441 0.18567032
0.004570975 0.045365043 0.18489012
-0.0044244197 0.045430541 0.18440694
-0.011019336 0.043621149 0.18494508
-0.013910811 0.041430578 0.18421197
-0.01685527 0.039954901 0.18492076
0.0076096263 0.043430381 0.18138415
0.0031632066 0.04502913 0.18134546
-0.0010805958 0.045485362 0.18108243
-0.0049421899 0.045558777 0.18091035
-0.0092788599 0.044972267 0.18037289
0.0022936871 0.044606872 0.17703724
-0.00093726354 0.044681158 0.17690331
-0.004813849 0.045058761 0.17696279
-0.0086867306 0.04526021 0.17688799
0.033246528 0.023909317 0.22412509
0.035634648 0.023818377 0.22044182
0.033107523 0.024543852 0.22063011
-0.033854604 0.024281038 0.21684721
0.035546962 0.024672188 0.21781212
0.032173622 0.025501937 0.21663982
0.028799403 0.026186127 0.21643233
0.031314366 0.026338529 0.21133322
0.027999757 0.027943766 0.21171075
0.024761811 0.029572403 0.21088636
-0.036727123 0.02583064 0.20674494
0.027614685 0.029167058 0.20638478
0.024931729 0.030712573 0.20730156
-0.033198144 0.03105492 0.20230106
-0.034639016 0.028411027 0.20212519
0.027047509 0.030103073 0.20206502
0.024505848 0.031767271 0.20273411
-0.032603048 0.031129306 0.19851434
-0.034560915 0.028701421 0.19880596
0.023718787 0.03311849 0.19783929
-0.028451834 0.034428474 0.19404551
-0.031556271 0.032177512 0.19372681
0.023640271 0.033185877 0.19394904
0.020745309 0.036537714 0.19328457
-0.023557104 0.037279483 0.18966764
-0.027082121 0.034748245 0.18922895
-0.030259229 0.032704197 0.18949899
0.020220248 0.037083253 0.18882102
0.017642187 0.038517646 0.18902352
-0.019510968 0.03867868 0.18560016
-0.022168478 0.037579432 0.18641272
-0.025735103 0.035961214 0.1852653
0.019920401 0.037598543 0.18475634
0.016421001 0.039417133 0.18422017
0.013063705 0.041577306 0.18254769
-0.014980687 0.041057415 0.18109381
-0.018269453 0.039060935 0.18216264
-0.021875076 0.037630368 0.18133044
-0.024667328 0.036956187 0.18133584
0.015533272 0.039766893 0.17989594
0.011756487 0.041648474 0.17916116
0.0083156712 0.042661428 0.17842457
0.0048305239 0.043481011 0.17812386
-0.011332321 0.043348279 0.17706841
-0.013988376 0.041680355 0.17743957
-0.017819513 0.039658684 0.17682797
-0.02063092 0.038060494 0.17791188
0.01125015 0.041646481 0.17470431
0.0082339067 0.042902622 0.17428416
0.0039391601 0.044256859 0.17470902
-0.00083576428 0.044587918 0.17414168
-0.0047152983 0.044237342 0.17364332
-0.0089816172 0.043718576 0.17337897
-0.013432669 0.042233296 0.17249274
-0.016903406 0.04086348 0.17244467
0.003412796 0.04367464 0.17037898
-0.0006805585 0.044114318 0.16978824
-0.0045859572 0.043695435 0.16962197
-0.0081714243 0.043228168 0.1695025
0.033915158 0.023081459 0.21313289
0.033171497 0.024395742 0.20920867
-0.037452426 0.025080439 0.20316982
0.031536873 0.025502037 0.20457134
-0.036737379 0.025170306 0.19973981
0.030639095 0.026352424 0.20016778
0.028960206 0.028260114 0.20007959
-0.036074027 0.026851054 0.19541854
0.027561424 0.028837478 0.1955125
0.025508629 0.031304549 0.19626555
-0.035060424 0.029179621 0.19201925
0.027021103 0.030173423 0.19286853
0.024470758 0.031977199 0.1909565
-0.031581264 0.031484991 0.18726131
-0.034975421 0.029636618 0.18878564
0.023905376 0.033265579 0.18633464
0.02202931 0.035448488 0.18657476
-0.027884927 0.034265243 0.18363428
-0.029235609 0.032865282 0.18252394
0.023614177 0.033624995 0.18172234
0.021394609 0.035935272 0.18180984
-0.023307135 0.036782328 0.17859399
-0.026371423 0.035005432 0.17862675
-0.028706707 0.033350173 0.17931709
0.020711644 0.03639482 0.17790264
0.017074648 0.038306236 0.17717227
0.01335646 0.04028305 0.17619598
-0.019156814 0.039630175 0.17377943
-0.021733491 0.037136227 0.17489755
-0.025034031 0.035083752 0.17481199
0.020023353 0.036914706 0.17402869
0.016418591 0.038589783 0.17237023
0.012652197 0.04106278 0.17253175
-0.012471938 0.041754995 0.17037588
-0.018164249 0.04027462 0.17010987
-0.021149343 0.038361873 0.16959026
0.015058957 0.039689083 0.16767699
0.012278711 0.040574618 0.16751558
0.0084972344 0.041762557 0.16798598
0.004392548 0.042902317 0.16741914
-0.00058823143 0.043689303 0.16713324
-0.0044872151 0.043116383 0.16645777
-0.0086769145 0.042330522 0.1663267
-0.013020366 0.040856022 0.16601595
-0.017631553 0.039665017 0.16573367
-0.020287514 0.038712706 0.16575295
0.01130935 0.041675143 0.16352481
0.0085149128 0.041961808 0.16319349
0.0047842492 0.042730756 0.16305539
0.00020571367 0.043248959 0.16319317
-0.0043566362 0.042712517 0.16250437
-0.0082731405 0.042116556 0.16180682
0.0042663706 0.043233939 0.15976217
0.00022321507 0.043461699 0.15933856
-0.0042301891 0.043034334 0.15910614
-0.007498662 0.042853221 0.15877122
0.033897277 0.022821976 0.20233744
0.03217002 0.023780979 0.19755441
0.031093828 0.024751784 0.19280183
0.029660387 0.026620237 0.19405282
-0.037144247 0.02645562 0.18994683
0.028298035 0.027654087 0.18969095
0.025952963 0.030164277 0.18831789
-0.032974098 0.029045664 0.18489492
-0.035284881 0.026854683 0.18496403
0.027498765 0.028643286 0.18459523
0.025830984 0.031167323 0.18409443
-0.03100268 0.029669829 0.17970538
-0.032976255 0.027736643 0.18123803
0.025458327 0.031878747 0.17936918
-0.029829863 0.031387106 0.1759851
0.024267443 0.033238705 0.17558372
0.022184324 0.034935854 0.17507681
-0.023207195 0.035493694 0.17221102
-0.026342304 0.033689514 0.17187113
-0.028593276 0.032118555 0.17115742
0.021294679 0.035122633 0.17091835
0.018553983 0.037608761 0.17038015
-0.023075253 0.036304642 0.16829124
-0.0254662 0.034750544 0.16767243
0.020365173 0.035411749 0.16742951
0.017133217 0.038142391 0.16568765
0.013851087 0.04033317 0.16536832
-0.017565848 0.039043922 0.16251701
-0.021731609 0.037681509 0.16281348
-0.024792448 0.036022883 0.16267627
0.016226016 0.039143953 0.16152391
0.013074699 0.040846314 0.16180056
0.0094568823 0.041953273 0.16088846
-0.012203936 0.040381093 0.16021338
-0.016808063 0.039085202 0.15892518
-0.021197297 0.037759833 0.15873224
-0.024128687 0.036926046 0.15864363
0.015534204 0.039490648 0.15746054
0.012744722 0.041313581 0.15712744
0.0089510772 0.0422263 0.15739945
0.0052082078 0.042973332 0.1572493
0.00054465228 0.043300614 0.15671158
-0.0041331761 0.042969756 0.15630561
-0.0082623921 0.042544894 0.15611953
-0.011876535 0.040661778 0.15516734
-0.016296713 0.039325681 0.15509504
0.011767942 0.041296978 0.15313295
0.0084602349 0.04189074 0.15341496
0.0050202454 0.042694587 0.15253603
0.00062160613 0.04322122 0.15217307
-0.0039726268 0.043111119 0.15181679
-0.0079114158 0.042823382 0.15135592
-0.010602852 0.040932707 0.15153295
-0.0038411347 0.042888269 0.14794022
-0.0071315761 0.04303091 0.14786378
0.031996153 0.023381509 0.1868194
0.029660486 0.025444817 0.1866087
-0.035815965 0.024462815 0.18229774
0.03167437 0.02362822 0.18298882
0.029354138 0.026484031 0.18260601
-0.034532685 0.025283111 0.17776492
0.029066345 0.027728423 0.17776313
-0.031412333 0.029523507 0.17359349
-0.033624582 0.026762873 0.17283583
0.028545251 0.028897151 0.17332977
0.026216267 0.030959284 0.1731599
-0.030645782 0.029952865 0.16940251
-0.033172127 0.027878314 0.16891146
0.025262978 0.031647719 0.16876179
0.022956941 0.033534769 0.16888866
-0.02707595 0.033400141 0.1649195
-0.029684732 0.030731371 0.16478673
0.02487785 0.032479104 0.16405654
0.02201011 0.034235004 0.16455311
0.019219231 0.035582442 0.16382417
-0.02640949 0.034457903 0.16100302
-0.02870491 0.031899944 0.16045386
0.021620743 0.034581393 0.16011363
0.018697675 0.036360793 0.15887162
-0.021739459 0.037187319 0.15576324
-0.025627477 0.035258118 0.15586621
0.017182251 0.037939157 0.1547429
0.014348368 0.040476169 0.15447861
-0.013299149 0.039847154 0.15235871
-0.0169008 0.039442215 0.15261778
-0.021282589 0.038194809 0.15242648
-0.024619069 0.036757857 0.15108955
0.015887767 0.03924261 0.14986768
0.013378057 0.040347118 0.15037695
0.0094295675 0.041147489 0.15049165
0.0059783384 0.042004928 0.149656
-0.012023884 0.040384158 0.14892259
-0.016101647 0.039488811 0.1483821
-0.020638641 0.039011478 0.14737841
-0.024126969 0.038252179 0.14719972
0.013229156 0.040642772 0.14578313
0.0094539784 0.041224327 0.14550149
0.0054783458 0.041630235 0.14559972
0.00084922044 0.042067356 0.14568526
-0.0039180056 0.042945333 0.14479199
-0.0078993011 0.042649832 0.14511749
-0.011535974 0.040599141 0.14400291
-0.015380595 0.039688163 0.14420703
-0.020483201 0.039334264 0.14371583
0.0089406865 0.041558199 0.14200434
0.0056260624 0.04175479 0.14197257
0.0013053603 0.041956492 0.14108294
-0.002976028 0.042756304 0.14000314
-0.0073871426 0.042668018 0.14032456
0.033316039 0.023145629 0.18068445
0.033225492 0.023792423 0.17612699
0.03073507 0.026272316 0.17484841
-0.035597861 0.024998337 0.17179757
0.032278452 0.024577519 0.17183614
0.029877961 0.027348418 0.17065278
-0.034502223 0.026933104 0.16628611
0.02900728 0.028433206 0.16663548
0.027103839 0.030303907 0.16666216
-0.031160217 0.029886601 0.16198564
-0.033778034 0.027640034 0.16218671
0.02865852 0.029008579 0.16299069
0.026823135 0.03054883 0.16184792
-0.030531185 0.030349322 0.15831751
-0.032956164 0.028025402 0.15798548
0.025546901 0.032035898 0.15773678
0.022542577 0.034081481 0.15730825
-0.029221842 0.031251308 0.15417084
0.025097959 0.032459177 0.15338993
0.022434877 0.033959273 0.15286532
0.019121481 0.035992794 0.15211317
-0.026696531 0.034350768 0.14998665
-0.028119916 0.032046825 0.14901084
0.021952285 0.034319352 0.14907768
0.018671818 0.036222391 0.14760241
-0.025933035 0.03692957 0.14519203
-0.027917607 0.033887688 0.14394164
0.017357662 0.037884183 0.14348006
0.014203476 0.040254287 0.14311814
-0.012962545 0.040317841 0.14158732
-0.015905455 0.039649028 0.14161924
-0.020183116 0.039691992 0.14145845
-0.024984453 0.038096052 0.14094967
0.016362671 0.038245544 0.13972068
0.01355348 0.039673652 0.13907903
0.0099219428 0.040689468 0.13893178
0.0057439404 0.041577663 0.13901871
0.0017940621 0.04202199 0.13821626
-0.0028468941 0.042285562 0.13816422
-0.0088077141 0.041542463 0.13720381
-0.011526685 0.039838977 0.1375204
-0.015515648 0.039426584 0.13694948
-0.019977618 0.039980955 0.13731781
-0.023505863 0.03912985 0.13671216
0.012567145 0.039650407 0.13499272
0.0097374637 0.040682621 0.13433364
0.0059321998 0.041660581 0.13438532
0.0019383329 0.041969165 0.13441056
-0.002648243 0.042415585 0.13434491
-0.0073595606 0.042134438 0.1340096
-0.011383426 0.039660063 0.13266367
-0.015726233 0.039617963 0.13284957
-0.019365102 0.040130291 0.13259086
-0.022034248 0.039802343 0.13216364
0.0087539982 0.041479111 0.13061118
0.0057645459 0.04189815 0.1303151
0.0021160389 0.042112675 0.12980917
-0.0025452205 0.042189054 0.12960327
-0.0067496551 0.042138524 0.12900081
0.031152291 0.025334412 0.16773072
0.032724883 0.023339208 0.16445652
0.031029331 0.02564049 0.16378993
-0.035301302 0.026132325 0.15886399
0.029992498 0.027083263 0.159729
-0.034316242 0.026565975 0.15492165
0.029765915 0.028411135 0.1551508
0.027668409 0.029909546 0.15619892
-0.030969068 0.029551759 0.1515432
-0.033324681 0.027044736 0.15099949
0.029651804 0.029324057 0.15071166
0.026940493 0.031345271 0.15141544
-0.030161796 0.030799983 0.14790469
-0.032798391 0.028456599 0.14627141
0.026390662 0.032243837 0.14700699
0.022917479 0.034038667 0.14656529
-0.029887402 0.032258745 0.14292213
-0.032103587 0.029986225 0.1424517
0.025633048 0.033271555 0.14281198
0.0229997 0.034544814 0.14148778
0.019957785 0.036337189 0.14166808
-0.028599437 0.033984046 0.13852796
0.022330025 0.035083145 0.13684314
0.018908631 0.037006564 0.13696074
0.015878217 0.038058195 0.13575995
-0.024857335 0.037560578 0.13439941
-0.026712252 0.03541144 0.13299587
0.018599002 0.0375802 0.1321049
0.014858962 0.039249506 0.13272461
0.010694985 0.040761862 0.1320205
-0.011330804 0.039777569 0.1310589
-0.015051536 0.039850578 0.13052458
-0.019292761 0.040057845 0.12969318
-0.023752769 0.038480654 0.12974504
-0.026111586 0.037025567 0.12961999
0.014369618 0.039701495 0.12796181
0.010357445 0.041085158 0.12823305
0.0064686672 0.041871071 0.12776715
0.0022192146 0.042408023 0.1272139
-0.0025678053 0.042550001 0.12667638
-0.0080199139 0.041726336 0.12667984
-0.011177449 0.040186901 0.12646735
-0.015181083 0.040499158 0.12649894
-0.019196784 0.039927874 0.12578455
-0.022367964 0.038974077 0.1260708
0.013059231 0.03996747 0.12386364
0.010105404 0.041149125 0.12393022
0.0063764052 0.042287197 0.12353566
0.0022390869 0.042754617 0.12331253
-0.0020926935 0.043004699 0.12270203
-0.0065996619 0.042724833 0.1224637
-0.011029972 0.040587544 0.12204048
-0.015046615 0.040476322 0.12171346
-0.017760536 0.039784364 0.12192678
0.0058840029 0.042912789 0.11925322
0.0025579375 0.043091603 0.11857468
-0.0013800722 0.043415207 0.11638415
-0.0060990117 0.043431912 0.1170882
0.031761386 0.024678726 0.15703934
0.033313993 0.022385107 0.15441597
0.031957772 0.024847221 0.15343228
-0.03467546 0.025946001 0.14818799
0.030843774 0.027625887 0.1480259
-0.034671839 0.026585082 0.1438325
0.02963266 0.028732132 0.14506075
0.028288379 0.030365571 0.14440131
-0.033119649 0.029068654 0.14024425
0.027359312 0.031364735 0.14042348
-0.029874222 0.031844102 0.136527
-0.031994458 0.029530454 0.13547301
0.026060572 0.03178316 0.13498569
0.023867199 0.0335644 0.13517889
-0.028511385 0.032820936 0.13152114
-0.030520463 0.030443838 0.13154852
0.023696795 0.034426592 0.13009048
0.020495921 0.036593352 0.13053563
-0.027581513 0.03318296 0.12665999
0.022858549 0.035831712 0.12605026
0.01972615 0.036922831 0.12550661
0.016588967 0.038271852 0.12518632
-0.023632517 0.036381532 0.12254322
0.019031851 0.037119679 0.12114936
0.015215375 0.038516674 0.1208331
0.010838648 0.040528283 0.12085557
-0.010943729 0.040331073 0.11894983
-0.014974237 0.039730363 0.11820334
-0.019074153 0.038486686 0.11882687
-0.021840995 0.037065879 0.11938334
0.013388824 0.039065123 0.11637574
0.010684285 0.040646043 0.11661494
0.007179569 0.042132396 0.11692405
0.0033205072 0.042753801 0.11608356
-0.010826096 0.04042932 0.11518848
-0.014706508 0.039463367 0.1143738
-0.017599775 0.038579617 0.11417216
0.010504188 0.041578684 0.11188644
0.0068281228 0.042825989 0.11248523
0.0027845411 0.043422818 0.11277264
-0.0012062715 0.043319311 0.11148661
-0.006193419 0.042975683 0.11148006
-0.0098493882 0.041132469 0.110439
0.0067510749 0.042613864 0.10763872
0.0029814776 0.042756405 0.10735333
-0.0010305899 0.043140344 0.10648769
-0.0050714831 0.043052316 0.10617828
-0.0077652 0.042721562 0.10573262
0.03221269 0.023367511 0.14946502
0.032331288 0.023942066 0.14708766
0.031219525 0.025056381 0.14222011
-0.035051484 0.023515357 0.13615596
0.030091362 0.027143242 0.13716012
0.028730914 0.028898479 0.13660052
-0.033389915 0.027894868 0.13311478
-0.034873631 0.025230234 0.13182124
0.028226735 0.029409172 0.13316625
-0.032283563 0.029072791 0.12909526
-0.034724757 0.026673621 0.12821949
0.027361283 0.030906713 0.12887481
-0.028519394 0.031586353 0.12463921
-0.03159624 0.029421788 0.124493
0.027126266 0.032646064 0.12464869
0.024203781 0.034990571 0.12413979
-0.023283871 0.035026174 0.1194967
-0.027536064 0.03119746 0.11988127
0.024080534 0.034613632 0.11995596
0.02050785 0.036399927 0.11869103
0.017363954 0.037563547 0.11821628
-0.020395221 0.037215166 0.11573917
-0.02337933 0.034817319 0.11593723
-0.0260721 0.031973869 0.11675453
0.022887893 0.035172094 0.11648965
0.019993097 0.036089711 0.11439085
0.015910976 0.038045425 0.11448038
-0.016166409 0.039041109 0.11174941
-0.019310389 0.038027186 0.11235303
-0.022339148 0.036590438 0.11121702
0.015188995 0.038672909 0.10977846
0.01233449 0.040291939 0.10962039
-0.011646443 0.040140919 0.10859674
-0.014701664 0.039663281 0.10849047
-0.018767938 0.038735237 0.10744816
-0.021494975 0.037656575 0.1063506
0.0138556 0.039186306 0.1058138
0.010990245 0.040969748 0.10550624
0.0074749617 0.04223248 0.10471219
0.0030849932 0.043156028 0.10478997
-0.010467686 0.04120997 0.10424519
-0.014532532 0.040033631 0.10297465
-0.017744659 0.038782138 0.10299307
0.0099915219 0.040585756 0.10094911
0.0071386588 0.042123403 0.1004355
0.0032345664 0.043129511 0.10086393
-0.00082825561 0.043721743 0.10115975
-0.004878452 0.043674693 0.10088587
-0.0094288178 0.042520013 0.09977442
-0.013695213 0.041102171 0.098743498
0.006107945 0.04253912 0.096571743
0.0033887534 0.042883363 0.096725762
-0.00064870081 0.043405756 0.095979929
-0.0044472995 0.043278798 0.095846117
-0.0078825727 0.042982578 0.095514834
0.032328669 0.022728635 0.13946739
0.032440826 0.023168262 0.1356146
0.034723505 0.025169088 0.12814009
0.031871073 0.02499962 0.13034332
0.031539906 0.026355132 0.1258409
0.029260708 0.029385721 0.12648517
-0.032460816 0.028385175 0.12110561
-0.035184991 0.026035203 0.1213128
0.029028643 0.029946176 0.12210801
-0.028857807 0.030948348 0.11766309
-0.031695403 0.028727785 0.117567
-0.034546163 0.026451176 0.11743563
0.027288096 0.0314757 0.11796367
0.025604371 0.033336848 0.11702061
-0.027584149 0.030945232 0.11361265
-0.030550582 0.029209765 0.11269885
0.027176922 0.031412248 0.11352116
0.024427947 0.033595055 0.11328119
0.020390399 0.035593271 0.11184657
-0.024479147 0.034114376 0.11090755
-0.027254041 0.032186095 0.10909176
-0.030008372 0.031236954 0.10811764
0.023855375 0.034106974 0.10821801
0.020551492 0.035801716 0.10845554
0.01742929 0.037390456 0.1070534
-0.023768051 0.035006657 0.10547602
-0.026290748 0.033034697 0.10440218
0.023467483 0.035142768 0.10478109
0.020791057 0.036014762 0.1034255
0.016027058 0.038008232 0.10294056
0.012656108 0.03956943 0.10216391
-0.018892245 0.037863135 0.10041845
-0.022481639 0.035471164 0.10095608
0.019559398 0.037152376 0.10042018
0.01590075 0.037914328 0.098173559
0.011640072 0.039777417 0.098108947
0.0087713627 0.041455202 0.097721517
-0.014656983 0.040647421 0.096151948
-0.018043322 0.038208656 0.096246421
0.011667634 0.039834075 0.093468249
0.0077544032 0.041428942 0.093443453
0.0035036814 0.042757377 0.093659937
-0.00053607672 0.042897411 0.092568874
-0.0049662031 0.042915549 0.092826486
-0.0091785807 0.042027764 0.092606723
-0.013108601 0.040726509 0.092064679
-0.015563065 0.039796062 0.090889513
0.0068464563 0.041604128 0.089172781
0.0034865071 0.042224154 0.088788033
-0.00039056528 0.042629089 0.088368118
-0.0043120459 0.042339511 0.088129342
-0.0083254529 0.041618228 0.088188767
-0.0011394812 0.043029428 0.084048212
-0.0029161908 0.043432526 0.082988024
0.033288255 0.023091218 0.13021463
0.034911834 0.024049558 0.12529245
0.032689702 0.025288893 0.12360275
0.031043295 0.026062798 0.11994022
0.029777726 0.026892137 0.11764115
-0.036105953 0.025364395 0.1149779
0.031264491 0.02508821 0.11620778
0.02905973 0.027080709 0.11385047
-0.032416191 0.028142653 0.11080748
-0.035340555 0.02639094 0.11052102
0.027830258 0.029813241 0.11023349
0.02596847 0.032167863 0.1101892
-0.032115269 0.029663287 0.10664493
-0.034224741 0.028252853 0.10531187
0.027605334 0.031018345 0.10535747
0.025814416 0.032811798 0.10632223
-0.028132137 0.032418758 0.10287786
-0.031125406 0.030383704 0.10167569
0.024792776 0.033530377 0.1014725
0.022254504 0.035924949 0.10146177
-0.023502059 0.034170013 0.098277092
-0.026814781 0.032802187 0.098116815
-0.030501757 0.031114848 0.09815675
0.023798194 0.03442087 0.098245382
0.021267893 0.03580831 0.097100914
0.017025901 0.037548013 0.09601742
-0.019889785 0.036566276 0.094678819
-0.022680691 0.035068527 0.094176352
-0.025960013 0.033024017 0.093497097
0.020294756 0.036250539 0.092228472
0.017346775 0.037834425 0.092737436
0.012847366 0.039510317 0.09145844
-0.017771417 0.038029995 0.090590179
-0.020914603 0.03613048 0.089270532
0.016936084 0.038135443 0.087923348
0.012830039 0.03956059 0.087653816
0.008118419 0.040855765 0.086837053
0.0044664587 0.041962624 0.086047232
-0.0057681645 0.04177206 0.08529079
-0.0088559687 0.040939197 0.084851682
-0.012678799 0.04007021 0.085905254
-0.016840253 0.038439222 0.085609734
-0.020342994 0.036886506 0.085998714
0.011655405 0.039631963 0.082986772
0.0080342945 0.040742449 0.082131267
0.0039312476 0.042217717 0.082255661
0.00029621751 0.043099727 0.08219713
-0.0049583623 0.042689271 0.082186699
-0.0082106348 0.041506495 0.081161916
-0.01257298 0.039596099 0.081709981
-0.015791615 0.039073758 0.081582844
0.0081690308 0.041229077 0.078908503
0.0039323764 0.042700358 0.077256262
2.322921e-05 0.043791637 0.077477217
-0.0040813936 0.043748669 0.077205002
-0.007759328 0.042249952 0.076606989
-8.1372171e-05 0.044026799 0.072859645
-0.0035868261 0.043834958 0.072783947
-0.0066861156 0.043221373 0.072537184
0.032328855 0.023415841 0.11250317
0.030064784 0.025639927 0.11268508
0.032275829 0.024551515 0.10794657
0.029710067 0.026841659 0.10857725
-0.036337487 0.024913171 0.10469061
0.03183265 0.026113836 0.10530913
0.029781986 0.02748304 0.10439485
-0.03266773 0.02927991 0.098406792
-0.034924816 0.026380723 0.099715889
0.028571093 0.028965101 0.10066164
0.026589459 0.030095255 0.098558903
-0.028344143 0.03169778 0.094833255
-0.03118849 0.029916795 0.094755232
-0.034115627 0.027128063 0.095454037
0.025134793 0.032437466 0.094910324
-0.027127387 0.03251072 0.091251969
-0.03025925 0.030388966 0.090784252
0.024576778 0.033220466 0.089753985
0.02225551 0.034968041 0.090291202
-0.022518653 0.034876838 0.087054789
-0.025178824 0.032895681 0.08637017
-0.028193008 0.031273175 0.086495101
0.021477334 0.035719927 0.085572541
0.018420087 0.037673235 0.085588217
-0.018174155 0.037385702 0.082575917
-0.021179413 0.036103148 0.082667649
-0.023818096 0.034171086 0.082338274
0.020928741 0.036442179 0.081258118
0.017693808 0.038234353 0.081376314
0.014006618 0.039464746 0.081629038
-0.012492836 0.039436851 0.078759551
-0.017124392 0.038088646 0.078594804
-0.020454986 0.036448464 0.077856243
0.016961187 0.038857598 0.077208579
0.013075868 0.039955921 0.076660097
0.0085473964 0.041204453 0.076355457
0.0042286362 0.042593632 0.074584365
-0.0095895017 0.040746637 0.075103223
-0.01237435 0.039651021 0.074934423
-0.016125923 0.038837418 0.074255288
0.012046655 0.040316053 0.071678638
0.0084454715 0.042027865 0.072270691
0.0045174975 0.042897873 0.072288573
0.00063302147 0.044037428 0.070180595
-0.0038546957 0.043625183 0.070381463
-0.0084423907 0.042058725 0.071055949
-0.012014298 0.04014935 0.069929719
-0.014986786 0.039514456 0.06960094
0.0082801292 0.042179398 0.067839086
0.0045198123 0.043401923 0.067260325
0.00026176532 0.044757638 0.066532254
-0.0039060856 0.043766961 0.066878498
-0.0076900409 0.042688251 0.066476226
0.0037713242 0.043855805 0.062898695
0.00080007984 0.045146585 0.062024534
-0.0033647188 0.04427433 0.062119842
-0.0063618589 0.043548908 0.062715054
0.034238528 0.023131374 0.10684556
0.033611313 0.024613179 0.10188198
0.03067678 0.025911469 0.10110104
-0.035691347 0.023904456 0.095540166
0.032958653 0.024455773 0.097973108
0.02979706 0.025979521 0.096726239
-0.035196625 0.02551138 0.09248513
0.028363196 0.026956867 0.09190011
0.026918968 0.028792724 0.092441261
-0.031097116 0.02944856 0.088702798
-0.033733562 0.026877213 0.088673294
-0.036880404 0.025248474 0.0886572
0.026825435 0.029266428 0.087340534
-0.026717531 0.031606995 0.08286804
-0.029880334 0.029111264 0.084461749
-0.032505754 0.027823037 0.085171282
0.025211008 0.032064714 0.084231913
0.023222256 0.03408388 0.081920564
-0.025520699 0.032062612 0.079725802
-0.028116466 0.030445114 0.080732346
0.024709295 0.033105053 0.080101252
0.022286456 0.034932531 0.078200519
-0.02224106 0.0344976 0.074663281
-0.02456004 0.032822624 0.075625241
0.022193747 0.035059489 0.074324131
0.018300036 0.037413701 0.074189126
-0.017887861 0.037253328 0.071381569
-0.020529814 0.035503406 0.071200311
-0.023599988 0.033626467 0.071754754
0.017683389 0.037185378 0.069468617
0.014267857 0.03946485 0.069611371
-0.012826014 0.04007823 0.067205191
-0.016743014 0.038346801 0.067097902
-0.019530114 0.036342707 0.06637007
0.01382125 0.039388776 0.064655662
0.0099661099 0.040852036 0.064379811
-0.0084944963 0.041752033 0.06292063
-0.011840967 0.039471898 0.063189745
-0.01625184 0.037969403 0.06297946
0.0094665149 0.040932246 0.059235215
0.0052513145 0.04286686 0.05998528
-0.0041555599 0.043135796 0.058349907
-0.0076762848 0.041944027 0.059056461
-0.010513525 0.039634928 0.058736742
0.0046834461 0.042479549 0.055333436
0.00064782472 0.04333004 0.054951191
-0.0031473557 0.043081846 0.054829538
-0.0064592198 0.042593122 0.05409658
0.033852942 0.02340731 0.094772816
0.031117387 0.024020998 0.093482912
0.033280432 0.023758551 0.089754283
0.030553974 0.0252729 0.090535104
-0.034970772 0.025334712 0.085496485
0.030087238 0.026674341 0.085708976
-0.031055775 0.027494991 0.080933034
-0.03412145 0.025577491 0.080803812
0.029459786 0.028022291 0.081218243
0.027096232 0.029871892 0.081846833
-0.029950209 0.028278604 0.077368736
-0.032408167 0.026539408 0.075943291
0.026291123 0.030611262 0.076897979
-0.026556499 0.031197257 0.07442832
-0.029389368 0.029631563 0.072834194
-0.032234494 0.02804778 0.071222842
0.025479218 0.031398762 0.07197082
0.023715561 0.034070753 0.071797192
-0.025379203 0.032756001 0.069541037
-0.02877182 0.030875392 0.068579972
0.022102436 0.034203738 0.068034828
0.019233352 0.036191635 0.06807977
-0.021447685 0.034953266 0.065571725
-0.024668019 0.033333927 0.06453824
-0.027726661 0.031384092 0.064337969
0.021339392 0.034652255 0.062990129
0.018690197 0.036662526 0.063456714
0.015080768 0.038632803 0.062302053
-0.011966341 0.038780093 0.059892118
-0.016200693 0.03765934 0.060639381
-0.020620763 0.035950236 0.060564756
-0.023631437 0.034530398 0.05982244
0.018347146 0.037244696 0.058368206
0.014732071 0.038968615 0.058931708
0.011825382 0.041078925 0.057265341
-0.0089983074 0.040828943 0.055854678
-0.012347479 0.039158259 0.05749172
-0.016084736 0.038108416 0.056961954
-0.019841488 0.036556058 0.05595392
0.01426701 0.039328184 0.054336131
0.010570397 0.040866956 0.05389452
0.0062061362 0.041882977 0.052913666
0.0023071161 0.042457428 0.05187577
-0.0039479826 0.042817302 0.051876009
-0.0081768967 0.041441355 0.052367151
-0.011721391 0.039712071 0.052558601
-0.015518447 0.038851209 0.051808536
-0.018772386 0.03751874 0.0521155
0.013524852 0.039813943 0.049928725
0.010590191 0.041118059 0.049218178
0.0059017884 0.042474084 0.04898572
0.0010528845 0.043286666 0.04847312
-0.0031271114 0.043210693 0.048424244
-0.0073221279 0.042273302 0.04804945
-0.011092002 0.040359583 0.047696054
0.00605303 0.042809896 0.045166433
0.0012018399 0.043244567 0.044282734
-0.0029938056 0.042928066 0.04425621
-0.0067161787 0.042831711 0.044126928
0.033184927 0.023686158 0.081179023
0.031900957 0.024357986 0.078654945
-0.034604359 0.024545325 0.075031877
0.029938381 0.026329026 0.075229466
0.02786883 0.028379356 0.073922217
-0.034475055 0.025475617 0.07078588
0.027395437 0.028936695 0.069291174
-0.030161778 0.029851044 0.065506637
-0.033328064 0.027038759 0.066554606
0.026578195 0.03001295 0.065723002
0.02407939 0.03193612 0.064703703
-0.026208673 0.032516595 0.061377943
-0.029144499 0.029800771 0.061066866
-0.032091014 0.027844392 0.062850177
0.026016053 0.0309014 0.061262965
0.023094617 0.033203401 0.060689211
-0.025539223 0.032942276 0.057284176
-0.028096301 0.030453034 0.057267725
0.022876723 0.033675369 0.056100607
0.02025586 0.036116481 0.056067169
-0.021196473 0.036052212 0.053328872
-0.024100419 0.033665348 0.052951396
-0.027513655 0.031353489 0.054012537
0.019063573 0.03679245 0.051462412
0.0157895 0.038392935 0.051444352
-0.017292101 0.037773781 0.049333751
-0.020148508 0.035967913 0.048463881
-0.023046706 0.033974797 0.048459828
0.018818468 0.037437558 0.046517313
0.015233305 0.038937755 0.046826124
0.012265798 0.040865168 0.046724737
-0.012431535 0.039818797 0.045011461
-0.015750848 0.038238391 0.044667542
-0.019088021 0.0362322 0.043915093
0.015102603 0.039678097 0.041794717
0.011029602 0.04120665 0.042815268
0.0072224443 0.041956339 0.041776955
0.0026828807 0.042673334 0.041712523
-0.0021947788 0.041641831 0.040417135
-0.0076901685 0.041019611 0.040748894
-0.01135808 0.039922614 0.040295899
-0.014742651 0.038912315 0.039529264
0.014038499 0.040359683 0.037948787
0.011281197 0.041071977 0.036663175
0.0070587276 0.041859217 0.036950767
0.0028496741 0.041952815 0.036809981
-0.0020565349 0.042007174 0.036591947
-0.0065696724 0.041600756 0.036235571
-0.011218771 0.040234156 0.035890281
0.0072435876 0.042593274 0.032429397
0.0030310042 0.042548418 0.032150149
-0.0011565723 0.042718649 0.031297028
-0.0049691056 0.042736836 0.031141162
0.031879891 0.023880705 0.072594047
0.03086382 0.0249353 0.068105459
-0.034577437 0.025493346 0.063274741
0.030190058 0.026489193 0.063569486
0.028366409 0.028783426 0.064057052
-0.033533424 0.026027745 0.059013665
0.030059317 0.026784491 0.059173763
0.028038783 0.029587168 0.059206426
-0.029916752 0.02901542 0.05539459
-0.032009229 0.027016176 0.055883288
0.026531372 0.031067902 0.055123806
0.024604609 0.032444566 0.053833783
-0.025991749 0.03233676 0.050883234
-0.028652454 0.029937997 0.050940812
0.026209865 0.030787317 0.050249279
0.023360549 0.033160232 0.050281644
-0.024880018 0.032748543 0.046876371
-0.027426826 0.030027712 0.04650408
0.022160541 0.034847211 0.045572937
0.020740619 0.037057862 0.04555732
-0.021091819 0.03571175 0.043469131
-0.023588333 0.034681264 0.042848229
-0.025788536 0.032366801 0.041521072
0.02237393 0.034543484 0.041086197
0.019676037 0.037890214 0.041859567
-0.017020427 0.037775006 0.038909078
-0.019873988 0.03688477 0.038921893
-0.023287853 0.035703164 0.037987888
0.018990027 0.037561044 0.03755039
0.015727464 0.039632678 0.036114633
0.011369746 0.04133366 0.03455919
-0.0083625568 0.040659375 0.034894466
-0.010660354 0.040927086 0.033629119
-0.01545957 0.0390382 0.034989476
-0.018587802 0.037604827 0.033809185
-0.021186022 0.036590748 0.034346938
0.014763379 0.040733919 0.032031476
0.011486068 0.04175147 0.031815648
-0.0010833002 0.04340836 0.029619694
-0.0067316429 0.042687282 0.029634178
-0.010309742 0.041509051 0.030361235
-0.014442179 0.040201101 0.030295312
-0.016764445 0.038379703 0.030032218
0.013074704 0.040397644 0.027353585
0.0074186609 0.042218227 0.027823091
0.0031887023 0.042416301 0.027790189
-0.0012598756 0.043182187 0.026411831
-0.005193993 0.0432555 0.026055872
-0.0094806105 0.041646942 0.026305616
-0.012299803 0.041433692 0.02593267
-0.0015631057 0.042914018 0.022716463
-0.0050901724 0.04290814 0.022515357
0.032635316 0.02397885 0.064998686
0.032118607 0.024415923 0.061228573
-0.034952667 0.024949037 0.055854023
0.031836707 0.025296044 0.056685686
-0.032860927 0.025763355 0.052159905
0.031131115 0.02617361 0.05239892
0.028477274 0.028760077 0.052618444
-0.028936069 0.02839468 0.046946049
-0.032181341 0.026345981 0.047738433
-0.035337325 0.024274345 0.048245251
0.030581262 0.027050616 0.049009621
0.02824638 0.02886573 0.047818363
0.024969282 0.031358246 0.046538949
-0.028114075 0.029310616 0.043680847
-0.030722426 0.027066758 0.044000566
0.027128458 0.029743861 0.043412745
0.0242589 0.032178748 0.043512166
-0.027643308 0.030869568 0.039511323
-0.030205797 0.028439231 0.039564848
0.024104284 0.033370722 0.038448632
-0.024099749 0.034836069 0.034558713
-0.02706098 0.032655407 0.035413563
0.023669725 0.034527749 0.033741832
0.020082353 0.036280379 0.033618212
-0.018965051 0.036660738 0.030308902
-0.022588728 0.035246473 0.031169593
-0.02622249 0.033219948 0.030721784
0.023626301 0.035625666 0.029516935
0.020083692 0.036517534 0.029149592
0.016654935 0.038643479 0.029607594
-0.015230449 0.039176755 0.026674211
-0.018156812 0.036860857 0.026658833
-0.022214759 0.034974009 0.026739359
0.019190561 0.037482772 0.025273025
0.016025251 0.039623074 0.024597824
0.011587452 0.040301595 0.024774969
0.0075688357 0.041215539 0.023618221
0.0033252027 0.041390881 0.023562372
0.00049823429 0.041483454 0.023500323
-0.0093878377 0.04066607 0.02211839
-0.013997667 0.039029054 0.022756815
-0.017355595 0.037008353 0.023299813
0.019012451 0.039373346 0.021299899
0.015744615 0.040948749 0.020231605
0.01197137 0.041295443 0.019932091
0.0077312868 0.041334629 0.019470334
0.003478467 0.041533727 0.019440949
