# .PCD v0.7 - Point Cloud Data file format
VERSION 0.7
FIELDS x y z
SIZE 4 4 4
TYPE F F F
COUNT 1 1 1
WIDTH 1342
HEIGHT 1
VIEWPOINT 0 0 0 1 0 0 0
POINTS 1342
DATA ascii
0.029220441 0.02996262 0.26369554
0.02637654 0.033287864 0.26348916
0.022881087 0.035811171 0.26295549
0.019028112 0.038068034 0.26200145
0.016293962 0.039710242 0.26134029
0.03631876 0.021115664 0.26037082
0.035159234 0.023435626 0.25991145
0.032691959 0.027058352 0.25933862
0.030209886 0.030702667 0.25958392
0.026806444 0.033395655 0.25900874
0.023222018 0.035706505 0.25839978
0.019483224 0.038370837 0.25908148
0.033537362 0.027740642 0.25675333
0.030654682 0.030928297 0.2558082
0.027434114 0.033445202 0.2553665
0.024262518 0.035921738 0.25551695
0.0018056625 0.0022334268 0.34092891
0.013727519 0.0010417486 0.32246733
0.012887964 0.0033544428 0.32221186
-0.0017420547 0.016011845 0.32343426
-0.0034559588 0.017381398 0.32356822
0.013752658 0.00085772714 0.31929731
0.012395376 0.0042382036 0.31933692
0.011388017 0.0043357685 0.31513834
0.0102398 0.0081010144 0.31400964
0.0078510996 0.011842052 0.31374756
0.0043748319 0.014289383 0.31392571
0.0025041169 0.017071553 0.31449297
0.0088746771 0.0091375373 0.30985227
0.0079001477 0.011208632 0.30932206
0.0051188841 0.013301985 0.30964825
0.011589161 0.011366156 0.30217633
0.010072952 0.012576234 0.30352977
0.0068044458 0.015727693 0.30267474
0.017309275 0.0088223014 0.29991108
0.014561264 0.011561207 0.30030176
0.012012755 0.015172973 0.30042744
0.0086933412 0.017993128 0.29997036
0.0048482213 0.020297192 0.29912326
0.002743559 0.02306469 0.29820207
0.021555852 0.0071124095 0.29653659
0.019885436 0.010537026 0.29743379
0.01688054 0.013671976 0.29721266
0.014176574 0.01690085 0.29734814
0.01087012 0.01997328 0.29757383
0.007631842 0.023053976 0.29664135
0.0043485463 0.025681734 0.29593438
0.0011119414 0.026826071 0.29415056
0.026142364 0.0060854536 0.29221904
0.024473868 0.0094552599 0.29367068
0.021286894 0.011802379 0.29527423
0.01824533 0.014891702 0.29502305
0.015763555 0.017666459 0.2949042
0.0087378751 0.024640912 0.29426926
0.0057223262 0.027713034 0.29322839
0.0024415292 0.029476762 0.29061306
0.00017630123 0.03081435 0.28791276
0.029905774 0.0040481379 0.28753623
0.028968308 0.0076688873 0.28919256
0.026817635 0.010867573 0.29016691
0.0042571044 0.032026418 0.28690377
0.00093854032 0.032878384 0.28529429
0.032156043 0.0057321945 0.28381312
0.031635255 0.0088432766 0.28484967
0.0061844941 0.033795066 0.2831116
0.0029664226 0.035122022 0.28163096
0.00023899227 0.036495525 0.27948555
0.033886459 0.0066775465 0.27976641
0.033030778 0.010329661 0.28070396
0.0043453146 0.037347049 0.27775797
0.001591865 0.038487766 0.27677348
0.037182864 0.0051792003 0.27423534
0.036391608 0.0080669103 0.27575132
0.034863014 0.01126127 0.27683699
0.0060051568 0.039055582 0.27332777
0.0031705536 0.040109683 0.27193731
0.037680939 0.0090441154 0.27103102
0.036439449 0.012656328 0.27158198
0.0077782627 0.040537558 0.26903039
0.004302714 0.041101146 0.26804194
0.038303416 0.010028087 0.26660395
0.036957286 0.014251853 0.26697537
0.036177866 0.017791368 0.26552787
0.012941059 0.039242182 0.26445413
0.0093145333 0.040941179 0.2642141
0.0057380442 0.041821882 0.26287323
0.037909959 0.014866111 0.26195356
0.036940105 0.018910924 0.26198
0.014005078 0.040075056 0.26039338
0.010490119 0.041625421 0.25947341
0.0086313654 0.042595625 0.25717974
0.038837288 0.016675532 0.25839922
0.037442386 0.020153811 0.25869271
0.035358179 0.023486163 0.25757644
0.021971237 0.036335051 0.25620776
0.019369438 0.038149957 0.25648901
0.015389014 0.040356167 0.25626144
0.011854243 0.042117737 0.25525561
0.038532082 0.017046198 0.25435904
0.03722233 0.020211518 0.25370702
0.035323106 0.023181299 0.253333
0.033061739 0.027045643 0.25296381
0.030448357 0.030529728 0.25226948
0.026755558 0.033263531 0.25183767
0.023396537 0.035962671 0.25215825
0.019812303 0.038367324 0.25186744
0.016183596 0.040371887 0.2522743
0.013008579 0.042240448 0.25257632
0.034409508 0.023756759 0.24899703
0.033387989 0.027174791 0.248384
0.030794339 0.03065273 0.24837279
0.027250895 0.033240497 0.24767706
0.024279723 0.036414128 0.24750483
0.02069705 0.038750958 0.24683812
0.033966038 0.027826464 0.24368489
0.031299379 0.030871941 0.24341941
0.02718793 0.033297762 0.24435955
0.024761057 0.03585548 0.24420536
0.021877795 0.038250174 0.24375597
0.013478737 5.4519624e-05 0.31674835
0.01280085 9.782007e-05 0.31243688
0.011794783 0.0030015795 0.31243706
0.0021256823 0.013907773 0.31021211
-0.00023452425 0.015114337 0.31043139
0.013371603 0.0011129929 0.30755347
0.01254403 0.0038675177 0.30809018
0.010308582 0.0075860783 0.30821788
0.0071588964 0.01117296 0.30758893
0.0037969416 0.01399158 0.30743551
-0.0001394772 0.015666377 0.30648875
-0.0032164189 0.016371004 0.30566388
0.016092962 0.0024357806 0.30292577
0.01456791 0.0056281122 0.30392712
0.011983264 0.009063812 0.30413198
0.0082361568 0.01257061 0.30435732
0.0052535343 0.015221596 0.30398694
0.0021114526 0.017854881 0.30275336
-0.0012181355 0.019631851 0.30148038
-0.0036663869 0.020861074 0.29975146
0.01983621 0.0010548756 0.29797518
0.018754285 0.0042357151 0.2996386
0.016860522 0.0068215756 0.3004953
0.00042948965 0.022666212 0.2985878
-0.0027882038 0.023285732 0.29691711
0.025249407 -0.000356948 0.29284412
0.023163393 0.0022210246 0.29504833
0.020683769 0.0051593063 0.29756415
-0.0019481368 0.026140403 0.29365239
-0.0044515477 0.02776733 0.29077074
0.02689944 0.00027176552 0.29055232
0.02611753 0.0031691343 0.29200956
-0.00065400079 0.028481686 0.29156211
-0.0027690157 0.030009512 0.28817183
-0.0051754517 0.031480577 0.28636551
0.03061646 -0.00078993104 0.28534856
0.029323131 0.0011144308 0.28729337
-0.0011568377 0.032061365 0.28616169
-0.0043056197 0.033935696 0.28368828
0.032705002 6.4989552e-05 0.28171709
0.031779386 0.0028522443 0.28345364
-0.0026160367 0.036048289 0.28010777
-0.005863484 0.03675681 0.27686629
0.035207767 0.0012618043 0.27823809
0.034042608 0.0040787822 0.27889654
-0.0015051179 0.038138192 0.2752561
-0.004947558 0.038339637 0.27378291
0.038866293 -0.00055661425 0.27125067
0.037409678 0.0025192369 0.27422473
-0.00037761964 0.039145082 0.27079892
-0.0033286586 0.039404385 0.26974577
0.040268019 0.00074459426 0.26911098
0.039221019 0.0042545125 0.26994497
0.0013442691 0.04060249 0.26575392
-0.0014107525 0.04042951 0.26474139
0.041580535 0.0017351061 0.26435861
0.04066027 0.0053918306 0.26532492
0.039093163 0.0086736185 0.2646184
0.002961278 0.041773893 0.26155382
-0.00051379949 0.041140087 0.26132593
0.042599283 0.0025340691 0.26103351
0.041708872 0.0063595641 0.26059875
0.039501719 0.010161811 0.26087964
0.005129654 0.042769637 0.25721949
0.001896143 0.043109827 0.25416353
0.041898347 0.0077717584 0.25614902
0.040414061 0.010783378 0.25662476
0.039187528 0.013568956 0.25672388
0.0064416062 0.042986676 0.25299203
0.0025838949 0.043675426 0.25223517
0.041791793 0.0083220825 0.2530078
0.040562116 0.01122497 0.25246534
0.038881663 0.014814095 0.25143048
0.037343491 0.018541928 0.25052854
0.014900917 0.04017254 0.2488198
0.011173414 0.041407064 0.24837503
0.0078224558 0.042526245 0.2485154
0.037765693 0.015739825 0.24683243
0.037026443 0.019151524 0.24675152
0.03535581 0.022598254 0.24712828
0.033328459 0.026022593 0.24607724
0.018887425 0.039745949 0.24454179
0.015706927 0.040197928 0.2448079
0.011890347 0.041493934 0.24392435
0.009440802 0.042874224 0.24363422
0.03742931 0.020025995 0.24231821
0.036110289 0.023257958 0.24216565
0.034864083 0.026795262 0.24093467
0.031403366 0.030808922 0.24045387
0.027382791 0.032971252 0.24125239
0.023583476 0.035436872 0.24094638
0.020483032 0.038358714 0.24046701
0.016769983 0.039961003 0.2397444
0.013371464 0.04128452 0.24076396
0.035661839 0.023690436 0.23738676
0.033873923 0.026881842 0.236709
0.031251542 0.030462427 0.23689082
0.02763343 0.033015836 0.23613131
0.025085416 0.035329685 0.23581493
0.021418596 0.03829515 0.23520344
0.019083336 0.039545916 0.23538411
0.030389361 0.030283242 0.23302028
0.027629633 0.03472615 0.23216075
0.026112501 0.036862981 0.23224217
0.022475015 0.038308062 0.23239145
0.01354152 -0.0025683586 0.30587602
0.015470199 -0.0010301839 0.3026256
0.019010767 -0.0025949553 0.29785123
0.023375506 -0.0040741041 0.29320756
0.021364626 -0.0014423635 0.29565057
0.02664331 -0.0027930839 0.28939101
0.029794244 -0.0048280153 0.28461862
0.033162303 -0.0058637876 0.27980974
0.032514513 -0.0034019779 0.28094062
0.035358701 -0.0043190643 0.27603984
0.035071794 -0.0021787547 0.27790871
0.037502281 -0.002935173 0.2725527
-0.0055108592 0.03962452 0.26774225
0.039580017 -0.0027119778 0.26716504
-0.0045599286 0.040070795 0.26315105
-0.0068679657 0.040482149 0.26141346
0.0409889 -0.00082589127 0.26310149
-0.0024066512 0.041376784 0.25855491
-0.0061049629 0.041094095 0.25869671
0.041770365 0.00050679967 0.25820059
0.042113718 0.0035920106 0.25791374
-0.00074240565 0.042638663 0.25458196
-0.0037140995 0.043068539 0.25229868
0.042122416 0.0014272463 0.25374973
0.04203397 0.0041658878 0.25478917
0.00033781305 0.043757208 0.25012091
-0.0027214363 0.04389178 0.24977094
0.042860344 0.0019771401 0.2509934
0.041653149 0.0054797623 0.24958375
0.040235344 0.0094049228 0.24880514
0.038966402 0.012273525 0.24823433
0.0059972182 0.043594427 0.24657845
0.0024815165 0.044531897 0.24616197
0.041574605 0.0068704039 0.2450957
0.04025387 0.0097009121 0.2444818
0.038645521 0.013708376 0.24495491
0.010949675 0.04162835 0.24136931
0.0075125471 0.044120207 0.24218842
0.003898615 0.04496444 0.24132967
0.040738132 0.010880387 0.23969704
0.039344862 0.014407905 0.24034417
0.038037412 0.017904364 0.23958921
0.02188623 0.034505606 0.2371971
0.015532246 0.040596232 0.23738018
0.012067057 0.041826095 0.23759684
0.008858243 0.043820351 0.23704323
0.0057689138 0.044836786 0.23717776
0.040306106 0.014723058 0.23504606
0.038121082 0.018598627 0.23536366
0.035934679 0.022043079 0.23514935
0.022566551 0.035200451 0.23447871
0.016406544 0.040046845 0.23322502
0.012720263 0.041523814 0.23270506
0.040684789 0.015571858 0.23201108
0.038328871 0.01852884 0.23122078
0.035766114 0.022179993 0.23062265
0.033163235 0.025779372 0.22998235
0.030199898 0.028836129 0.22926259
0.027814351 0.031618848 0.22939929
0.023830555 0.036310785 0.22998545
0.021343399 0.03822469 0.22960621
0.017817888 0.040357407 0.22952729
0.013941805 0.042257261 0.22970197
0.032946825 0.026206614 0.22582072
0.030163357 0.028766392 0.22548604
0.028341983 0.03050901 0.22529656
0.037125088 -0.0061777178 0.27001145
0.03845074 -0.0070195012 0.26535642
0.038352385 -0.0050727278 0.26769066
0.039820686 -0.0071048792 0.25979644
0.03948956 -0.0044351853 0.26101643
-0.0081123468 0.041254148 0.25582933
0.041421372 -0.0062711909 0.25587314
0.040528856 -0.0033233985 0.25570294
-0.0066275559 0.042624023 0.25180706
0.041338935 -0.0021045059 0.25231135
-0.005408166 0.043401457 0.24745116
0.04236991 0.00025059469 0.24755299
0.042267904 0.0034624655 0.24684393
-0.00076790527 0.043771926 0.24315485
-0.0028988309 0.043546721 0.24285862
0.042394385 0.00087407418 0.24361596
0.042182155 0.0044827852 0.24292743
0.0011478476 0.044705778 0.23910689
-0.0020383764 0.044202104 0.23850253
0.042554401 0.0061332267 0.23827207
0.04164236 0.0092365202 0.23860058
0.0030264221 0.044734433 0.23432806
0.044157594 0.0077017415 0.23403385
0.042080164 0.010804208 0.23407775
0.041259721 0.013525016 0.23312369
0.011338091 0.041881025 0.23046365
0.0085384529 0.043319151 0.23077357
0.0055828933 0.044031657 0.23041847
0.044206657 0.0081062745 0.22977448
0.042533517 0.010975765 0.23014387
0.040441442 0.014225529 0.22932893
0.038235083 0.018249232 0.22851026
0.024625201 0.033111241 0.22619367
0.015765831 0.040385835 0.22644979
0.01201399 0.041208375 0.22628215
0.0084742326 0.042693876 0.22665763
0.036610216 0.017634585 0.2250171
0.035018496 0.021215033 0.22438025
0.033470757 0.025399454 0.22347203
0.030106748 0.028583487 0.22318786
0.026684025 0.030743392 0.22261578
0.025247406 0.032714024 0.22379312
0.01902416 0.036324646 0.22212124
0.016531732 0.038472433 0.22204277
0.013699209 0.040418431 0.22113055
0.034528736 0.022047918 0.21970335
0.033444889 0.025398515 0.21890074
0.030398596 0.028622191 0.21872103
0.027000802 0.030816196 0.21811238
0.024943877 0.032103062 0.21738157
0.020517398 0.036854241 0.21693486
0.018266983 0.038871929 0.21685451
0.032738946 0.026286246 0.21548969
0.031203384 0.028585581 0.21455547
0.02786197 0.031770207 0.21334088
0.026564313 0.033434905 0.21282211
0.042078767 -0.0069512725 0.25377199
0.041999914 -0.0063820463 0.25060335
0.041326903 -0.0034451 0.24976426
-0.0076766033 0.042712122 0.2444059
0.041642964 -0.0064155404 0.2460385
0.04158299 -0.0031840801 0.24528039
-0.0061695259 0.04312405 0.24109298
0.04197032 -0.0013551619 0.24080813
-0.004729053 0.0439163 0.23596802
-0.0073021557 0.045383953 0.2355364
0.042928137 -0.00013690256 0.23584911
0.042653382 0.0024337266 0.23678073
0.00029732473 0.044423975 0.23215002
-0.0031869672 0.044419374 0.23104957
0.044415392 0.0012630988 0.231567
0.044052076 0.003955882 0.23175582
0.0027874149 0.043614317 0.22772771
-0.00094533339 0.044653952 0.22672462
0.044341274 0.0047823247 0.22870329
0.039690763 0.0095238034 0.22549513
0.039322652 0.011010366 0.22594672
0.0094541591 0.040459722 0.22321773
0.0065738261 0.041603778 0.22290647
0.0028840788 0.043074455 0.2231538
0.038437113 0.011996405 0.22179788
0.037078168 0.016048897 0.22183132
0.035056673 0.019944167 0.22076777
0.01999006 0.030981954 0.21943507
0.0186048 0.033233292 0.22055277
0.015203817 0.038753785 0.22033346
0.010550329 0.040586565 0.21919227
0.0077432543 0.041042205 0.21886644
0.038987406 0.013654417 0.21661705
0.037406579 0.016638372 0.21710628
0.035501402 0.020872798 0.21776474
0.027976874 0.029670186 0.21618843
0.022403881 0.03314795 0.21650228
0.02019437 0.03461327 0.21770239
0.016031254 0.039349563 0.21588317
0.013317361 0.040622827 0.21518499
0.0089722537 0.041454259 0.21481085
0.037243858 0.018476972 0.21309257
0.036342554 0.021675812 0.21361944
0.033895761 0.025167577 0.21353841
0.03081882 0.029240366 0.21177292
0.028514486 0.03116639 0.21226883
0.024480451 0.0342553 0.21227393
0.021447599 0.037290104 0.21181825
0.018274143 0.03935948 0.2115688
0.014317167 0.040530644 0.21056998
0.036588013 0.021999117 0.20851266
0.034415934 0.025732769 0.20836845
0.031603608 0.0291807 0.2075561
0.028879553 0.031851504 0.2073012
0.0254362 0.034921888 0.20710552
0.02221448 0.037776425 0.20639825
0.018786628 0.039799776 0.20633259
0.033964302 0.025918232 0.20386389
0.031410713 0.029110456 0.20324677
0.028987344 0.031710044 0.20257595
0.025887994 0.035027664 0.20249894
0.022473259 0.037836783 0.20222008
0.020772049 0.039739937 0.20217037
0.040977638 -0.0071359351 0.23837543
0.041075949 -0.0047039874 0.23814198
0.042010613 -0.0060364697 0.23293164
0.042104531 -0.0039795972 0.23383516
-0.0076289251 0.044948973 0.22923547
0.04284092 -0.0030188654 0.22861195
-0.0037654024 0.045289703 0.22491547
-0.0067107193 0.046284154 0.22405005
0.043414608 -0.00047084875 0.22568938
0.041433498 0.0029023364 0.22396725
0.039625742 0.0065978859 0.22419801
0.0026357174 0.042774502 0.22069123
-0.0012792926 0.044206001 0.221221
0.040409535 0.0039098281 0.2196421
0.039574921 0.007157648 0.22010642
0.038763661 0.010006189 0.22006559
0.020072056 0.029171692 0.21695897
0.0056579262 0.041371744 0.21677309
0.0025326721 0.042207703 0.21642667
-0.00065493397 0.043130502 0.21655199
0.041284297 0.0048831925 0.21567452
0.040785901 0.0080299042 0.21506938
0.039505355 0.011381114 0.21588057
0.010231841 0.040800359 0.21259439
0.0072808284 0.041764878 0.21210876
0.0037777591 0.042391829 0.21190816
0.040846162 0.0090585519 0.21150675
0.03954298 0.01198407 0.21096525
0.037842173 0.015555981 0.21144724
0.01163282 0.040805183 0.20900998
0.008415997 0.041568767 0.20763117
0.040063195 0.013054983 0.20562708
0.038263105 0.016776897 0.20635486
0.036976174 0.020577611 0.20536643
0.017297395 0.040020343 0.20301408
0.014413509 0.040887829 0.20445782
0.010345298 0.041008424 0.20318124
0.040492676 0.014156731 0.20199028
0.039060578 0.017482333 0.20115322
0.036671028 0.021229854 0.20142382
0.034571994 0.024301397 0.20119989
0.032003049 0.027697045 0.20070332
0.029017469 0.031621106 0.2003071
0.025964916 0.034588471 0.20000991
0.022400115 0.037645921 0.19947207
0.018474601 0.039741587 0.19978592
0.01472886 0.040743425 0.19866174
0.036331713 0.021078654 0.19721666
0.034537606 0.024235787 0.19638702
0.03196362 0.028035164 0.19674909
0.029020794 0.031437729 0.19671798
0.026127866 0.034345109 0.19665626
0.022790233 0.037211735 0.19581804
0.019384954 0.039697319 0.19547725
0.016223567 0.040482275 0.19563162
0.034372959 0.025656102 0.1925621
0.033105694 0.028866574 0.191618
0.029899951 0.031852961 0.19177341
0.026725598 0.034078069 0.19191015
0.023259033 0.037238214 0.19185096
0.020246878 0.039710507 0.19222328
0.042496983 -0.007308796 0.22785014
0.042247228 -0.0045008939 0.2259559
0.041293621 -0.0021379422 0.2212882
0.041067928 -0.00044814683 0.22190115
-0.0042342786 0.043391109 0.21740478
-0.0072955098 0.04475493 0.21829855
0.041650858 -0.0020298809 0.21804622
0.041027058 0.0011051707 0.21851003
0.00058042817 0.042427056 0.213424
-0.0025645122 0.043291952 0.21411166
0.043215349 -0.0014788415 0.21387929
0.04206429 0.0022271834 0.21356952
0.0021849386 0.042606734 0.20942214
-0.001545867 0.043865085 0.20945907
-0.0070612412 0.04586859 0.21005711
0.040958188 0.0040951073 0.20992035
0.040938012 0.0073788911 0.20928842
0.0063683782 0.042220339 0.20508349
0.0032752268 0.042898405 0.20547777
0.00074343756 0.044057406 0.20464414
0.04053846 0.0084147658 0.20507845
0.040863425 0.011073365 0.20515376
0.008411428 0.041892327 0.20183691
0.0043218192 0.042668402 0.20102891
0.041318033 0.009389393 0.20111379
0.040950876 0.012364764 0.19943023
0.040149525 0.015429618 0.19887972
0.013455256 0.041446239 0.19631231
0.0093064941 0.042085376 0.19676363
0.0055326987 0.042948075 0.19706261
0.039703049 0.012905104 0.19568482
0.038374532 0.016504277 0.19522524
0.036769882 0.020544026 0.1948283
0.017749898 0.040034659 0.19274503
0.014526094 0.040775746 0.19284248
0.010882229 0.041271966 0.192453
0.037384145 0.01763613 0.19131276
0.036727555 0.020596033 0.19058129
0.035540536 0.024698129 0.19089407
0.029325707 0.032198455 0.18843365
0.026618492 0.034087561 0.18899271
0.023009533 0.036869459 0.1888828
0.01916307 0.039709531 0.18934083
0.015522142 0.040256564 0.18841612
0.036766402 0.021626586 0.18695283
0.035477277 0.024497375 0.18523529
0.033015396 0.028414909 0.18514428
0.029966263 0.031745393 0.18502623
0.026463665 0.033894423 0.18472058
0.022897867 0.036555272 0.18422443
0.019453675 0.039152239 0.18388116
0.032670237 0.028016888 0.18082726
0.029423317 0.030998936 0.18078339
0.040793404 -0.0060236268 0.22065672
0.041306488 -0.0053670276 0.21641254
-0.0082709994 0.043107323 0.21170801
0.042985536 -0.003404947 0.21185684
-0.0038426314 0.043432109 0.20542574
-0.0065419152 0.043887541 0.20726624
0.04229445 -0.0031844378 0.20736808
0.040744439 0.0011166986 0.20671126
0.040027346 0.0047089085 0.20619106
-0.0023437887 0.043412689 0.20314094
0.04058753 0.0023584012 0.20225102
0.040253267 0.0054290537 0.20276672
0.0021578521 0.043005049 0.19921827
-0.00084761344 0.043317258 0.19817346
0.041117344 0.0033479631 0.19821188
0.040970296 0.006516723 0.19747153
0.0039221067 0.043138556 0.19393811
0.00064853206 0.043670036 0.19383869
0.040504981 0.0073170029 0.19291013
0.040320635 0.011275415 0.19326475
0.038667895 0.014387785 0.19226298
0.0094707776 0.041649565 0.19007367
0.0058607906 0.042431694 0.18962067
0.040417206 0.01149899 0.18852821
0.038403608 0.015486578 0.18891838
0.013159788 0.040368419 0.18634045
0.0098669119 0.041266296 0.18536288
0.0073511079 0.042484533 0.18542546
0.040639255 0.012464687 0.1847204
0.038765401 0.016048525 0.18435928
0.03702784 0.020243656 0.18390283
0.035755076 0.022761896 0.18216836
0.017855408 0.039669402 0.18107954
0.014531467 0.040157899 0.18210462
0.010500477 0.04084703 0.18194181
0.03836171 0.017283257 0.18038207
0.037050679 0.020461924 0.17922017
0.035128351 0.023758765 0.17870978
0.032769125 0.027658187 0.17824906
0.029438065 0.030870682 0.17804044
0.026361197 0.033325024 0.17837226
0.023098925 0.036468152 0.17804089
0.019485861 0.039269906 0.17733824
0.015269391 0.040475283 0.17664558
0.034663644 0.024268633 0.1744929
0.032910172 0.027685698 0.17397416
0.030012142 0.031218387 0.17405033
0.027006436 0.033709012 0.17354158
0.023861725 0.036440011 0.17325222
0.020290207 0.039165098 0.17218694
0.031939413 0.029281002 0.17059427
0.029895779 0.031347468 0.16998264
0.027512796 0.033116605 0.16992739
0.042338081 -0.0074550826 0.21253255
0.041268893 -0.0038804226 0.20444733
-0.0048304796 0.042408898 0.20003462
-0.0078291111 0.042332496 0.199278
0.040555902 -0.0032714065 0.19975263
0.040785443 -0.0001279451 0.20042479
-0.0041930545 0.042879239 0.19616199
-0.0059719831 0.043014366 0.19526032
0.041106947 -0.002489401 0.19640082
0.041278087 0.0009138938 0.19603023
-0.0024812706 0.043431316 0.19201398
-0.0051162951 0.04409546 0.19043228
0.041292489 0.0020579752 0.19146717
0.040544428 0.0052726436 0.19018283
0.0035656709 0.042616852 0.18739155
-0.00025469065 0.043119986 0.18751687
0.040675506 0.0062743984 0.18620756
0.040767264 0.0095586032 0.18578261
0.0049745645 0.042301558 0.18310836
0.0012448467 0.042137627 0.18273228
0.041022487 0.0071651638 0.18162441
0.040862575 0.010640778 0.18216816
0.039559357 0.013634177 0.18168208
0.009897694 0.041346926 0.17953271
0.0069316588 0.042612731 0.17933303
0.040579293 0.010876372 0.17753515
0.038766321 0.014965494 0.1775535
0.036847588 0.018554471 0.17593056
0.014372916 0.041468576 0.17366961
0.010476206 0.041279159 0.17457733
0.007644793 0.042409629 0.17477018
0.038531344 0.015499443 0.17243156
0.036748469 0.019442361 0.1720905
0.03514323 0.022771306 0.17221594
0.015821382 0.040922679 0.17062232
0.012004011 0.041805692 0.16974512
0.038392041 0.017131325 0.16825631
0.03675117 0.019766308 0.16740656
0.034746416 0.02268346 0.16709396
0.032609835 0.026494112 0.16776389
0.030268775 0.030193793 0.16704741
0.026531268 0.033196356 0.16705519
0.023436906 0.035390317 0.16685975
0.019867506 0.038278095 0.16621712
0.01539785 0.040373556 0.16646677
0.035285469 0.023028404 0.16393912
0.03263808 0.026271652 0.16329262
0.029792355 0.029738961 0.1624437
0.026515167 0.032668035 0.16182664
0.023814246 0.034807924 0.16204664
0.02019624 0.037529722 0.16238475
0.040563907 -0.0077429041 0.20143571
0.040064439 -0.0063548125 0.19763395
0.041233461 -0.0037195645 0.19375432
-0.007930398 0.043935753 0.18962267
0.041247703 -0.0034998544 0.19003367
0.040759049 -0.00059264712 0.18902969
-0.0031984951 0.041685693 0.18363738
-0.0057419725 0.043474939 0.18538001
0.041140363 0.00061052106 0.18450704
0.041021474 0.0040513258 0.184181
0.0029635783 0.041847527 0.17995897
-0.00086723268 0.04167581 0.18029752
0.041344721 0.0021517649 0.17983258
0.041351043 0.0048195552 0.17986035
0.003773205 0.042034544 0.17644402
0.00099963881 0.042159073 0.17583263
0.041505314 0.006035747 0.1756897
0.041336033 0.0093687214 0.1751911
0.0052568037 0.041926622 0.17225623
0.041002333 0.0068268757 0.17100739
0.040647395 0.010284664 0.17160821
0.039690807 0.013746868 0.17059499
0.0094929729 0.041668482 0.16821405
0.0063830875 0.041743722 0.16771764
0.040185969 0.010483018 0.16778767
0.039019436 0.015495367 0.16574323
0.037603084 0.018641643 0.16551381
0.015010596 0.039893139 0.163257
0.010957521 0.041283451 0.16317061
0.0074005853 0.041851185 0.16434342
0.039077092 0.01612331 0.16143703
0.037615608 0.019653723 0.1617648
0.035272371 0.022868533 0.16149503
0.033083797 0.025741616 0.160815
0.031272955 0.028082279 0.16047961
0.022871345 0.035453871 0.16016805
0.020162094 0.037395306 0.1599406
0.015711743 0.039202105 0.15934929
0.0122254 0.040750444 0.15929338
0.037279122 0.019502945 0.1573481
0.035204209 0.022739949 0.15662602
0.03317399 0.026068248 0.15690303
0.030260609 0.029658841 0.15701449
0.026727043 0.032607891 0.15641701
0.023819879 0.035264127 0.15604579
0.020456711 0.037472643 0.15516615
0.017272141 0.038104698 0.15542269
0.032918554 0.02603489 0.15257841
0.030410405 0.02916614 0.15236753
0.026466155 0.032604843 0.15210631
0.023915512 0.035145804 0.15142772
0.021193666 0.037116885 0.15173402
0.041091204 -0.0066372361 0.1870479
-0.0080549978 0.042592052 0.18196717
0.041662119 -0.0049281809 0.1829631
0.041306093 -0.0015653241 0.18164837
-0.0039588567 0.040859625 0.17830092
-0.0070365053 0.041391917 0.17825523
0.042091813 -0.0040440448 0.17817146
0.041611649 -0.0001962278 0.17767867
-0.0026628859 0.041295312 0.17318237
-0.0057510994 0.040928014 0.17459759
0.041799061 0.0004233364 0.17310131
0.041302241 0.0034261364 0.17223802
0.0027669128 0.041358888 0.16963261
-0.00053895079 0.041687615 0.1690332
0.041584589 0.001534747 0.16871551
0.041277889 0.0045022592 0.16883367
0.0037502237 0.041676976 0.16533101
0.00064339116 0.041945975 0.16411525
0.041197635 0.0052761286 0.16453618
0.03988567 0.0087141041 0.16435987
0.038590223 0.011460724 0.16459215
0.0088891461 0.041297708 0.16035175
0.0057773273 0.042051591 0.16104391
0.0021856893 0.042373694 0.16155106
0.041098848 0.0061542951 0.16061711
0.039951909 0.0091880178 0.15963453
0.038932342 0.012489583 0.15887183
0.014618071 0.039266624 0.15627596
0.010274084 0.040860064 0.15611279
0.006698085 0.042280503 0.15586585
0.039067596 0.014659231 0.15470737
0.037540894 0.018751305 0.15462106
0.035934635 0.021228198 0.15420285
0.015397014 0.038962305 0.15288985
0.011421525 0.040628411 0.1513592
0.0076778252 0.042602882 0.15198708
0.039056141 0.016137686 0.15017977
0.037546121 0.01885106 0.1502234
0.035153285 0.022087796 0.15047053
0.033175461 0.025300255 0.14984521
0.029762132 0.029332636 0.14951938
0.026739316 0.031913273 0.14940685
0.02407442 0.035175402 0.14876059
0.020322284 0.037343279 0.14893866
0.016461991 0.038639065 0.1480307
0.013306967 0.040144216 0.14791036
0.038005836 0.019290587 0.14567921
0.035727017 0.022350306 0.145374
0.033278171 0.025528895 0.14556143
0.030170556 0.028965179 0.14548069
0.026913764 0.032242492 0.14522365
0.024289418 0.035218053 0.14519477
0.020916827 0.037449572 0.1443074
0.0182127 0.038497113 0.14319971
0.035692032 0.023046829 0.14198506
0.033405703 0.025444495 0.14185682
0.030737158 0.028679203 0.14131713
0.027647829 0.032508243 0.14042088
0.024814093 0.03548374 0.14005575
0.021470929 0.037351094 0.14039055
0.042395726 -0.0066881236 0.17576206
-0.0067308787 0.041911334 0.17152876
0.041990109 -0.0049295928 0.17096537
0.041690759 -0.0021212269 0.16972381
-0.0027798042 0.041577399 0.16562581
-0.0056469608 0.042368256 0.16643056
0.0419145 -0.0041147005 0.16609943
0.041732267 -0.00070867129 0.16676497
-0.001667792 0.042506501 0.16305095
-0.0046965629 0.043321405 0.1616956
0.041567456 0.00021839887 0.16195711
0.041377783 0.0033442359 0.16182113
0.00030241534 0.042594887 0.15848014
-0.0039554201 0.043908536 0.15872473
0.041730653 0.00087504089 0.15830332
0.041416805 0.0043755546 0.1580449
0.040402438 0.0083512999 0.15700555
0.0043382086 0.04232825 0.15448472
0.0011023786 0.042450532 0.15381458
0.041290887 0.005025221 0.15309191
0.040499158 0.0087927133 0.15295345
0.039742626 0.011793237 0.15250802
0.009234298 0.041250665 0.14943376
0.0062718187 0.042396083 0.14943951
0.0023037195 0.042156894 0.15039289
0.040654384 0.0088635664 0.14792573
0.039494008 0.012890888 0.14803585
0.01497173 0.039182466 0.14531124
0.011378413 0.041088492 0.14557487
0.0072788969 0.042695105 0.14503986
0.040716849 0.010278213 0.14388674
0.039419495 0.01407822 0.14360839
0.038491346 0.018403433 0.14309889
0.015580792 0.038706128 0.14168814
0.012523604 0.040367637 0.14069089
0.009400215 0.041715145 0.14073992
0.038486179 0.015334793 0.13956666
0.037417203 0.018665897 0.13944063
0.035640303 0.02159919 0.13875473
0.033483122 0.025360864 0.1390447
0.03068094 0.028635934 0.13860086
0.028721984 0.030872479 0.1381208
0.02076707 0.037384454 0.1374357
0.016987495 0.038216446 0.13741204
0.013143604 0.039903916 0.13706368
0.034839086 0.022079969 0.13465175
0.033199392 0.025042951 0.13421503
0.030645056 0.027889835 0.13392881
0.027811272 0.031644467 0.13420084
0.025043398 0.035451248 0.13454348
0.021567143 0.037608258 0.13353592
0.019062759 0.038871579 0.13265097
0.032653917 0.02592635 0.13033211
0.030905737 0.027952263 0.1303423
0.027513934 0.031151516 0.12995797
0.024508208 0.03470419 0.12925449
0.021371242 0.03780828 0.12815666
0.019378345 0.039026998 0.12914768
0.042026013 -0.007030597 0.16471472
0.041342214 -0.0029826108 0.16355428
0.041909754 -0.0051423609 0.15954921
0.041490123 -0.0026590023 0.15962461
-0.0050970875 0.042790819 0.15470549
-0.008032525 0.045037195 0.15530774
0.041965712 -0.0010283813 0.15560892
0.041497193 0.002319295 0.15517882
-0.0010196995 0.042778462 0.15152466
-0.0047694705 0.042979658 0.15056354
-0.0073025431 0.045002416 0.14985853
0.042340145 0.0001813788 0.15121445
0.041826714 0.0028571598 0.15144977
0.00075761601 0.042702887 0.14764532
-0.0034687407 0.043437898 0.1463466
-0.0069002472 0.046346303 0.14610419
0.041857943 0.0042588972 0.14727771
0.041173518 0.007654788 0.14528218
0.0054374728 0.042962231 0.14241666
0.0015867949 0.043095056 0.14295852
0.042205051 0.005173739 0.14246359
0.041135855 0.0083445236 0.14099297
0.03992556 0.012106387 0.14060938
0.0076330304 0.04226185 0.13841981
0.0038608871 0.042850513 0.13819078
0.040825538 0.0089844484 0.13759938
0.03953059 0.012393197 0.13673693
0.037723627 0.015874304 0.136361
0.01534642 0.038221456 0.13469398
0.012322468 0.040213794 0.13429117
0.0088827368 0.042221062 0.13377324
0.0054076891 0.043268166 0.13344049
0.039341345 0.013769535 0.13167322
0.037822135 0.017051976 0.13251445
0.035644174 0.0208741 0.13260415
0.03388346 0.023463687 0.13165098
0.016431969 0.039093852 0.13111621
0.01339048 0.040792257 0.1301305
0.0099737588 0.041975096 0.1290074
0.03806873 0.017725509 0.1280452
0.035927724 0.021509521 0.12806505
0.033439085 0.024451755 0.12787437
0.030816944 0.02774273 0.12803119
0.027721332 0.031218821 0.12727612
0.024735363 0.034813002 0.12689453
0.022321329 0.036833048 0.12727031
0.017997596 0.039689783 0.12649855
0.014172893 0.040742911 0.12552208
0.037813574 0.019368835 0.12425876
0.035948247 0.021638341 0.12356624
0.033328153 0.024827199 0.12279537
0.031276744 0.027918529 0.12293816
0.028409019 0.031737231 0.12294436
0.025687287 0.035223242 0.12226897
0.022445235 0.037783451 0.12241462
0.018866617 0.039490536 0.12209165
0.031103589 0.02878046 0.1188401
0.029452575 0.031496897 0.1180293
0.026656181 0.035162192 0.11701524
0.022694988 0.037628278 0.11750764
0.042189881 -0.0077232011 0.15825555
0.041901201 -0.0069317184 0.15278447
0.041848302 -0.0033428948 0.15248016
-0.0050627403 0.042656839 0.14811736
0.041577712 -0.0058532711 0.14914453
0.041787792 -0.0030487217 0.14883479
-0.0052312836 0.043590385 0.1434837
-0.0063980762 0.044995315 0.14570683
0.041800521 -0.00089418702 0.14468062
0.042034451 0.0020259619 0.14409244
-0.0029408187 0.043287925 0.1406875
0.04168145 -0.00063205883 0.13962919
0.042020176 0.002175495 0.13990405
0.0012023188 0.042561863 0.1363073
-0.0015461203 0.042771518 0.13520515
0.041506819 0.0034260321 0.13566333
0.040604435 0.0075965095 0.13481373
0.0032882839 0.043018721 0.13153678
-0.00058919564 0.042637903 0.13191801
0.040855847 0.0075192936 0.13016075
0.039892063 0.011390706 0.13071698
0.007984614 0.04255107 0.12721154
0.0047421288 0.043076023 0.12689209
0.041404106 0.00827525 0.12613282
0.039909929 0.011998178 0.12532341
0.038625333 0.015964538 0.1252721
0.012685229 0.041101426 0.12286165
0.008994665 0.04172916 0.12237537
0.004132146 0.043032706 0.12361065
0.039789129 0.012881882 0.12125474
0.038315542 0.016542099 0.12090141
0.036210209 0.020874877 0.12071663
0.034194928 0.023166092 0.12118769
0.016588558 0.039062627 0.11846697
0.013258645 0.040252008 0.1182729
0.010304586 0.041180633 0.11785984
0.037755266 0.017418036 0.11687201
0.036009707 0.020881314 0.11625481
0.033596043 0.024200078 0.1165728
0.031587601 0.027245687 0.11635721
0.030208265 0.030253289 0.11588967
0.021338075 0.037848163 0.11508179
0.017717043 0.038511939 0.11462945
0.014835066 0.039724898 0.11417204
0.035837296 0.021730576 0.11211318
0.034241535 0.024539949 0.11138779
0.031759266 0.027785849 0.11162543
0.029455563 0.031203238 0.11207849
0.026031096 0.034505244 0.11155355
0.021984784 0.037036359 0.11052853
0.019213475 0.038123917 0.11030549
0.028611107 0.031104663 0.10758716
0.026124697 0.03338198 0.10726392
0.04140196 -0.0081916619 0.14688545
0.040391788 -0.0054835733 0.14484
0.040450484 -0.0076337438 0.14185336
0.04077122 -0.0043436997 0.14187071
-0.0048214961 0.042594127 0.13690558
-0.008050235 0.041991934 0.1374771
0.041099325 -0.0027347356 0.13720378
-0.0043521691 0.042460412 0.13284025
-0.007939484 0.042960264 0.13214383
0.041906826 -0.00091927685 0.13293588
0.041724756 0.0014922619 0.13284826
-0.0026049726 0.042783372 0.12859681
0.042140223 -0.00096604787 0.1292195
0.04170645 0.0024725273 0.12889695
0.0018922221 0.042866789 0.12498516
-0.0017308109 0.042020332 0.12449178
0.042309932 0.0034295376 0.12467334
0.041559726 0.0072963219 0.12376678
0.0070364662 0.041888513 0.11905354
0.0034494046 0.042586736 0.12045985
0.041034266 0.0072634947 0.11955225
0.040229656 0.011225725 0.11867791
0.008626638 0.041936137 0.11596423
0.0050922055 0.042631008 0.11573988
0.040742703 0.008339854 0.11609286
0.03975625 0.011723407 0.11413103
0.038444646 0.015783392 0.11421251
0.016208142 0.039070003 0.11178964
0.013163079 0.040474664 0.11226696
0.0096650217 0.042210862 0.11125654
0.0061800089 0.04269772 0.11121446
0.039717585 0.01270358 0.11012393
0.03820793 0.016357813 0.10967207
0.036701236 0.020559568 0.11006409
0.017430644 0.038755346 0.10824925
0.01402628 0.040571541 0.10733533
0.01086265 0.041954748 0.1073541
0.035770319 0.020601138 0.10492229
0.034169145 0.024122043 0.10525864
0.03153158 0.027229751 0.10531908
0.029251946 0.030392082 0.10509205
0.026128974 0.033246856 0.10426432
0.022227578 0.036075458 0.1042971
0.017734788 0.037877377 0.1038332
0.015023432 0.039508715 0.10347503
0.034141086 0.023834795 0.10066718
0.031334013 0.027389526 0.10006195
0.029287349 0.030432254 0.09982866
0.026130911 0.033015519 0.099235058
0.022605482 0.035833605 0.099655509
0.03980127 -0.006559113 0.13916051
0.040286031 -0.0059304014 0.13452479
0.041393064 -0.007612342 0.12997946
0.04116023 -0.0048558973 0.13035348
-0.0075625516 0.043518629 0.12615338
0.04176221 -0.003170101 0.1262418
-0.0036564469 0.0420365 0.12136519
-0.0079746861 0.043638937 0.12081808
-0.008580761 0.046173699 0.12310526
0.041228123 -0.0024764091 0.12202531
0.041925073 0.00079817884 0.12104088
-0.001696812 0.042170428 0.1175161
0.041583076 0.0029963907 0.11800289
0.041444965 0.0052808877 0.11773664
0.002086591 0.042746987 0.11443049
-0.00010875799 0.042558461 0.11291808
0.041670695 0.0031914227 0.11281151
0.041277055 0.0064866915 0.11320078
0.04007262 0.010277595 0.11189365
0.0036330726 0.042691492 0.1092816
0.00022154674 0.042758919 0.10934395
0.041421097 0.0070848204 0.10829669
0.040438104 0.01112421 0.10822397
0.038813766 0.014459605 0.10663384
0.0090462845 0.041898273 0.10482806
0.0053776484 0.042522728 0.10512853
0.041567605 0.0083935335 0.1049425
0.040441245 0.011043538 0.10344034
0.037853353 0.015584252 0.10312146
0.036318313 0.019080635 0.1024403
0.016833466 0.037744846 0.1005128
0.012973282 0.039355259 0.10039294
0.0084116701 0.040739097 0.10112572
0.040023573 0.012354751 0.10031849
0.037981723 0.015756305 0.098484457
0.03617768 0.019967917 0.098276913
0.034198344 0.023739824 0.097994864
0.032116886 0.026139189 0.097883403
0.022739686 0.035284244 0.096331894
0.018275823 0.037322685 0.096506894
0.014278675 0.038548183 0.096029997
0.036404088 0.019902777 0.093451083
0.034184329 0.023447488 0.093070984
0.03192481 0.026991282 0.093656003
0.029364672 0.030208766 0.09384197
0.026177479 0.032780811 0.093217373
0.022900229 0.035269789 0.092481673
0.020033386 0.037217956 0.091702521
0.034117714 0.024428088 0.088985741
0.03241387 0.027174311 0.088151932
0.029552903 0.030097269 0.087958992
0.02633507 0.032325465 0.088295639
0.022353439 0.035512038 0.088290989
0.019892368 0.037872393 0.088032126
0.032052018 0.028548695 0.084754884
0.030553009 0.029942214 0.084570169
0.041897267 -0.0075269714 0.12453336
0.041737378 -0.0047572032 0.12400535
-0.0074559283 0.042224191 0.11843324
0.041021798 -0.0043450072 0.11989552
-0.0046497732 0.042220969 0.1156711
-0.007199876 0.043357611 0.11492443
0.040827818 -0.0034089331 0.1154092
0.040451664 -0.00089000538 0.11461884
-0.0030400325 0.042629652 0.11107844
-0.0064199753 0.043645803 0.11003989
0.041081034 0.00086702406 0.10964578
-0.0018834788 0.042844072 0.10582745
-0.0050065331 0.043483548 0.10539466
0.042079568 0.0031196028 0.10617334
0.042110179 0.0051332153 0.10636711
0.0028870162 0.042681217 0.10270572
-0.00021069497 0.042901285 0.10168892
0.042517137 0.0033071563 0.10262769
0.041623361 0.0062642973 0.10177481
0.041046143 0.0095634516 0.10134
0.0077194907 0.040376469 0.097961843
0.0042284466 0.04177171 0.098302543
0.041189417 0.0068035182 0.09718436
0.040296946 0.010213308 0.097019255
0.038971178 0.013671296 0.097096264
0.011799383 0.039015196 0.095139742
0.008705182 0.040152162 0.093738794
0.0052787978 0.041367725 0.094148338
0.039930977 0.011113071 0.09292233
0.038822591 0.014541966 0.092885256
0.037047554 0.018880282 0.09149164
0.017564788 0.037657794 0.090292156
0.014289666 0.038357433 0.090477645
0.01066583 0.039438438 0.089070737
0.038863894 0.014905923 0.087819874
0.037036315 0.019204868 0.087498128
0.034856826 0.023107134 0.08670181
0.02589085 0.032621358 0.085482359
0.022900887 0.034706511 0.085618436
0.019596215 0.0374901 0.085357726
0.015278299 0.038482346 0.085913837
0.037504017 0.019107321 0.082578838
0.034699414 0.023608606 0.082139552
0.032843187 0.027032262 0.08212626
0.030007692 0.030507838 0.081969798
0.026706619 0.032747962 0.08162719
0.023059826 0.034901388 0.080420315
0.019640952 0.037340309 0.080549181
0.016383572 0.038105004 0.081776977
0.037091363 0.020710967 0.079441607
0.035047095 0.023482092 0.07871902
0.032922938 0.027155036 0.078498304
0.030040277 0.030292457 0.076987147
0.02733244 0.032862145 0.076361716
0.024490612 0.034632046 0.075723529
0.020447113 0.037049089 0.07791847
0.040593021 -0.0063805189 0.11332345
0.040231187 -0.0023300201 0.11171031
0.043109834 -0.0075483937 0.10865903
0.04169045 -0.004990831 0.1091854
0.040876944 -0.0019117966 0.10842925
-0.0078733806 0.043098994 0.10352188
0.043707769 -0.0071944855 0.10529453
0.042328358 -0.0039970763 0.10489714
0.041284606 -0.00064459257 0.10389048
-0.0026631318 0.043128442 0.099325776
-0.0061156545 0.043458603 0.099333644
0.040898226 -0.00059576891 0.099303722
0.041554004 0.0039811414 0.098423064
0.0023066998 0.041788898 0.095062435
-0.0011670105 0.042741455 0.094885528
-0.0056710504 0.043594759 0.096134245
0.041270956 0.0046850462 0.094006598
0.004411824 0.041559719 0.091411769
0.00064706989 0.042251028 0.089984238
-0.0030132663 0.043084517 0.091624081
0.041717097 0.0065068919 0.090061128
0.040593985 0.0096607851 0.090514004
0.008850636 0.040234305 0.087420762
0.0053552724 0.041198112 0.086131036
0.042157114 0.0069949515 0.08597821
0.041009162 0.010421361 0.085917473
0.03969482 0.013647842 0.085629821
0.013558852 0.038649749 0.08284086
0.010248339 0.039961345 0.082704008
0.0069151483 0.041263398 0.08255285
0.041603539 0.011256848 0.081091523
0.040009592 0.015029039 0.082003832
0.014903753 0.038736012 0.078882515
0.011552981 0.039874289 0.077918947
0.041465957 0.012267087 0.077292383
0.040490173 0.015476823 0.077144802
0.038138051 0.019266319 0.076862156
0.035023116 0.022809418 0.075768352
0.032459561 0.026561659 0.075795293
0.022818988 0.035717063 0.07539475
0.019654986 0.037401777 0.074994266
0.015835971 0.038647261 0.073965073
0.037723888 0.018994164 0.072765768
0.035010036 0.022817658 0.071437061
0.032791961 0.026686467 0.072065353
0.030556511 0.03004615 0.07233572
0.027254818 0.033074591 0.071575701
0.023860741 0.035488427 0.071017146
0.020189766 0.03717703 0.07031852
0.034465924 0.024222789 0.067645311
0.033334948 0.027234988 0.067286551
0.030934621 0.030382469 0.066985846
0.027735651 0.032787103 0.066483736
0.024487905 0.034994137 0.065991223
0.033138141 0.028483342 0.063281238
0.031486593 0.030689571 0.062482238
0.029363867 0.032463536 0.062091172
0.042226739 -0.0063775964 0.10148758
0.041486248 -0.0055627562 0.098316729
0.039952207 -0.0031681955 0.095860064
-0.0063336082 0.043493111 0.093251228
-0.0087372139 0.044665188 0.092343926
0.039926857 -0.00088476203 0.092904806
-0.0014534909 0.042545728 0.088353693
-0.0053164326 0.042802222 0.088261545
-0.0080158655 0.044729941 0.088593185
0.040807743 0.00044756755 0.087855875
0.040996779 0.0026684143 0.088295758
-0.00051088259 0.041658897 0.084200382
-0.0034468137 0.042533848 0.085006535
0.041629732 0.0010640379 0.084749997
0.041570973 0.0040854067 0.083295405
0.0052697398 0.041406762 0.080177367
0.0014789384 0.041712143 0.080295384
0.041704312 0.0060893465 0.07975024
0.041611142 0.0085254963 0.078133225
0.0091262218 0.040098526 0.075473249
0.0057491623 0.041241348 0.075695753
0.042006738 0.0067456998 0.075291514
0.041553602 0.0098064747 0.074623883
0.039759412 0.013187388 0.07261771
0.01357716 0.03887818 0.071230948
0.010552729 0.039587595 0.071155071
0.00642897 0.04125566 0.071273923
0.039956748 0.010318251 0.07097888
0.039233442 0.013854317 0.069813967
0.037574168 0.017625585 0.06875807
0.035938252 0.020874884 0.068620265
0.019076619 0.03721825 0.066948771
0.015068224 0.038212165 0.066778481
0.011436759 0.039269652 0.066925108
0.038403306 0.014373555 0.066287518
0.037001442 0.018129453 0.064926803
0.035189264 0.021564551 0.064255774
0.033469994 0.02594861 0.063949645
0.026271218 0.033402652 0.063538134
0.022834346 0.035203021 0.062907636
0.019602716 0.036601771 0.062852204
0.015600673 0.037608832 0.062692344
0.035592068 0.021975372 0.059868574
0.033320405 0.026301799 0.059715509
0.030508148 0.029521851 0.057959259
0.027363759 0.032898527 0.059615374
0.023899872 0.034754958 0.058605731
0.020389561 0.03712723 0.057599723
0.032540284 0.027474973 0.055024505
0.030665239 0.029054148 0.055199862
0.027796689 0.03215795 0.054814637
0.024696559 0.034856141 0.054618776
0.021714186 0.037292439 0.054545522
0.040794432 -0.0070910919 0.094477534
0.040783249 -0.0067321565 0.09066093
0.040174123 -0.0035046302 0.090633452
-0.006517889 0.04258386 0.084989607
-0.0086596385 0.0447121 0.085478485
0.04065004 -0.0058850292 0.086022913
0.04066842 -0.0028590113 0.085802734
-0.0056851842 0.042540435 0.081237733
-0.0086785574 0.044870608 0.082067251
0.041328959 -0.00072666258 0.081046343
-0.0010338016 0.041903649 0.077792108
-0.0042286459 0.042096503 0.076647043
0.041074414 -0.00011641905 0.076566696
0.041106846 0.0027485155 0.076902628
0.00061206333 0.042144708 0.073386192
-0.0028989334 0.042708412 0.072333574
0.041405626 0.0043943226 0.07190305
0.0051358175 0.041419081 0.068948567
0.0016043093 0.042285949 0.068727493
0.040563472 0.004754262 0.067957342
0.040372215 0.0085612889 0.068136513
0.039519582 0.011617889 0.067396581
0.0094907517 0.039824892 0.065495431
0.0058675297 0.040767863 0.064203382
0.039366867 0.0092369514 0.063749015
0.038675394 0.012475227 0.06323719
0.037286632 0.016478995 0.0627231
0.014918949 0.038340408 0.06113261
0.010997559 0.039921489 0.060882688
0.0080345254 0.040973537 0.060472548
0.039228853 0.01327468 0.058254659
0.037625186 0.016820474 0.058811545
0.036187869 0.021412304 0.056851208
0.034437291 0.023604343 0.056995451
0.015709475 0.038453177 0.057144344
0.012084753 0.040213007 0.055963814
0.037596967 0.017396651 0.053910315
0.036264196 0.02130801 0.053742588
0.033671301 0.025252305 0.053376555
0.030473132 0.02922241 0.052589715
0.027103372 0.032210175 0.051558077
0.024194019 0.035113752 0.051634192
0.021079786 0.037811451 0.051766813
0.016641116 0.039129354 0.052056909
0.012836266 0.040368397 0.052175343
0.03673216 0.02176581 0.049458623
0.034079697 0.025410943 0.048944533
0.03012649 0.028961491 0.048467517
0.027516123 0.031961001 0.04807055
0.024873333 0.035226889 0.048268139
0.021964915 0.038220566 0.048093617
0.018218897 0.039281636 0.047499001
0.033829838 0.025852486 0.044751287
0.03119651 0.028962532 0.044499695
0.027998194 0.031779427 0.044665813
0.025116034 0.034814909 0.044538677
0.021850092 0.037958458 0.044200182
0.039706346 -0.0072987676 0.080489814
0.040227167 -0.0048241764 0.079263151
-0.0074446704 0.041829057 0.074469864
0.040383648 -0.0039938428 0.074767828
-0.0061498396 0.041948337 0.070325673
0.040507413 -0.0019727405 0.070343792
0.041020073 0.0013761614 0.070289791
-0.00023644418 0.042419974 0.065485537
-0.0030520074 0.042412803 0.065916657
0.040840819 0.002451485 0.065490603
0.039963253 0.0058757048 0.064124405
0.0044108331 0.041478414 0.061313927
0.00036625192 0.041322567 0.061020613
-0.0032538567 0.042148918 0.062532246
0.040173136 0.0032604188 0.061950803
0.039314035 0.0069709383 0.060571611
0.039098933 0.010731717 0.060381472
0.0054007061 0.040909838 0.05724144
0.001010837 0.041446455 0.057522416
0.039486002 0.0080401115 0.05605787
0.039982498 0.011348607 0.056239426
0.01029204 0.040932491 0.053809643
0.0067188684 0.041169442 0.053026438
0.039701298 0.012761629 0.051756084
0.038003132 0.015647396 0.051003039
0.011669781 0.040133562 0.048760235
0.0075308904 0.040778715 0.048612237
0.040072683 0.013084727 0.046579421
0.038068511 0.016780242 0.046925843
0.037462533 0.020108376 0.046571553
0.015589896 0.039316583 0.044661999
0.011782536 0.039803475 0.04391408
0.0086877812 0.041101471 0.045487702
0.038726181 0.017367182 0.041781127
0.036912814 0.021313056 0.042781174
0.034450959 0.023956982 0.041869938
0.031540662 0.027726356 0.040954173
0.027302856 0.031094393 0.040740907
0.023934584 0.034394462 0.040569365
0.021054979 0.037056737 0.040198505
0.016848169 0.038606994 0.039969623
0.038782872 0.018888539 0.03731662
0.037185282 0.021226998 0.036631167
0.034428488 0.024437603 0.036716521
0.031473458 0.027449138 0.036784351
0.028188875 0.030505041 0.036321104
0.024650712 0.033763301 0.035454094
0.021602403 0.036840729 0.035725057
0.034972731 0.024773892 0.033135116
0.02593141 0.033604093 0.032282531
0.022386372 0.037008747 0.031909585
0.040439237 -0.0051575564 0.072051585
-0.007996643 0.041797958 0.067258
0.041659646 -0.007303508 0.06746912
0.041010439 -0.0043436214 0.068316877
-0.0071394872 0.041534998 0.06357342
0.041621558 -0.0066115428 0.063731968
0.040790953 -0.0026814137 0.064199448
-0.005480038 0.041493341 0.059027553
0.040280662 0.001416469 0.059077382
-0.0002964139 0.041594133 0.05517292
-0.0037724953 0.041487686 0.054518104
0.0396359 0.0027974024 0.05366689
0.039524976 0.005273845 0.054638743
0.0014400538 0.041757457 0.051407456
0.039701693 0.0069860797 0.050127983
0.0057916082 0.041567024 0.047446072
0.0024487861 0.04192397 0.046100676
0.040338363 0.0081893764 0.045505583
0.010398747 0.04065831 0.04226476
0.0072041303 0.041799381 0.042508006
0.0036393534 0.04210604 0.041422427
0.040351652 0.0087215155 0.041239321
0.040493459 0.01264589 0.041549027
0.011891852 0.040237777 0.03862673
0.0089350455 0.041860599 0.038199127
0.0060654003 0.042299479 0.038064182
0.039641164 0.013169149 0.035733521
0.039680757 0.017100012 0.036794722
0.031407211 0.027255565 0.034237623
0.019946605 0.037686802 0.033701599
0.016559197 0.038424157 0.034830868
0.013280202 0.039192118 0.033609092
0.039336987 0.017523687 0.031961262
0.03763698 0.021392692 0.031804621
0.03534444 0.025046457 0.031485379
0.03152699 0.027213529 0.031129658
0.028666729 0.030323854 0.031073391
0.025449313 0.034042913 0.03063041
0.022115137 0.036673065 0.029893935
0.018210638 0.037849847 0.029868603
0.015284308 0.038992789 0.030032098
0.037101865 0.021113308 0.027500927
0.035289157 0.024749221 0.027001083
0.031368751 0.027091287 0.026230156
0.028712843 0.02934425 0.025990963
0.025224349 0.032697707 0.026902199
0.021866828 0.03532324 0.026142895
0.035296008 0.024516363 0.022589087
0.033211567 0.028911781 0.021573603
0.030735293 0.030594656 0.022562444
0.040309515 -0.0051483475 0.060608983
-0.0069217402 0.04125309 0.056658924
