# .PCD v0.7 - Point Cloud Data file format
VERSION 0.7
FIELDS x y z
SIZE 4 4 4
TYPE F F F
COUNT 1 1 1
WIDTH 1287
HEIGHT 1
VIEWPOINT 0 0 0 1 0 0 0
POINTS 1287
DATA ascii
-0.055088125 -0.015198648 0.2609919
-0.05462572 -0.018620519 0.26094308
-0.017192563 -0.054894146 0.25836167
-0.012649873 -0.055418976 0.25713009
-0.055279925 -0.016202305 0.25739881
-0.053994071 -0.01987333 0.25670388
-0.05328894 -0.022896538 0.25451058
-0.02380695 -0.053721171 0.25334647
-0.019101655 -0.055118274 0.25359648
-0.013738602 -0.055884961 0.25423804
-0.05431845 -0.021100122 0.25144842
-0.053912703 -0.025358014 0.25165743
-0.028696954 -0.051312096 0.24977839
-0.024804231 -0.053177558 0.24976155
-0.019991225 -0.05526476 0.2486006
-0.055090018 -0.022154778 0.24844497
-0.053765174 -0.026162695 0.24718121
-0.051397197 -0.030473389 0.2471225
-0.048330758 -0.034697186 0.24671331
-0.045318209 -0.038331732 0.24572915
-0.034290712 -0.04903622 0.24496752
-0.029524315 -0.050892211 0.2449851
-0.024860442 -0.053038064 0.24562919
-0.021600062 -0.054933392 0.24572927
-0.053612314 -0.027749896 0.24265313
-0.051437423 -0.030764861 0.2426874
-0.048808251 -0.033780515 0.24164155
-0.045677811 -0.037802447 0.24173576
-0.043198224 -0.042209834 0.24204698
-0.039734498 -0.046076909 0.2413218
-0.034868158 -0.048366643 0.24085391
-0.032332577 -0.049904019 0.24030584
-0.046141826 -0.038449258 0.2381531
-0.043250352 -0.042206343 0.23731095
-0.039799418 -0.045888666 0.23714358
-0.036077365 -0.048645642 0.23706967
-0.032892991 -0.050281204 0.23737466
-0.025014212 -0.0024405774 0.30640212
-0.02532408 -0.0068763616 0.30616108
-0.006191426 -0.025007781 0.30482894
-0.0017767679 -0.025798403 0.30277681
-0.027283229 -0.0052536298 0.30166054
-0.025868099 -0.0072632832 0.3040947
-0.0062169861 -0.026444633 0.30326611
-0.0029492192 -0.028754402 0.29990411
0.00031855609 -0.030488372 0.29850906
-0.031863723 -0.001679766 0.29646322
-0.030657031 -0.0050506182 0.2983751
-0.0048046038 -0.030789003 0.29766056
-0.0016301833 -0.033669323 0.29575059
0.0015596189 -0.034581766 0.29405907
-0.036937013 -0.00044698268 0.29223898
-0.035693489 -0.0033385344 0.29409513
-0.0024964772 -0.036357358 0.29366374
0.0007032901 -0.038832963 0.29104301
0.0037407 -0.040232375 0.28851655
-0.039974615 -0.0014988892 0.28892058
-0.038622923 -0.0046643279 0.29051584
-0.0011075605 -0.042657651 0.28704169
0.0027018581 -0.042473406 0.28556305
-0.044595361 0.00035879202 0.28242067
-0.042863771 -0.002926074 0.28541043
0.00070606545 -0.044887517 0.28164491
0.0035369527 -0.045926828 0.27824941
-0.046672866 -0.0010716654 0.28002724
-0.045972772 -0.0039451066 0.28137511
-0.0010214392 -0.048081584 0.27743813
0.0021124575 -0.048438091 0.27580339
-0.049619623 -0.0024076179 0.2761153
-0.048068739 -0.0050804541 0.27899507
-0.00032801367 -0.051182356 0.27249405
0.0038475655 -0.05284927 0.27171302
-0.051863473 -0.0039242785 0.27202967
-0.0019233562 -0.05303774 0.26827639
0.0016047377 -0.053934779 0.26693529
-0.053273521 -0.0059755817 0.26784018
-0.0032055061 -0.054446921 0.2633245
-0.00076436065 -0.055145212 0.26257229
-0.054568164 -0.0072038509 0.26278624
-0.055213373 -0.011039607 0.26270044
-0.0054416228 -0.054993678 0.25815314
-0.055235475 -0.0080546681 0.25883946
-0.055722434 -0.011794448 0.25948817
-0.010535821 -0.055935498 0.25538138
-0.0069737546 -0.056030817 0.25476107
-0.056515262 -0.0095165316 0.25452307
-0.056155585 -0.013848048 0.25459895
-0.054077655 -0.018410027 0.25328425
-0.012685474 -0.055970065 0.2508744
-0.0087401289 -0.056920111 0.25039613
-0.056801453 -0.014954221 0.25008446
-0.055300623 -0.019217523 0.25046399
-0.017819745 -0.056377426 0.24627349
-0.013736948 -0.056560796 0.24625093
-0.010028427 -0.0571137 0.24652639
-0.056252547 -0.016198974 0.24627963
-0.055458166 -0.020185724 0.24542347
-0.054592654 -0.024383873 0.24407166
-0.024566168 -0.052596878 0.24204278
-0.019914379 -0.055481873 0.24236777
-0.015316688 -0.05638143 0.24231094
-0.055270601 -0.021109933 0.24027789
-0.054374669 -0.025132827 0.24056187
-0.051675748 -0.02988784 0.24023634
-0.028714914 -0.050387472 0.23890159
-0.025299922 -0.053112943 0.2384012
-0.02162333 -0.055033952 0.23773229
-0.05392601 -0.025942769 0.23588175
-0.05199369 -0.03039092 0.23598489
-0.049219593 -0.033774041 0.23600641
-0.046473946 -0.037775323 0.23488304
-0.042978965 -0.041706361 0.2336787
-0.039373185 -0.045251615 0.23339275
-0.03514576 -0.048916891 0.23398605
-0.030165095 -0.05050195 0.23375526
-0.025726397 -0.053291529 0.23365715
-0.023064762 -0.054751135 0.23302013
-0.051895209 -0.029948235 0.23159826
-0.049201407 -0.033372276 0.23083588
-0.046449956 -0.037780691 0.23041749
-0.043535527 -0.042058233 0.23071682
-0.039576035 -0.045253769 0.23014054
-0.035357952 -0.047931049 0.22973371
-0.032687705 -0.049673058 0.2295503
-0.045513015 -0.038663253 0.22697189
-0.043472525 -0.042044777 0.22621024
-0.041517798 -0.043866571 0.22629732
-0.023948109 0.0010032849 0.30316892
0.0031339992 -0.02540819 0.29965743
-0.027711511 0.0024194438 0.2985819
-0.026128819 -0.00029952545 0.30038023
0.0038656378 -0.029610034 0.297387
-0.033738747 0.0046391385 0.29425442
-0.030763783 0.0012619207 0.29660174
-0.029076442 -0.0017416645 0.29812825
0.0024897736 -0.031790521 0.29531211
0.0050955163 -0.033833519 0.29358724
-0.037974671 0.0065950844 0.29014826
-0.037019242 0.0029253978 0.29221314
0.0069056209 -0.038962942 0.28804162
-0.040374711 0.0051781368 0.28743312
-0.039694257 0.0020481907 0.28918397
0.0054071415 -0.04249233 0.28455743
-0.043430816 0.003383901 0.28338474
0.0063572899 -0.045113601 0.27894634
-0.046811089 0.0048484337 0.27783683
-0.046514146 0.0019873586 0.27974498
0.0052619707 -0.047551874 0.27593392
0.0077640153 -0.048328593 0.27372712
-0.04958418 0.0039290376 0.27464539
-0.048366256 0.0011287518 0.27716407
0.0080050062 -0.052696779 0.26917675
-0.051447995 0.0017671529 0.27003381
0.0059450082 -0.05344848 0.26533112
0.0094760954 -0.053854208 0.26433635
-0.053583674 0.00086235814 0.26495951
-0.053144969 -0.0027991477 0.26565862
0.0025465004 -0.05471731 0.26055354
0.0058596358 -0.054946814 0.25819996
-0.058195345 0.0030844733 0.26000974
-0.056272723 -0.00034321286 0.26119328
-0.054467149 -0.0037996788 0.26160946
-0.0024119969 -0.054534808 0.25813034
0.0010447819 -0.056265593 0.25647831
0.0049915407 -0.05758854 0.25531021
-0.059392475 0.0019641165 0.25840253
-0.056800634 -0.00097661652 0.25738427
-0.055681556 -0.005523162 0.25742668
-0.0041214917 -0.055925213 0.25354752
-0.00034084916 -0.057120994 0.25254241
0.0042962134 -0.058129549 0.25247493
-0.056658641 -0.0068494026 0.25283965
-0.0053133406 -0.056424551 0.24794129
-0.0023806114 -0.056523241 0.24774164
-0.057444192 -0.0088069309 0.24805066
-0.057392813 -0.011878053 0.24744961
-0.0071980953 -0.056649335 0.24329841
-0.058096536 -0.0093851909 0.24326092
-0.05702544 -0.0137059 0.24333704
-0.055547588 -0.017894637 0.24215189
-0.013358923 -0.056707524 0.23971495
-0.0089470651 -0.056255884 0.23878035
-0.058841735 -0.010408731 0.23837417
-0.057644144 -0.014782678 0.23875266
-0.055989608 -0.018915532 0.23904517
-0.018768743 -0.054836601 0.23534262
-0.01487631 -0.056192048 0.23497054
-0.010363573 -0.05701264 0.23497859
-0.057721917 -0.016112188 0.23476142
-0.05624247 -0.020211231 0.23433408
-0.054780219 -0.023874648 0.23330429
-0.027780868 -0.051079094 0.23040166
-0.024707403 -0.052145269 0.22943053
-0.020193709 -0.054632124 0.23058707
-0.016231552 -0.056049451 0.23048171
-0.055507734 -0.020974038 0.22985846
-0.053523205 -0.024932053 0.22914025
-0.051917095 -0.029768635 0.22902119
-0.04924427 -0.033225559 0.22828099
-0.034034144 -0.04780332 0.22693324
-0.029788513 -0.049825028 0.22746831
-0.025315344 -0.051829912 0.22606188
-0.021097079 -0.054015525 0.22538641
-0.018388567 -0.05610422 0.22640467
-0.052612729 -0.026021484 0.22538853
-0.051582392 -0.029351689 0.22470537
-0.049487747 -0.033414174 0.22475287
-0.046555873 -0.037146501 0.2239756
-0.0434434 -0.041132759 0.22303823
-0.03865245 -0.044380635 0.22326446
-0.034543261 -0.047094934 0.22352058
-0.030880319 -0.048963092 0.22313589
-0.025540199 -0.051615424 0.22285524
-0.022920415 -0.054162048 0.22263658
-0.049250726 -0.032673217 0.22074926
-0.046229258 -0.036829874 0.2198351
-0.037795827 -0.043861415 0.21868074
-0.035449136 -0.045743145 0.22002998
-0.023320116 0.0039399043 0.30085063
-0.029006124 0.0048017856 0.29623333
-0.048835352 0.0090328064 0.2718682
-0.050685033 0.0070896093 0.26801869
-0.053450488 0.0083077699 0.26312488
-0.05277963 0.0052044448 0.26453048
0.0064745862 -0.052507721 0.26044399
0.0092426799 -0.054629449 0.25890717
-0.056395084 0.0065886453 0.25892809
0.0072410349 -0.057564043 0.25603494
-0.05897864 0.0045318361 0.25543392
-0.056400526 0.00081229955 0.25491196
0.0058301818 -0.058170762 0.24999404
-0.062720723 0.0078203361 0.25115377
-0.058319151 0.0037676543 0.25237483
-0.05577166 0.0004103519 0.25038064
-0.056101564 -0.0043024458 0.24923593
0.00055030361 -0.056524616 0.24566042
0.004945768 -0.057900596 0.24441367
-0.055959474 -0.0010511242 0.24511889
-0.055694163 -0.0034919698 0.24544266
-0.00095796213 -0.056608908 0.24084231
0.0035325494 -0.058487579 0.24043471
-0.056738161 -0.0021094512 0.24204782
-0.057242036 -0.005340714 0.24033448
-0.0063819699 -0.056576662 0.2369298
-0.0017755218 -0.056233723 0.23686743
-0.059146948 -0.0089686699 0.23672509
-0.058461681 -0.011934334 0.2362445
-0.0081284847 -0.057115518 0.23215196
-0.058516979 -0.0094481744 0.2319842
-0.057596661 -0.012880363 0.23130745
-0.05633238 -0.017682364 0.23068595
-0.014036791 -0.056477841 0.22798309
-0.010372695 -0.057595678 0.22880039
-0.056816995 -0.014181046 0.22748029
-0.055016756 -0.018095376 0.22686753
-0.053502344 -0.021412747 0.22630596
-0.019980466 -0.055499576 0.22435626
-0.015781598 -0.055825569 0.22322845
-0.053942554 -0.018787641 0.2232475
-0.052264445 -0.022443702 0.22265971
-0.052087724 -0.026246741 0.22184324
-0.02867776 -0.048749458 0.2203587
-0.025266401 -0.051227182 0.22003731
-0.02086704 -0.054387257 0.21988019
-0.017212609 -0.055757247 0.21980989
-0.052489795 -0.023218162 0.21830592
-0.050871886 -0.02696912 0.21747148
-0.048783612 -0.031675056 0.21709651
-0.045314845 -0.03568878 0.21641672
-0.041040406 -0.038698651 0.21646762
-0.037730407 -0.042264313 0.21575779
-0.033434719 -0.04582167 0.21634838
-0.029779369 -0.047790647 0.21632811
-0.024905287 -0.050584525 0.21593145
-0.020645756 -0.053783223 0.21635336
-0.050596122 -0.028258689 0.21339455
-0.048406936 -0.031798173 0.21229354
-0.045206703 -0.034989644 0.21196905
-0.041359875 -0.038687523 0.21147591
-0.038434219 -0.042000595 0.21141651
-0.034806203 -0.045367725 0.21120685
-0.031715408 -0.047792602 0.21142331
-0.047358524 -0.034084443 0.20902258
-0.041986521 -0.039607584 0.20826328
-0.039682351 -0.042684726 0.20760399
-0.03663652 -0.045202628 0.208404
-0.056553081 0.0099825133 0.25286037
-0.060663342 0.0088719577 0.24881801
-0.057349227 0.0064206719 0.24836013
-0.05652149 0.0019100625 0.24725473
-0.057984341 0.0050442014 0.24384084
-0.056931842 0.00093403086 0.24407995
0.0028718486 -0.058028173 0.23803696
-0.057835497 0.0045030527 0.24017441
-0.057121947 -0.00029983744 0.2391353
-0.00039323978 -0.056178123 0.23396754
0.0036217291 -0.0563053 0.23542351
-0.057119064 -0.001030175 0.23450959
-0.057105482 -0.0038912799 0.23440847
-0.0015296582 -0.055473454 0.23001778
-0.057217062 -0.0052183419 0.23027807
-0.0061481558 -0.056195557 0.22608292
-0.058429521 -0.0090086311 0.22839326
-0.056816775 -0.011504352 0.22456175
-0.054992266 -0.015716901 0.22426331
-0.0099392589 -0.055158161 0.22142285
-0.055737406 -0.012480464 0.22123942
-0.053957049 -0.016156416 0.22033113
-0.052860573 -0.020259228 0.22047362
-0.015349692 -0.055753898 0.2174288
-0.010704083 -0.055361703 0.21699911
-0.053318635 -0.016850552 0.21651846
-0.05297631 -0.020952124 0.21559587
-0.052412897 -0.024948312 0.21465892
-0.028484344 -0.048205644 0.21323252
-0.025193574 -0.050970592 0.21295205
-0.020298162 -0.053301789 0.21257937
-0.016924676 -0.054752871 0.21373719
-0.053090908 -0.022121567 0.21042269
-0.051429857 -0.026390333 0.21098426
-0.049636818 -0.030261714 0.21115783
-0.043636847 -0.036696393 0.21003485
-0.033091009 -0.046947714 0.2091547
-0.029360315 -0.048063111 0.20932794
-0.025991011 -0.050371241 0.20891196
-0.021643829 -0.051662609 0.20797077
-0.053161647 -0.022999892 0.20734495
-0.051280018 -0.027146749 0.20676261
-0.049051177 -0.031456802 0.20704612
-0.046115242 -0.036133993 0.20737335
-0.043138206 -0.039692655 0.20651266
-0.039720759 -0.043884091 0.20502263
-0.036005337 -0.046503358 0.20604062
-0.03099696 -0.048833895 0.20547172
-0.02664908 -0.050515816 0.20430979
-0.048477292 -0.031087354 0.20272982
-0.045978457 -0.035610672 0.20156717
-0.043130364 -0.039774258 0.20152164
-0.040145498 -0.042808097 0.20080581
-0.035854273 -0.046331495 0.2003336
-0.032015927 -0.049125779 0.20035401
-0.043385912 -0.039750431 0.19728786
-0.039530303 -0.043209016 0.19684747
-0.037621718 -0.044433221 0.19642937
-0.032476589 -0.049750313 0.19612941
-0.057476141 0.0098551866 0.2448968
-0.059301585 0.010180285 0.2438671
-0.057488747 0.0080375262 0.24131405
-0.057420969 0.0070561729 0.23631328
-0.057085529 0.0024390314 0.23635501
0.0033297837 -0.054426271 0.22979468
0.0061678961 -0.054715171 0.23105142
-0.057852745 0.0057394411 0.23180932
-0.057106744 0.0014228448 0.23191366
0.001385428 -0.054490887 0.22691801
-0.056627654 0.00089098327 0.22791272
-0.056481972 -0.0025604423 0.22769535
-0.00061604194 -0.053763345 0.2227439
-0.055437986 -0.004217159 0.22270697
-0.0060249064 -0.054534309 0.21943891
-0.003556231 -0.054728653 0.21711794
-0.056116264 -0.0056855902 0.21926352
-0.055645324 -0.0096827857 0.21820131
-0.0083266366 -0.055102855 0.21410388
-0.0045201275 -0.055480387 0.21352634
-0.055021495 -0.010842051 0.21407872
-0.053566214 -0.015140558 0.2138387
-0.012958035 -0.053712133 0.21074072
-0.0092559755 -0.054559167 0.20996201
-0.054851741 -0.012134682 0.20992276
-0.054119948 -0.015387274 0.20888412
-0.053292468 -0.019045174 0.20930663
-0.018918537 -0.052412145 0.20584184
-0.013940532 -0.053193502 0.20527565
-0.010996392 -0.054536484 0.20530474
-0.054633267 -0.016995214 0.20425671
-0.053639084 -0.020880669 0.2047722
-0.052175298 -0.02459948 0.20462716
-0.024955256 -0.051092751 0.20178959
-0.020313529 -0.051840108 0.20163617
-0.015574226 -0.05351036 0.20094216
-0.053090863 -0.021814365 0.20031023
-0.051165536 -0.025991008 0.20014551
-0.048867758 -0.030443668 0.19939137
-0.046674702 -0.033673797 0.198129
-0.029151738 -0.048680007 0.19671297
-0.026545918 -0.05018428 0.19834614
-0.022664487 -0.051311579 0.19773924
-0.050873559 -0.026620073 0.19551352
-0.049280535 -0.030770658 0.19469479
-0.046437945 -0.035324831 0.19519526
-0.043237012 -0.03942189 0.19445989
-0.039853822 -0.042039022 0.19427493
-0.035317838 -0.045441423 0.19382164
-0.031581473 -0.048473518 0.19342276
-0.026271725 -0.049928091 0.19408879
-0.047985334 -0.031297602 0.19076872
-0.046020031 -0.035042431 0.19061255
-0.043192875 -0.038643487 0.18954891
-0.039613552 -0.042079516 0.18962884
-0.035543345 -0.045138955 0.18957627
-0.032414503 -0.048317954 0.18937239
-0.057656255 0.010807768 0.23445484
0.0080623999 -0.054180421 0.22936499
-0.059790798 0.011180235 0.23011136
-0.058884483 0.0084757674 0.23012653
0.0038565174 -0.053795144 0.22421497
0.0068262853 -0.055163249 0.22512624
0.0093580782 -0.056867365 0.22378331
-0.058691718 0.0065936726 0.22632408
-0.057212245 0.0026698485 0.22580141
0.0026578568 -0.05397452 0.22103265
0.0064322166 -0.055382669 0.22022778
0.0086196717 -0.057426576 0.2200135
-0.055629946 0.0036885999 0.22119036
-0.054470446 -0.00028352626 0.22080094
0.00020745397 -0.054243259 0.21688533
0.0041144565 -0.054333702 0.21612358
-0.055430133 -0.003335882 0.21598646
-0.0018442459 -0.056525946 0.21178478
0.0019191839 -0.056464043 0.21054769
-0.055761661 -0.004061481 0.21198747
-0.055582773 -0.0079602525 0.2126295
-0.0069940295 -0.055022791 0.20798817
-0.0039030649 -0.056249849 0.20791054
0.00042209588 -0.057394527 0.20811021
-0.055381723 -0.0091978628 0.20727766
-0.0087306313 -0.055094369 0.20330909
-0.0046899486 -0.056352183 0.20289332
-0.055643328 -0.010838343 0.20251268
-0.055365071 -0.014731115 0.20291296
-0.014343085 -0.054127425 0.19903535
-0.010422971 -0.05521477 0.19857132
-0.054147247 -0.015405074 0.19837004
-0.053112853 -0.018780643 0.19830522
-0.01923538 -0.05125843 0.1956459
-0.015864091 -0.052508809 0.19454461
-0.053044878 -0.020007571 0.19331858
-0.051328972 -0.024223212 0.19298893
-0.028963964 -0.048179608 0.19027615
-0.025831275 -0.049642354 0.19061854
-0.021262323 -0.051035795 0.19060743
-0.017390994 -0.051753361 0.19144535
-0.052953489 -0.021276629 0.18902555
-0.0507758 -0.025173068 0.18847671
-0.048644129 -0.029396743 0.1883105
-0.046355125 -0.033141751 0.18765154
-0.040492881 -0.040458739 0.18739921
-0.035112035 -0.044551075 0.18647277
-0.030331375 -0.0480562 0.18665642
-0.026858643 -0.050117441 0.18652388
-0.022851635 -0.051471978 0.18601567
-0.048177667 -0.029429596 0.18432885
-0.046102088 -0.033476468 0.1841878
-0.043081459 -0.037539814 0.18390459
-0.039235979 -0.041083016 0.18350127
-0.035731319 -0.04391088 0.18296409
-0.031944454 -0.047242813 0.18266171
-0.027329594 -0.049952723 0.1824306
-0.043957394 -0.038201984 0.17945009
-0.040360983 -0.041903932 0.17907649
-0.036868811 -0.044476461 0.17894131
-0.033261895 -0.047034934 0.1790629
-0.056826495 0.0089223962 0.21927476
-0.054531902 0.003727261 0.21845794
0.007428294 -0.054578152 0.21365052
-0.057173744 0.0077425856 0.21430108
-0.054984398 0.004995212 0.21406764
-0.053535406 0.0018977709 0.2143499
0.0064088497 -0.054608755 0.20911393
0.009032689 -0.05482306 0.21019351
-0.054515649 0.00025841966 0.20931268
0.0026224833 -0.056627441 0.20456314
-0.062053718 0.0068456586 0.20672169
-0.054547802 -0.0017924961 0.20521313
-0.055616766 -0.0059041362 0.20434225
-0.0038562287 -0.056974661 0.20032081
0.0012896787 -0.057418838 0.20072961
0.0044937283 -0.058543697 0.19880396
-0.054729477 -0.0025255736 0.20171469
-0.055496484 -0.0067885369 0.19965565
-0.0081883706 -0.055716544 0.19659007
-0.004106313 -0.056068014 0.19627139
-1.0795891e-05 -0.05713309 0.19712079
-0.053686075 -0.0089389961 0.19612932
-0.053453848 -0.012222821 0.1949892
-0.012859462 -0.05325041 0.19297171
-0.0091736298 -0.054433219 0.19213364
-0.0055368859 -0.055875212 0.19216442
-0.053518362 -0.014542887 0.19183427
-0.053710811 -0.017883532 0.1906454
-0.019702597 -0.051670227 0.1872226
-0.015367776 -0.05284033 0.18870595
-0.010100815 -0.054531805 0.18755719
-0.053723756 -0.015416622 0.18696371
-0.053237181 -0.018907003 0.18617693
-0.051196769 -0.022978645 0.18576968
-0.021348065 -0.051821653 0.18382871
-0.016183201 -0.052997909 0.18410629
-0.011401797 -0.055172861 0.18464032
-0.052624978 -0.018916171 0.18194067
-0.050315373 -0.023826409 0.18203765
-0.048443202 -0.028542059 0.1816811
-0.046220083 -0.032035656 0.1813488
-0.02912488 -0.047792867 0.17955631
-0.02681838 -0.050277818 0.17991266
-0.021981388 -0.051393747 0.17932689
-0.04829425 -0.028492413 0.17729425
-0.04645589 -0.033308957 0.17808223
-0.044113591 -0.037823841 0.17598945
-0.040328681 -0.041648038 0.17537826
-0.0366477 -0.044388212 0.17590183
-0.031330716 -0.047053069 0.17625594
-0.026404018 -0.049426008 0.17554194
-0.023685373 -0.051251136 0.17519045
-0.047857247 -0.029889945 0.17318574
-0.046506077 -0.032737415 0.17223832
-0.043905042 -0.037556302 0.17181873
-0.040069144 -0.040902369 0.17155665
-0.035982087 -0.043541174 0.17220899
-0.031982075 -0.045463517 0.1723727
-0.057642922 0.0096778795 0.21288049
-0.053827748 0.0041282773 0.21101281
0.0081508402 -0.053498924 0.20659223
0.010015724 -0.054675803 0.20689413
-0.057700537 0.008989837 0.2071813
-0.054672316 0.0058301147 0.20723051
-0.053243876 0.0030500237 0.20589089
0.0064756293 -0.056887232 0.20251697
-0.058918104 0.0077464469 0.20315564
-0.055623379 0.0052891783 0.20258859
-0.054108575 0.0018895697 0.20277584
0.0064870138 -0.057782434 0.19845706
-0.05888484 0.0066105369 0.19915929
-0.057449166 0.00359031 0.19815218
-0.055390373 -0.00048571825 0.19832224
-0.0011315756 -0.055296402 0.19220388
0.0018388256 -0.057178825 0.19352186
0.0049267672 -0.058039479 0.19398633
-0.059160087 0.0044421945 0.19571185
-0.054808278 -0.0017681252 0.19302988
-0.053848766 -0.0057651605 0.19352093
-0.0024470463 -0.055014625 0.18857086
0.0010092072 -0.056108382 0.18831459
-0.054782629 -0.0036382023 0.18976235
-0.053438805 -0.0071960855 0.1890398
-0.053036015 -0.010619037 0.18999365
-0.0077955406 -0.054985993 0.18548819
-0.0047375541 -0.055071022 0.18529591
-0.054155 -0.008573154 0.18477932
-0.053416587 -0.012121584 0.18493491
-0.015047584 -0.052565664 0.18057588
-0.010328293 -0.054410372 0.18102351
-0.0063285623 -0.055563081 0.18144184
-0.054629199 -0.009297194 0.18127349
-0.053599767 -0.013258701 0.18033427
-0.052678853 -0.017697355 0.17965862
-0.050389007 -0.021058328 0.17875358
-0.016162436 -0.052071631 0.17673475
-0.01167264 -0.053426631 0.17658669
-0.053802572 -0.014536429 0.17587337
-0.053001583 -0.018010875 0.17515436
-0.049965385 -0.02253174 0.1755743
-0.027909173 -0.046313956 0.17293987
-0.027106106 -0.047640573 0.17310804
-0.021037437 -0.051482793 0.17315674
-0.017206775 -0.052260593 0.17219165
-0.052339371 -0.019223528 0.17173058
-0.050871853 -0.023076136 0.17084876
-0.04878588 -0.027955689 0.17165643
-0.046717551 -0.031645831 0.16886252
-0.037770372 -0.04084808 0.16833711
-0.034884822 -0.042783562 0.16816735
-0.03137498 -0.045234505 0.16911143
-0.026243918 -0.047671627 0.16907796
-0.022341406 -0.051006675 0.16877919
-0.018951396 -0.052272655 0.1692009
-0.050221954 -0.025286902 0.16604394
-0.048999213 -0.028350454 0.16585901
-0.04658033 -0.032337446 0.16547203
-0.043178372 -0.036435336 0.16553757
-0.039211515 -0.039939757 0.16505119
-0.035366386 -0.042497557 0.16420919
-0.031654306 -0.045433715 0.16426274
-0.048524324 -0.02971708 0.16167164
-0.046359859 -0.032360416 0.16127527
-0.042997319 -0.03579225 0.16074163
-0.03948044 -0.039931975 0.16064003
-0.036058858 -0.04294448 0.16039711
-0.03342152 -0.044630148 0.16051468
-0.059322573 0.0063896831 0.19678861
-0.057662282 0.0085376129 0.1933617
-0.057077236 0.0036674123 0.19236049
-0.055379987 0.00075886212 0.19123802
0.0033753105 -0.056195606 0.18686825
0.0068980586 -0.056166302 0.18875384
-0.054919191 -0.00030016527 0.18687028
-0.053967126 -0.0047420785 0.18713763
-0.0015046559 -0.054839365 0.18283716
0.0023035556 -0.055717446 0.18232244
-0.059395287 0.0008498691 0.18476894
-0.055015668 -0.0023026019 0.18250543
-0.054607019 -0.0059155971 0.18308738
-0.0028343201 -0.05494725 0.17833066
-0.055107847 -0.0029398147 0.1788424
-0.054134998 -0.006766852 0.17852402
-0.053720549 -0.011099275 0.17761999
-0.009729173 -0.053981356 0.17466044
-0.0055170264 -0.054595515 0.17411998
-0.05362542 -0.0076509472 0.17466241
-0.054033563 -0.012045946 0.17288598
-0.015175849 -0.052967012 0.17031676
-0.011842465 -0.05402666 0.17000687
-0.0075157639 -0.054690465 0.16903612
-0.054150373 -0.013129054 0.16818589
-0.053131789 -0.017379461 0.1692898
-0.020383496 -0.051392846 0.16591769
-0.016762068 -0.052455876 0.16613391
-0.012922775 -0.053796619 0.16500106
-0.054822795 -0.014529329 0.1636613
-0.053343959 -0.017441157 0.16418666
-0.051328868 -0.022426423 0.16498655
-0.026161857 -0.047323368 0.16344085
-0.021405715 -0.050109312 0.16223323
-0.017515779 -0.052107617 0.16138604
-0.014158981 -0.053779639 0.16197443
-0.055766892 -0.015254587 0.16080225
-0.053779073 -0.018134151 0.16059849
-0.051263943 -0.022891067 0.15970904
-0.049056642 -0.02762668 0.15895471
-0.046331584 -0.031156741 0.15825358
-0.042336322 -0.035309214 0.157675
-0.03913822 -0.039408837 0.15748763
-0.03594432 -0.042684756 0.15775549
-0.031877849 -0.045387525 0.15799749
-0.02626843 -0.046826262 0.15727013
-0.021452658 -0.049950007 0.1576165
-0.048679654 -0.027888522 0.15420952
-0.045936424 -0.030927874 0.15445599
-0.042578463 -0.03403144 0.15410286
-0.038437098 -0.038229197 0.15360469
-0.035484903 -0.041977968 0.15306583
-0.031973224 -0.044928756 0.15256375
-0.031258706 -0.046173066 0.14906609
-0.055666231 0.0065726638 0.18961856
0.0065512303 -0.054309689 0.18369105
0.0093499832 -0.053857319 0.18307242
-0.054707214 0.0026009902 0.18357521
0.0043684188 -0.055093594 0.17875558
0.0089898352 -0.054113947 0.18064228
-0.05479347 0.0017067399 0.18037045
0.0024782009 -0.055684984 0.17630497
0.005147526 -0.057382569 0.17571053
-0.054494191 -0.00062502548 0.17538843
-0.053839393 -0.0042813551 0.17576092
-0.0021687094 -0.054248057 0.17194355
0.0018072855 -0.055126432 0.1715641
0.0036091246 -0.058682337 0.17338228
-0.05478064 -0.0019338336 0.17189372
-0.053742841 -0.0055473968 0.17155033
-0.0041894726 -0.054427363 0.16780925
-0.0016094781 -0.054968037 0.16711769
-0.0546088 -0.0068291556 0.16659802
-0.054720894 -0.010331748 0.16725883
-0.0095124133 -0.05372582 0.1632455
-0.0054810308 -0.053699728 0.16348726
-0.055183679 -0.0081161559 0.16194284
-0.05524981 -0.011566846 0.16257519
-0.014799839 -0.052177917 0.15885079
-0.011929298 -0.05335407 0.15881729
-0.055630282 -0.013132041 0.15831673
-0.053913075 -0.017041305 0.15770012
-0.052431472 -0.020347361 0.1576758
-0.021553807 -0.049924806 0.15490264
-0.017111337 -0.052088905 0.15540799
-0.013434906 -0.052813038 0.15382972
-0.053000074 -0.016258569 0.15429169
-0.050866347 -0.02205115 0.15332517
-0.049511798 -0.026400741 0.15212658
-0.045846049 -0.030631935 0.15150926
-0.042363666 -0.033618331 0.15103701
-0.038965844 -0.036176424 0.15087575
-0.026941262 -0.046616621 0.15105972
-0.02292949 -0.049783774 0.15113088
-0.017925134 -0.052046057 0.15054038
-0.050352704 -0.021919778 0.14898407
-0.048484955 -0.026820671 0.14798385
-0.045664236 -0.030170754 0.14749721
-0.042167492 -0.033159882 0.14701772
-0.038545854 -0.037125524 0.14692083
-0.035358198 -0.041526843 0.1472533
-0.032580514 -0.044953674 0.14712417
-0.027931001 -0.047083143 0.14586896
-0.023629725 -0.049615934 0.14568204
-0.04133261 -0.034254644 0.14335936
-0.039398193 -0.037444025 0.14212671
-0.035558075 -0.041421793 0.14200044
-0.031714574 -0.044701792 0.14146787
-0.053373076 0.0079507548 0.17798996
-0.053319048 0.005846452 0.17701939
-0.054084823 0.0076041091 0.1739181
-0.053974044 0.0043864325 0.1733855
0.0038734786 -0.054222535 0.16834101
0.0066199899 -0.055187501 0.16739088
-0.055013549 0.0021234788 0.1691815
-0.053921387 -0.003009554 0.16918287
0.0025926139 -0.054232709 0.16470894
0.005084509 -0.056123003 0.16427559
-0.055968218 0.00038943067 0.16507447
-0.054887481 -0.0040757824 0.16499251
-0.0039983615 -0.053117283 0.16019323
0.0011881925 -0.054317757 0.15993512
0.0037339088 -0.058231734 0.15997916
-0.055465788 -0.0016243849 0.16108432
-0.054670766 -0.005119754 0.15944213
-0.0082393102 -0.052301526 0.15554374
-0.0043428615 -0.052924767 0.15536422
2.2649765e-06 -0.055270702 0.15633655
0.0022683833 -0.058920249 0.15631917
-0.056001164 -0.0086058192 0.15797034
-0.054751083 -0.010409871 0.15535417
-0.009264335 -0.052044332 0.15133089
-0.0059866104 -0.053527273 0.14967924
-0.053149305 -0.011742001 0.15140638
-0.051863741 -0.014754742 0.15023619
-0.051171541 -0.018495336 0.15064061
-0.015534358 -0.052440252 0.148278
-0.011519862 -0.052645434 0.14719999
-0.051718138 -0.015421364 0.14673534
-0.050405189 -0.019851241 0.14643562
-0.048146002 -0.024821401 0.14449295
-0.021459181 -0.049851689 0.14324462
-0.017008655 -0.051536873 0.14399058
-0.01292477 -0.053422891 0.14269701
-0.049725235 -0.021009229 0.14193499
-0.047320023 -0.024774179 0.14028847
-0.044625033 -0.028661251 0.14065328
-0.04228507 -0.032607518 0.14100257
-0.038309693 -0.037575454 0.14048439
-0.0349565 -0.040740672 0.14016134
-0.03261105 -0.042739004 0.13983423
-0.026950017 -0.045834392 0.13917375
-0.022694809 -0.048134744 0.13796422
-0.018216534 -0.051197726 0.13924217
-0.014054053 -0.053895772 0.13977119
-0.049955714 -0.022786452 0.13702008
-0.048399508 -0.025806839 0.13595191
-0.04547894 -0.029161606 0.13571563
-0.042793773 -0.03305234 0.13609505
-0.039269272 -0.03716648 0.1361253
-0.035483979 -0.041003615 0.13588297
-0.031568635 -0.043616116 0.13499272
-0.027082494 -0.045776259 0.13546574
-0.023853056 -0.048625618 0.13430709
-0.046694625 -0.030343909 0.13151765
-0.044004902 -0.033938691 0.13152504
-0.04082676 -0.038419176 0.13192427
-0.036264669 -0.041002303 0.13207495
-0.044778563 -0.035733797 0.1275185
-0.042336091 -0.039330088 0.12769836
-0.04045929 -0.040891036 0.12534791
-0.045113571 -0.036699615 0.12399966
-0.043358237 -0.039328568 0.12430292
-0.052769959 0.0087482613 0.17645672
-0.053557612 0.008508794 0.17052463
0.009230718 -0.055580292 0.1656563
-0.055002257 0.0043337513 0.1628828
-0.054679289 0.0016804822 0.15877515
-0.053599935 -0.0015603341 0.15732691
-0.0028688274 -0.053580143 0.15243006
0.00011940114 -0.05508168 0.1534169
0.0036680195 -0.058113497 0.15293685
-0.052837081 -0.0026762951 0.15370765
-0.051288474 -0.0052540433 0.15032172
-0.004948169 -0.053645395 0.15012443
-0.0007562656 -0.055341616 0.14970717
0.003818851 -0.057928078 0.15091994
-0.051906776 -0.0079393815 0.14810911
-0.0089829229 -0.052636534 0.14587045
-0.0063894596 -0.054442104 0.14532962
-0.0028060768 -0.055366445 0.14480916
-0.051951069 -0.0091447402 0.14430511
-0.051873289 -0.013369439 0.14419413
-0.010800885 -0.054145813 0.14190662
-0.0085313655 -0.055195518 0.14118803
-0.051460847 -0.013786679 0.13981777
-0.05029656 -0.018489366 0.13971087
-0.017417355 -0.051621888 0.13676
-0.012947043 -0.054126468 0.13687328
-0.0088666584 -0.055007659 0.13689619
-0.050226275 -0.019288117 0.13500887
-0.049311798 -0.024069991 0.13350517
-0.02633277 -0.045337021 0.13221389
-0.023236468 -0.048877969 0.13154572
-0.018675232 -0.051317371 0.13369912
-0.014621176 -0.053099796 0.13264853
-0.050696302 -0.020317929 0.13037437
-0.048965611 -0.025678646 0.13029635
-0.047608521 -0.028621722 0.12906635
-0.034845013 -0.04039849 0.1284568
-0.031002227 -0.042741526 0.12860715
-0.026498731 -0.044849735 0.12778103
-0.023948718 -0.048553895 0.12806228
-0.01942211 -0.048933338 0.12902611
-0.047801331 -0.026414882 0.12621292
-0.046291597 -0.030003719 0.12583959
-0.045090862 -0.032977067 0.12550357
-0.03528627 -0.040141497 0.12401679
-0.03154137 -0.04213503 0.12367135
-0.044813897 -0.033713177 0.12022859
-0.041618712 -0.037341975 0.11950094
-0.038624186 -0.039358187 0.12024534
-0.05436698 0.0083667412 0.15584415
-0.053629078 0.005359903 0.15569589
-0.0528455 0.0031260531 0.15207112
-0.05173514 0.00027148984 0.15058053
0.0028780811 -0.054493479 0.14614648
0.0049324166 -0.054774445 0.14708382
-0.050325893 -0.0010928344 0.14654651
-0.051788419 -0.0053816643 0.14595336
0.0012901127 -0.05370453 0.14192376
-0.052002195 -0.0029152222 0.14117411
-0.052105144 -0.0068068709 0.1414341
-0.0034013093 -0.053597592 0.1377432
-0.00084745139 -0.053472344 0.14011443
-0.053564977 -0.0041521713 0.13688755
-0.052911717 -0.0080335438 0.13738799
-0.051634684 -0.012275772 0.13678327
-0.0067954492 -0.053696919 0.1326651
-0.053620979 -0.0090069529 0.13280147
-0.051855877 -0.013353553 0.13361704
-0.01172065 -0.052470438 0.13031363
-0.0081888549 -0.053469967 0.13014501
-0.054337524 -0.010279823 0.12907255
-0.052945614 -0.014068713 0.12883994
-0.051119812 -0.018850189 0.12821722
-0.017785966 -0.049693584 0.12635621
-0.014132999 -0.050248757 0.12486541
-0.052189715 -0.015148127 0.12416649
-0.05130747 -0.018430721 0.12406221
-0.047942862 -0.022559537 0.12334111
-0.04600317 -0.027286818 0.12245977
-0.030329339 -0.042807076 0.12160808
-0.026562959 -0.04439649 0.12162834
-0.022366911 -0.047378708 0.12203968
-0.018016892 -0.049414955 0.12086093
-0.015075495 -0.050959516 0.12094188
-0.050239678 -0.019571424 0.12042981
-0.046154678 -0.024283066 0.11948764
-0.045203153 -0.028295722 0.11830729
-0.035531454 -0.040318798 0.11827004
-0.032008592 -0.043132745 0.11791658
-0.027403532 -0.045141399 0.11632341
-0.02305251 -0.047521714 0.11697996
-0.020310408 -0.049253728 0.11725754
-0.045155082 -0.02950957 0.11379093
-0.044270262 -0.032780331 0.11418492
-0.040685002 -0.036421981 0.11427337
-0.036989793 -0.039798476 0.11348337
-0.033092134 -0.043455988 0.11272562
-0.028324813 -0.045095928 0.11232531
-0.034539945 -0.04182972 0.10906893
-0.053799033 0.0088923331 0.15282708
-0.053441402 0.0090553854 0.14928058
-0.052355111 0.0060059763 0.14884934
-0.050550804 0.0062408186 0.14478996
-0.050484076 0.0017342549 0.14488718
-0.051865868 -0.00048278272 0.14093888
0.0014778022 -0.051976901 0.1363216
-0.053408317 -0.0021958426 0.13590026
-0.002426818 -0.052573137 0.13297316
-8.0546364e-05 -0.051984727 0.13097614
-0.053944163 -0.0031084996 0.13108206
-0.054189123 -0.0065077245 0.13070911
-0.0097025316 -0.050494723 0.12639195
-0.0063356832 -0.051656529 0.12607098
-0.00062640943 -0.051852241 0.12786764
-0.053969197 -0.0036147721 0.12635291
-0.053716615 -0.0073834918 0.12570024
-0.010873452 -0.050384469 0.12315243
-0.0069483984 -0.05078866 0.1215868
-0.05322668 -0.0091775395 0.12090492
-0.052761227 -0.012667535 0.12205437
-0.01291286 -0.051629987 0.11883926
-0.0089994557 -0.051637813 0.11695886
-0.052598752 -0.01337092 0.11707443
-0.050694678 -0.017278573 0.11740023
-0.046779852 -0.020721693 0.11694509
-0.045189541 -0.025324663 0.11657196
-0.018031238 -0.049795773 0.11501449
-0.014064174 -0.051897503 0.11410314
-0.052653659 -0.01466977 0.11262482
-0.051094249 -0.017548634 0.11219615
-0.04738133 -0.021630507 0.11211985
-0.045584284 -0.026920261 0.11275238
-0.04157282 -0.032349546 0.11027378
-0.039851405 -0.033947557 0.11009264
-0.02759544 -0.045040186 0.11059701
-0.023272676 -0.047470644 0.11129409
-0.018789582 -0.049061112 0.10983133
-0.015716484 -0.051152784 0.11079592
-0.04829808 -0.023074651 0.10752815
-0.045771945 -0.027485091 0.10764611
-0.043079779 -0.031398419 0.10677415
-0.039511092 -0.03448933 0.10653019
-0.036721718 -0.038355138 0.10663229
-0.032562345 -0.042372983 0.10588431
-0.027351689 -0.044573005 0.1056993
-0.023968974 -0.045727506 0.10597348
-0.047943704 -0.024967385 0.10437697
-0.046347152 -0.027319212 0.10347527
-0.043187067 -0.031178178 0.1018514
-0.039784402 -0.034473289 0.10197961
-0.037015025 -0.03830586 0.10093015
-0.033527624 -0.042306781 0.10112715
-0.029048551 -0.045129143 0.10102147
-0.034345031 -0.042094097 0.097401202
-0.031528912 -0.04517591 0.096688867
-0.050526001 0.0080606211 0.14151776
-0.049707834 0.0039967205 0.14156771
-0.049608007 0.00688654 0.13639167
-0.049807228 0.0042557642 0.13769665
0.0050878152 -0.050047472 0.13258913
0.0098530501 -0.051278859 0.13197872
-0.051422328 0.0029655155 0.13341013
0.0038670599 -0.051029898 0.12891132
0.0072334651 -0.05328548 0.12816188
0.010339374 -0.055790037 0.12766612
-0.053187739 -0.00070475228 0.12839794
0.00097021274 -0.051677853 0.12446511
0.0057246964 -0.054506481 0.12377873
0.0089391079 -0.056960311 0.12511861
-0.05349955 -0.002896633 0.12383261
-0.053379241 -0.0049614292 0.12282342
-0.0044636056 -0.051475637 0.12055814
-0.00014751218 -0.05198326 0.1202324
0.0044783745 -0.055514425 0.12011212
-0.053275499 -0.0022736154 0.11954713
-0.053535994 -0.0059675928 0.11953056
-0.0064522307 -0.052482054 0.11596119
-0.0023888443 -0.052895017 0.11530405
-0.053917512 -0.007372424 0.11485213
-0.053180229 -0.010882385 0.11494082
-0.0087355729 -0.053345643 0.11183965
-0.0046291649 -0.054393202 0.11103457
-0.053178579 -0.0082460586 0.11073202
-0.053152949 -0.012084296 0.11038035
-0.016906295 -0.049999639 0.10798621
-0.013694419 -0.051584903 0.10768682
-0.0091958214 -0.053314365 0.10649335
-0.0053459294 -0.054365203 0.10655439
-0.052497618 -0.013909619 0.10533863
-0.051989757 -0.018051974 0.10712022
-0.049653962 -0.02093821 0.10723269
-0.022611 -0.047169603 0.10466909
-0.018350666 -0.049004216 0.10343885
-0.014924882 -0.050087813 0.10203052
-0.051969431 -0.018109644 0.10244536
-0.049415804 -0.022600934 0.10189277
-0.046473298 -0.027714338 0.1010111
-0.042608496 -0.032654561 0.099332154
-0.040401191 -0.034899887 0.099198759
-0.027659481 -0.045628577 0.099250913
-0.023885433 -0.047530971 0.099998057
-0.019581936 -0.04924126 0.09904319
-0.047011055 -0.023516381 0.09722209
-0.045519717 -0.027094156 0.09769088
-0.043261271 -0.030617427 0.096459031
-0.040270422 -0.034574959 0.096011639
-0.037254002 -0.038555279 0.095876217
-0.034576744 -0.042164326 0.094625771
-0.029428244 -0.045532033 0.095212758
-0.024658259 -0.04775079 0.094912469
-0.021154404 -0.049099088 0.095292747
-0.042016167 -0.031637471 0.092562675
-0.039849862 -0.034487315 0.092271864
-0.037345219 -0.03805726 0.091167629
-0.034297641 -0.041127346 0.090475678
-0.030038994 -0.045325894 0.091632903
-0.026063267 -0.046995938 0.091154397
-0.04998605 0.0092360415 0.13584024
0.0089325942 -0.049210832 0.13065892
-0.050830029 0.0083761066 0.13156104
-0.050435901 0.0071794204 0.12418082
-0.050969336 0.0040512215 0.12689769
-0.051455084 0.001650501 0.12249216
0.0019587576 -0.052390505 0.11710483
0.0051758196 -0.053736668 0.11598951
-0.052077711 0.0015001521 0.11708087
0.0017093122 -0.052506387 0.11341745
0.0039827507 -0.053646751 0.11271459
-0.053793445 -0.0011055134 0.11343902
-0.00055383705 -0.053547636 0.10894024
0.0027421303 -0.053571239 0.10848826
-0.054027937 -0.0013401974 0.10912162
-0.053527169 -0.0057385415 0.10930336
-0.0072834641 -0.053882916 0.10349983
-0.0023118835 -0.053960234 0.10391837
-0.052229479 -0.0068211965 0.10558045
-0.050919779 -0.0098617822 0.1034016
-0.011852678 -0.050438602 0.10045612
-0.0075650327 -0.051448233 0.099702477
-0.003651496 -0.053718045 0.10038275
-0.051768318 -0.011966979 0.10001916
-0.051148012 -0.015921526 0.098212719
-0.01771958 -0.049556822 0.096165836
-0.013497729 -0.050421849 0.095732152
-0.0087452419 -0.050702222 0.096849918
-0.049715817 -0.015909014 0.094909191
-0.047969785 -0.020666519 0.094346106
-0.045235105 -0.025555246 0.094076693
-0.022832962 -0.048351467 0.091941237
-0.018387061 -0.048554614 0.091763675
-0.014886374 -0.049661443 0.091949224
-0.046507739 -0.022448968 0.089454472
-0.044492409 -0.025251601 0.08929646
-0.042715773 -0.029634684 0.089708149
-0.040163122 -0.033614092 0.089332163
-0.037933227 -0.036272198 0.088608086
-0.032812964 -0.041230787 0.088171005
-0.029345766 -0.043950725 0.088038743
-0.024851585 -0.046530679 0.087973058
-0.021928653 -0.047291562 0.086901367
-0.042174108 -0.030185111 0.084954023
-0.039573405 -0.033514962 0.084728956
-0.037045244 -0.037391737 0.084691286
-0.033354204 -0.040431019 0.084096491
-0.030392429 -0.043579422 0.084275603
-0.035681017 -0.038033988 0.080227077
-0.033585008 -0.040441461 0.08024776
-0.030882735 -0.043364421 0.080178797
-0.050096929 0.0085684676 0.11945635
-0.050394583 0.0052821264 0.12019753
-0.052075498 0.0076935254 0.11467087
-0.052143648 0.0038437098 0.11599404
0.0071176812 -0.054011203 0.11116654
-0.053065598 0.0057957266 0.10968429
-0.053892806 0.0024052169 0.1117903
0.0055393223 -0.053503036 0.10592502
-0.05393599 0.0010277126 0.10620421
-0.052703351 -0.0027353428 0.10579216
0.0034369044 -0.054287933 0.10158688
-0.052328967 0.00029785 0.1021086
-0.050930195 -0.0034163874 0.1016767
-0.050386176 -0.006875027 0.10160941
-0.005722627 -0.052294374 0.097896039
-0.0019901302 -0.053935207 0.097906411
0.0010712706 -0.054744702 0.097229302
-0.050500691 -0.0043331124 0.097434938
-0.05061318 -0.0076137781 0.096767485
-0.011517072 -0.050919276 0.092621386
-0.0072580725 -0.051684134 0.094268918
-0.0028064568 -0.052396566 0.093647003
-0.049858794 -0.0095636211 0.092253685
-0.049538746 -0.014363287 0.092033207
-0.047417998 -0.018971376 0.09117502
-0.016894031 -0.048120521 0.088359118
-0.012639808 -0.050111711 0.089686573
-0.0080423169 -0.051243894 0.08945477
-0.050609581 -0.010613766 0.088739812
-0.049915493 -0.014130769 0.08789885
-0.047468185 -0.019094415 0.087854564
-0.045711089 -0.023705859 0.086652637
-0.018749703 -0.046883062 0.085221827
-0.013814641 -0.048794169 0.085578859
-0.049621806 -0.014986185 0.084419847
-0.047651652 -0.018992372 0.083341599
-0.045738667 -0.024609305 0.083146274
-0.042829379 -0.028671142 0.08275193
-0.03983004 -0.032140423 0.081592798
-0.027695734 -0.043709207 0.081460595
-0.024825744 -0.045399338 0.081643164
-0.020290781 -0.046372134 0.0806669
-0.048066277 -0.020261597 0.079570711
-0.045942038 -0.024459295 0.078173518
-0.042473651 -0.028934317 0.078468144
-0.039022416 -0.032865357 0.078987479
-0.035878938 -0.035854831 0.077518165
-0.03339259 -0.040078387 0.076932192
-0.029489361 -0.04328569 0.076724887
-0.025285263 -0.045273874 0.076408207
-0.021951649 -0.046865474 0.076694191
-0.035137687 -0.037125107 0.073388517
-0.033149462 -0.039607886 0.072507262
-0.029699221 -0.042969368 0.072728574
-0.037788738 -0.037747603 0.067531943
-0.038710572 -0.038929064 0.064390361
-0.052879043 0.0094905626 0.10975868
0.007719785 -0.053263679 0.10262942
-0.053013109 0.0070679951 0.10509038
0.0068078898 -0.053991128 0.099548042
-0.051178947 0.0040543135 0.099597096
-0.049818095 -0.00063689798 0.098507643
0.0054812152 -0.053637877 0.095503569
-0.050820343 0.0024026409 0.096234024
-0.049975894 -0.001832353 0.094886303
-0.00066726469 -0.052533954 0.090503812
0.0042467099 -0.052837737 0.091498017
-0.050346807 -0.0035266373 0.089961648
-0.050449543 -0.0069018565 0.090340793
-0.0061835591 -0.051622789 0.086578965
-0.0014946442 -0.052008346 0.086589992
-0.051039614 -0.0094443075 0.085986793
-0.012319162 -0.048393715 0.082497537
-0.0080744885 -0.050308093 0.082335114
-0.051157296 -0.010620786 0.082046747
-0.049884632 -0.013527062 0.081231356
-0.048205372 -0.016752863 0.081494451
-0.017264273 -0.046455443 0.079218328
-0.013379214 -0.047745436 0.078096807
-0.0090563409 -0.04978589 0.078120232
-0.049498349 -0.014268732 0.076927006
-0.048267249 -0.018289197 0.076902568
-0.038504425 -0.030494601 0.075913668
-0.01870182 -0.046564605 0.074305058
-0.014808455 -0.04744295 0.074080646
-0.047534183 -0.019210655 0.072637558
-0.045649212 -0.023772968 0.072587073
-0.042052478 -0.02834953 0.072461903
-0.038895659 -0.031735964 0.071762621
-0.03624621 -0.035426274 0.071734488
-0.033174999 -0.039465517 0.069413483
-0.029737629 -0.042311147 0.069872439
-0.024570327 -0.044938598 0.070936739
-0.020949572 -0.046737678 0.069966733
-0.045356266 -0.024892239 0.068448424
-0.043531306 -0.028982259 0.067769885
-0.041251384 -0.033740334 0.067181528
-0.039530627 -0.036508441 0.066619635
-0.034023542 -0.04010113 0.066217005
-0.02940011 -0.042365603 0.066315532
-0.024409961 -0.044317897 0.066703737
-0.04290773 -0.03062604 0.06344682
-0.041987516 -0.033730641 0.062745035
-0.040158838 -0.036971662 0.064210057
-0.035162993 -0.04097436 0.062306464
-0.031301305 -0.042834077 0.061964869
-0.033743218 -0.040507898 0.05810523
-0.051224291 0.0096116215 0.098199487
-0.050237179 0.0064618737 0.096874177
0.0099669322 -0.053182974 0.093004048
-0.049745068 0.0050528925 0.092294037
-0.049203515 0.0013064966 0.092530906
0.0056570675 -0.051846903 0.087864399
0.0085387807 -0.053252298 0.088256001
-0.049107492 0.00078571774 0.088559568
-0.0014969651 -0.051252943 0.083000362
0.0040572938 -0.052091815 0.08422792
0.009065073 -0.054297589 0.083967447
-0.049928896 -0.0025981236 0.084219992
-0.049477138 -0.0044302754 0.083892941
-0.0020199623 -0.050085686 0.079083264
0.0019489732 -0.05132705 0.08002609
-0.050061762 -0.0023820549 0.080147743
-0.049954824 -0.0063890964 0.079335034
-0.0078865364 -0.049579941 0.074595273
-0.003035441 -0.050226465 0.075305998
-0.049980998 -0.008782994 0.074319541
-0.049336709 -0.012006756 0.074621916
-0.047528833 -0.01544378 0.073333859
-0.012961889 -0.047822639 0.071153045
-0.0081724059 -0.049269289 0.070749223
-0.0043968596 -0.050258592 0.072071195
-0.047772497 -0.012026371 0.070647359
-0.047285862 -0.016392879 0.068947971
-0.017358989 -0.046613358 0.06773299
-0.013992751 -0.047852781 0.066364944
-0.0096173659 -0.048299156 0.068047941
-0.047030792 -0.017059051 0.064930677
-0.045152038 -0.021578224 0.064661741
-0.044544879 -0.025536222 0.064737737
-0.027054396 -0.042207632 0.063098311
-0.023927387 -0.043696307 0.063014984
-0.019410919 -0.045824397 0.062688529
-0.015495438 -0.047609441 0.062379003
-0.043744899 -0.022163495 0.060362637
-0.042652331 -0.026300164 0.060484469
-0.02698745 -0.041935038 0.058814406
-0.023933072 -0.043161254 0.058191597
-0.035466604 -0.03650875 0.056965709
-0.033020232 -0.038511902 0.054495275
-0.029682744 -0.041304354 0.054653108
-0.039625492 -0.033460431 0.051683962
-0.034437247 -0.037410904 0.050640285
-0.049657304 0.0084609613 0.094551265
-0.049501456 0.0084672105 0.089937687
-0.049278919 0.0056281108 0.087042332
-0.04877951 0.0031380188 0.085663021
0.0062665418 -0.05183699 0.080807745
0.0087834857 -0.052854855 0.080877602
-0.049003363 0.0021276474 0.081252515
0.00072560646 -0.050166056 0.077113569
0.0052311085 -0.051099278 0.076696455
0.0089184102 -0.051559992 0.07710427
-0.049769826 5.9733167e-05 0.077085316
-0.049272828 -0.0035679322 0.076242268
-0.00045876764 -0.050572813 0.073459089
0.0029658526 -0.050748501 0.072548866
-0.049610503 -0.001224149 0.072156489
-0.049396642 -0.0045659002 0.072766602
-0.0021586884 -0.05058869 0.068623722
0.0022159256 -0.050753005 0.06840694
-0.048991226 -0.0058419015 0.06788367
-0.048116837 -0.010251062 0.068206608
-0.0078559816 -0.049057271 0.06509608
-0.0037121512 -0.050251585 0.063906252
-0.048173033 -0.011382056 0.06367445
-0.047850706 -0.014979025 0.06307596
-0.017474301 -0.046379693 0.05950433
-0.013472104 -0.048631117 0.061016738
-0.0090755448 -0.049722016 0.060298264
-0.0055690594 -0.050881676 0.058792949
-0.048604485 -0.013060646 0.058378041
-0.046992693 -0.016118499 0.059056103
-0.044126317 -0.019343294 0.058370411
-0.041199252 -0.026262002 0.056925416
-0.023149781 -0.043724962 0.055373728
-0.01926115 -0.045725502 0.057161033
-0.015292577 -0.048692323 0.057371736
-0.010617241 -0.050959222 0.055738211
-0.0074439477 -0.05243358 0.054594934
-0.049481474 -0.013692683 0.055131197
-0.047378231 -0.016216047 0.055219054
-0.043936968 -0.020876281 0.055655181
-0.041293729 -0.024355633 0.054280698
-0.039047841 -0.029619491 0.053524554
-0.03445825 -0.035232324 0.051507235
-0.033010937 -0.037229739 0.051715076
-0.027794734 -0.041597947 0.051578343
-0.023974273 -0.043253664 0.052529156
-0.019796766 -0.046022534 0.052498996
-0.01614912 -0.049269453 0.052028596
-0.012332425 -0.050917611 0.051953375
-0.041870918 -0.025457993 0.048619866
-0.040297661 -0.030316345 0.048897684
-0.035862982 -0.03471655 0.048472822
-0.032830078 -0.038479358 0.048987269
-0.029806033 -0.041560724 0.048243999
-0.024880987 -0.043903265 0.048279345
-0.02087114 -0.046525806 0.047491372
-0.016948406 -0.04874488 0.048093379
-0.044265948 -0.026827939 0.044651926
-0.041410748 -0.031342465 0.044355929
-0.036999281 -0.03476879 0.044124544
-0.033122681 -0.038036034 0.043933511
-0.029880207 -0.041675866 0.043592513
-0.025110569 -0.044350561 0.043684185
-0.044841427 -0.028009225 0.04081589
-0.042405874 -0.031678423 0.040309787
-0.038514458 -0.035929266 0.03943944
-0.034494769 -0.038436051 0.039066553
-0.031139223 -0.041588284 0.040517211
-0.048137844 0.008722879 0.083468258
-0.04854048 0.0083038211 0.079167306
-0.052229296 0.010183107 0.072859764
-0.050191179 0.007343268 0.07518357
-0.049703866 0.0019898508 0.074615061
0.0071095154 -0.050076887 0.069930613
-0.051816411 0.0060623959 0.0706653
-0.050258487 0.0012498852 0.070803761
0.0049648564 -0.049982335 0.06596303
-0.051644087 0.0041629747 0.067452729
-0.049957708 0.0007003583 0.066219509
-0.049439564 -0.0039798729 0.065313637
-0.00090778433 -0.050610676 0.061486542
0.0033333246 -0.049540609 0.060943186
-0.049541295 -0.00030535087 0.06238085
-0.049021348 -0.0046846867 0.060874879
-0.048409514 -0.0084093213 0.060890853
-0.0017122589 -0.050416235 0.05661279
-0.049529899 -0.0058959816 0.056282401
-0.048946589 -0.0097910222 0.056803405
-0.0042692833 -0.051291563 0.053267062
-0.050499946 -0.0074112453 0.051264346
-0.050100483 -0.011446383 0.051942766
-0.046864286 -0.015408432 0.051343858
-0.04346139 -0.018625803 0.051454127
-0.041184425 -0.022048995 0.05114311
-0.010097826 -0.050240956 0.04881072
-0.050489474 -0.012558997 0.047508419
-0.047177516 -0.015340753 0.046291292
-0.044294327 -0.019447969 0.046780527
-0.042341121 -0.022742547 0.047397673
-0.018552568 -0.046725065 0.04380703
-0.014722209 -0.047681175 0.04472208
-0.04553432 -0.020643562 0.04222101
-0.044471182 -0.023981532 0.043172181
