# .PCD v0.7 - Point Cloud Data file format
VERSION 0.7
FIELDS x y z
SIZE 4 4 4
TYPE F F F
COUNT 1 1 1
WIDTH 1343
HEIGHT 1
VIEWPOINT 0 0 0 1 0 0 0
POINTS 1343
DATA ascii
0.0063811303 0.039614797 0.2861954
0.0026223606 0.039257944 0.28762543
-0.0027302389 0.039325893 0.28723839
-0.0075536235 0.039319813 0.28743365
-0.011952259 0.03939122 0.28665757
-0.014681745 0.038463771 0.28584772
0.0068411306 0.041578114 0.28312954
0.0025679432 0.042004764 0.28349257
-0.0021013431 0.04214257 0.28318992
-0.0073265582 0.042495668 0.28342825
-0.011450633 0.042432249 0.28270167
-0.014792159 0.041113019 0.28115839
0.011594331 0.044166505 0.27807128
0.0073819309 0.043556511 0.27870849
0.0029604116 0.044134736 0.27840006
-0.0019134843 0.044497848 0.27887771
-0.007097384 0.04501909 0.27910998
-0.011895966 0.045104682 0.27875417
-0.016726173 0.04336822 0.27697858
0.0025977322 0.045900166 0.27430102
-0.0019947649 0.046819866 0.27452403
-0.0068661184 0.047179937 0.27460957
-0.011866629 0.047526538 0.27452311
-0.016884133 0.045618355 0.27329218
-0.019790266 0.044594705 0.27342412
-0.0022004643 0.048518896 0.26951644
-0.0064771627 0.048602819 0.26915184
-0.011450364 0.048857212 0.26975304
-0.014202685 0.048504055 0.26766962
-0.0018972929 0.051049292 0.26443622
-0.0065235989 0.05073446 0.26471147
-0.010573932 0.050535798 0.26509961
-0.013595064 0.049586117 0.26503378
-0.0017276229 0.052637875 0.26114404
-0.0057139164 0.052556753 0.26107255
-0.0090989592 0.051792562 0.26157171
-0.0024549393 0.053930342 0.25818676
-0.0046014311 0.053586841 0.25789037
0.0011106428 0.0045390725 0.34070736
0.0085364273 0.0076147327 0.33693269
0.0050872462 0.0084003806 0.33842203
0.00057596469 0.0064957142 0.34005597
-0.0046431166 0.007919848 0.34093767
-0.0089491354 0.0084646931 0.34091493
0.0093528843 0.0096102962 0.33507341
0.0097837737 0.012256683 0.32960537
0.0067788814 0.015009106 0.32902136
0.009140796 0.013407708 0.32539442
0.0066292309 0.015756547 0.32600886
-0.015304175 0.015891014 0.3243278
-0.017372577 0.01433271 0.32465392
0.0051307888 0.016728997 0.32151362
0.0022096671 0.020169795 0.32009187
-0.010241916 0.019459724 0.31963801
-0.013796566 0.017349361 0.32015434
0.00044234307 0.018787742 0.31681323
-0.0033813936 0.019900382 0.31656337
-0.00822201 0.019385934 0.31622475
-0.013483332 0.017979382 0.31597906
0.0019562591 0.027969658 0.2968612
-0.0033544234 0.027981639 0.29711208
-0.0074488339 0.027996302 0.29716468
-0.012523997 0.027705966 0.29755259
-0.015409774 0.027013956 0.2970804
0.011319217 0.030944945 0.29292253
0.0077504581 0.030513346 0.2939091
0.0028221393 0.030912638 0.2943109
-0.0022198362 0.03127408 0.29421222
-0.0072550485 0.031607807 0.2940996
-0.012284814 0.03193146 0.2939831
-0.016924618 0.030560611 0.29266676
-0.021347119 0.030139623 0.2908065
0.012029025 0.032742083 0.28986681
0.0077938372 0.034047186 0.29033196
0.0034621663 0.034349322 0.29146278
-0.00063909148 0.034749985 0.29196379
-0.0056626922 0.035101473 0.29186311
-0.017284568 0.034207106 0.28937876
-0.022141706 0.032396432 0.28811559
-0.025007604 0.031830963 0.28689665
0.015549879 0.03490907 0.28573152
0.012652352 0.035371423 0.28580174
0.0082443627 0.037152052 0.28722531
-0.01756534 0.036914825 0.28494644
-0.021891955 0.035778638 0.28416851
-0.026442837 0.034869786 0.28330311
0.016511379 0.037063897 0.2812227
0.01287071 0.03816396 0.28157091
0.009587951 0.040499866 0.28214625
-0.017517116 0.03958559 0.28086236
-0.021638993 0.039372798 0.28034002
-0.026693784 0.038167115 0.27947992
-0.030298937 0.036930021 0.27787843
0.016743405 0.039442718 0.27678332
0.01321191 0.041088164 0.27749246
0.0093279593 0.043227136 0.27748197
-0.018626921 0.041432559 0.2783159
-0.021405458 0.041909155 0.27600208
-0.026452031 0.04094499 0.27525434
-0.030564182 0.039265092 0.27392974
0.016970797 0.041937649 0.27240309
0.01332802 0.043098032 0.2727997
0.0082671121 0.044009268 0.2729955
0.0039667781 0.045438766 0.27269122
-0.016795386 0.045710146 0.27093223
-0.021359056 0.043606993 0.27103052
-0.0262421 0.042406853 0.27036536
-0.029866524 0.041408475 0.2696676
0.01645375 0.043834031 0.26848719
0.013590693 0.044523239 0.26788142
0.009259522 0.044805467 0.2677992
0.0041945516 0.046047747 0.26817378
0.00027449572 0.04759407 0.26755527
-0.016762644 0.046984494 0.26748303
-0.020963423 0.045477033 0.26655769
-0.0260139 0.044611629 0.26584584
-0.030687537 0.043960031 0.26445326
-0.033881307 0.044094142 0.26273069
0.013795555 0.046116829 0.26400906
0.0094992332 0.046888232 0.26321164
0.0044225692 0.048588157 0.26383725
0.00029040629 0.049140573 0.26499
-0.012031795 0.050604045 0.2624118
-0.01588754 0.048321545 0.26248392
-0.020743992 0.047093689 0.26173335
-0.025792707 0.046520647 0.26116833
-0.030386969 0.045885261 0.26113686
0.012573171 0.047779977 0.25976741
0.0096995858 0.048871338 0.25937974
0.0046286038 0.050263822 0.25985387
0.00057311269 0.05228883 0.25963557
-0.0070771547 0.052385688 0.25928679
-0.010639456 0.051082611 0.25928679
-0.015510746 0.048979998 0.25811774
-0.020310119 0.047906935 0.25827628
-0.026402153 0.047006186 0.25813353
0.0091178743 0.049988508 0.25667784
0.0039723655 0.050967157 0.25529706
-2.5953063e-05 0.052078366 0.25464526
-0.0053995168 0.053116083 0.25479877
-0.010238514 0.052651763 0.25464579
-0.01439985 0.050300896 0.25421381
-0.018993657 0.049060941 0.25471148
-0.00092332711 0.052739382 0.25053841
-0.0051704822 0.053956985 0.25003743
-0.010008198 0.054061115 0.24969339
-0.012957991 0.052069187 0.2500931
-0.005045793 0.054371715 0.24628413
-0.0084006609 0.054778516 0.24605966
0.0047766245 0.0034894352 0.33973143
0.0093242927 0.012817265 0.32204744
0.0094568515 0.012589396 0.31961638
0.0079650702 0.014390172 0.32029361
-0.017474553 0.012948571 0.31772789
0.005344213 0.013114692 0.31491196
0.0023493827 0.015635431 0.3136501
-0.010473365 0.017191947 0.3126725
-0.013659285 0.016931353 0.3125456
-0.017916275 0.014499722 0.31294411
0.0012891893 0.016416192 0.3090336
-0.0031072476 0.017471671 0.31004566
-0.0080209393 0.01762557 0.30969197
-0.013076914 0.016552625 0.30863687
-0.016150689 0.01501107 0.30827355
0.0018954615 0.018130422 0.30428714
-0.0027020012 0.018355012 0.30435732
-0.0079365 0.019181788 0.30501965
-0.013007807 0.018938182 0.30464032
-0.016544519 0.018251536 0.30176783
0.0069952328 0.021862149 0.30004817
0.0024679452 0.021928191 0.30047211
-0.0027658027 0.022459447 0.30074987
-0.0077080708 0.023160398 0.30127805
-0.012765439 0.023221908 0.30103579
-0.017455621 0.021500347 0.29934597
-0.021392697 0.020561455 0.29698625
0.011837643 0.024400594 0.29637676
0.0077066212 0.025333524 0.29754189
0.0028564758 0.025449634 0.29786572
-0.0019577502 0.025256634 0.29752034
-0.0075428733 0.025286376 0.29829255
-0.018314132 0.025336264 0.29615486
-0.022489106 0.023794113 0.29502431
-0.025531033 0.023313103 0.29324499
0.015850225 0.026719989 0.29192474
0.012566932 0.027689399 0.29394174
0.008540024 0.027570009 0.29543898
-0.019111527 0.027687905 0.2934908
-0.022764681 0.027330337 0.2918928
-0.026893066 0.026366888 0.28995019
-0.030384494 0.025272725 0.28830433
0.017179752 0.029364171 0.28860196
0.013885624 0.030918064 0.29012442
-0.027673582 0.030221162 0.28694719
-0.031488206 0.027838705 0.28513059
0.021531612 0.030064287 0.28370607
0.018524421 0.032687068 0.28481442
-0.029194616 0.032517251 0.28300551
-0.031804599 0.031185446 0.28110039
0.021717645 0.033523206 0.27975741
0.019490305 0.03480947 0.28027213
-0.032265611 0.034313019 0.27752069
-0.03537089 0.032551583 0.27593744
0.021964949 0.035602096 0.2751399
0.019712402 0.037443399 0.2759414
-0.032561913 0.037363227 0.27341163
-0.03554393 0.034824546 0.27198687
0.022216532 0.037594024 0.27047327
0.019950932 0.03969425 0.27142042
-0.032080498 0.039770421 0.26871935
-0.035046242 0.037645455 0.26748526
0.022493288 0.040113632 0.26525745
0.019229127 0.042571425 0.26698321
-0.031898938 0.041948672 0.26578763
-0.035141904 0.040959831 0.2634815
0.022701673 0.041989867 0.26133537
0.01897243 0.044423997 0.26241586
0.013917858 0.046078682 0.26179576
-0.031840499 0.04412156 0.25850382
-0.033883933 0.042222258 0.25930753
0.018991539 0.04584825 0.25840864
0.014490593 0.047671854 0.25875923
-0.020887338 0.047728539 0.25594589
-0.025564142 0.046875712 0.25632489
-0.030303206 0.044152733 0.25532648
0.017701209 0.046447098 0.25467849
0.014384881 0.047559619 0.2531817
0.010167445 0.048948348 0.25321919
0.0060969456 0.050155878 0.25309724
-0.015987303 0.049354315 0.2517454
-0.02049144 0.048121631 0.25144097
-0.025441751 0.047551211 0.25109875
-0.029091183 0.046414908 0.25029534
0.013148511 0.04784143 0.2491461
0.010277304 0.048828781 0.24835408
0.0051870006 0.050509512 0.24853709
0.00060874142 0.051792681 0.24845323
-0.0027285321 0.053221941 0.24796721
-0.015264508 0.050672352 0.24741191
-0.020159997 0.048886061 0.24632728
-0.024331041 0.048196312 0.24620506
-0.027500931 0.047148462 0.24664924
0.005028923 0.051961064 0.24398673
0.00033781392 0.053962588 0.24441043
-0.0045314999 0.054590821 0.24334899
-0.0097992877 0.052142739 0.24342117
-0.013850668 0.050145924 0.24362347
-0.021486927 0.049636003 0.24335909
-0.022942483 0.049392279 0.24314857
0.0041665295 0.053168654 0.24001658
0.0012394217 0.05475688 0.24075872
-0.0045374548 0.053446233 0.23972133
0.0096400557 0.010470034 0.31637654
0.0098373657 0.0094642648 0.31280228
0.007111731 0.011386872 0.31207603
0.0040822239 0.013652802 0.31113794
0.0069836462 0.012066961 0.30743697
0.0042335805 0.014093637 0.30817604
-0.018748937 0.013410149 0.30648535
0.01039469 0.014213861 0.30220154
0.0073882625 0.016108811 0.30368149
0.0026350266 0.017334998 0.3039729
-0.017949818 0.015842615 0.30252492
0.01183087 0.018137874 0.29905641
0.0082861055 0.019369245 0.30041981
-0.020077905 0.018968282 0.29951769
-0.023130035 0.018297372 0.29765928
0.017014824 0.020447673 0.29432392
0.012476522 0.020984175 0.29699445
-0.024234792 0.020961879 0.2954236
-0.027292075 0.020377932 0.29359683
0.021248659 0.022132756 0.29038137
0.018664606 0.023894073 0.29129827
-0.027664827 0.022996126 0.29138711
-0.032530084 0.022280928 0.28794584
0.026030345 0.02421117 0.28354806
0.022475449 0.024902405 0.28669211
0.019852426 0.026370646 0.2882846
-0.033558488 0.025049265 0.28441763
0.026125269 0.026369693 0.28135407
0.023808254 0.027999641 0.28282893
-0.033697922 0.028086957 0.28143507
-0.0364604 0.027137276 0.27899826
0.027357301 0.028976383 0.27758878
0.024000144 0.031278614 0.27877504
-0.03744467 0.030027445 0.27531523
-0.039349627 0.027705129 0.27366835
0.027981738 0.031631891 0.27347404
0.02422842 0.033798102 0.274358
-0.0374985 0.033564623 0.27017161
-0.039825346 0.030569609 0.26936483
0.028206583 0.034220997 0.26907599
0.024456367 0.036316697 0.2699427
-0.037317138 0.035144027 0.2660948
-0.039589107 0.033009287 0.26489142
0.02844194 0.036616568 0.26458272
0.024441253 0.038512532 0.26562291
-0.037097782 0.037676331 0.26250315
-0.039247923 0.035668071 0.26088771
0.028470512 0.039207164 0.26038438
0.02494112 0.040770773 0.26081353
-0.035879962 0.038019177 0.25594765
-0.038481694 0.036090966 0.25586051
0.027791202 0.040430728 0.25625351
0.02444071 0.042311195 0.25666419
0.021545986 0.044070426 0.25580284
-0.031748552 0.042832311 0.25290442
-0.034838706 0.040453907 0.25257593
0.023989718 0.042781655 0.25193387
0.01998472 0.045000076 0.25164825
-0.031325623 0.044515189 0.24915352
-0.034503303 0.042487498 0.24851555
0.019145694 0.045668721 0.24661058
0.014894729 0.04757905 0.24722931
0.010389513 0.0488047 0.24621764
-0.025200117 0.048102256 0.24397832
-0.029668331 0.045961972 0.24422914
-0.033425301 0.043703135 0.24445987
0.018856101 0.047057331 0.24291927
0.014817796 0.048440695 0.24258709
0.010582522 0.049636126 0.24253184
0.0072560264 0.050832391 0.24108556
-0.010438596 0.050144911 0.24005985
-0.014852808 0.048766017 0.24022585
-0.019392718 0.048504174 0.23989499
-0.024468258 0.048147436 0.23965392
-0.027914003 0.046546396 0.23998043
0.010825573 0.048804939 0.23790595
0.0055620046 0.051680446 0.23737299
0.00016386912 0.051863074 0.23712528
-0.0044221068 0.052473485 0.23667693
-0.0095446305 0.051911414 0.236929
-0.013915905 0.050369978 0.23583025
-0.019021783 0.049831986 0.23526099
-0.022705272 0.049204882 0.23555419
0.0047660312 0.052232265 0.23254624
0.0005368694 0.052223563 0.2317622
-0.0043616658 0.052923918 0.23207757
-0.0093105854 0.053897262 0.23221269
-0.013547906 0.051390588 0.23160785
-0.021026894 0.050748944 0.23064262
-0.022492588 0.05045652 0.23039979
0.010982714 0.0084820399 0.30979878
0.0079577984 0.010539056 0.30682099
0.013100947 0.011290372 0.3013615
0.017221408 0.013211193 0.29662374
0.014517563 0.013723851 0.29846933
0.02252957 0.015782597 0.29212815
0.018497624 0.015805008 0.29494393
0.023567358 0.019352676 0.2892015
0.027966781 0.020318272 0.28385264
0.024445748 0.021532001 0.28623381
0.029243479 0.022798838 0.27978832
0.032448724 0.023729328 0.27551132
0.030240504 0.026016535 0.27684516
0.032670479 0.026401881 0.27110854
0.031084897 0.028401794 0.27202448
0.032848213 0.029800955 0.26707596
0.031283747 0.031454865 0.26783326
-0.041852515 0.031311449 0.26390955
-0.043406069 0.029385205 0.26285002
0.033627935 0.03165007 0.26201603
0.031517167 0.033905271 0.2633453
-0.041327234 0.033445653 0.25878546
-0.04400352 0.031556662 0.25733817
0.034329001 0.033591691 0.25809491
0.031408276 0.036415819 0.2584556
-0.040385466 0.034987029 0.2541208
-0.044280514 0.032942709 0.25308052
0.033540621 0.034644309 0.25473201
0.030754082 0.037258212 0.25410214
-0.036794703 0.038288411 0.25132287
-0.039781515 0.036825594 0.25038895
-0.04318735 0.03463703 0.24946398
0.028790601 0.038671318 0.24976212
0.025661867 0.040607158 0.24918601
-0.036192883 0.039956208 0.24518928
-0.039054129 0.037825461 0.24663883
0.028153308 0.040025059 0.24482429
0.025190387 0.04151595 0.24464846
0.022158574 0.043572728 0.24561808
-0.031909209 0.042725917 0.24066851
-0.034199405 0.041272815 0.24142233
0.024319965 0.042468432 0.24051762
0.02120344 0.044530094 0.23982209
0.016655464 0.046679258 0.23869097
-0.029418703 0.044441041 0.23672375
-0.032308418 0.042046662 0.23607928
0.020422986 0.04485321 0.23482999
0.016124964 0.046282649 0.23507625
0.010982773 0.047953367 0.23491406
0.0080359271 0.048638463 0.23514992
-0.024581272 0.047652062 0.23350075
-0.028622944 0.045293566 0.23219809
-0.032624759 0.044490393 0.23129618
0.016073655 0.046068847 0.2315765
0.011112329 0.047599435 0.22988623
0.0068127415 0.049874127 0.23040056
0.00071040471 0.050511241 0.23022506
-0.0018958551 0.051483154 0.22868308
-0.013985415 0.050077796 0.22766858
-0.018316183 0.049180865 0.22884306
-0.024266258 0.048563655 0.22854653
-0.028911591 0.047113951 0.22801188
-0.033607937 0.046246406 0.22797805
0.011443934 0.048757315 0.22610027
0.0063307835 0.050936043 0.22540396
0.0011905369 0.05119884 0.22529185
-0.0037486765 0.051263094 0.22522798
-0.0087725567 0.051328957 0.22468314
-0.012918052 0.049527645 0.22427052
0.0060618808 0.051422834 0.221935
0.0014132551 0.051984727 0.22066277
-0.0029936607 0.051930428 0.22040421
-0.0078546004 0.051689148 0.22035259
-0.011876241 0.050619781 0.22087973
-0.0035872096 0.052642345 0.21738163
-0.0057587503 0.052929223 0.21658567
0.035295438 0.025967721 0.26525852
0.03784075 0.027843777 0.25971794
0.035720211 0.02900875 0.26131639
0.038040753 0.028286759 0.25662592
0.036042247 0.031581406 0.255467
-0.046978645 0.031445559 0.25160027
0.034252848 0.032886866 0.2521717
-0.045582026 0.033111747 0.24811193
0.033947844 0.033434633 0.24909902
0.031560693 0.036664549 0.24757057
-0.039968677 0.034694251 0.24256206
-0.044299614 0.032943781 0.24474692
0.030760061 0.038307969 0.24318084
-0.036133945 0.038295623 0.23926932
-0.038837772 0.035466667 0.23799753
0.02960173 0.038983647 0.23787129
0.026143476 0.041444127 0.23814833
0.022674393 0.043172125 0.23703802
-0.035120904 0.040133592 0.234869
-0.037854917 0.038055178 0.23356956
0.025684401 0.042074922 0.23340574
0.022510488 0.043620173 0.23347959
-0.035461891 0.043061849 0.23092106
-0.037951149 0.041362938 0.22949326
0.024575505 0.042728785 0.23011214
0.021119874 0.044362903 0.22973248
0.016552929 0.045371354 0.22894108
-0.026853479 0.047348972 0.22500548
-0.034709293 0.045020398 0.22538042
-0.03744287 0.042837676 0.22696319
0.024789657 0.044611875 0.22609279
0.014958642 0.044718087 0.22507679
0.010923433 0.048275232 0.22477248
-0.014187348 0.048828065 0.22226655
-0.018640801 0.048045278 0.22243181
-0.023662038 0.047763821 0.22234872
-0.028084595 0.045822438 0.22162354
-0.032125473 0.043466862 0.22249064
0.010317781 0.048974276 0.2193431
0.0069607752 0.050318658 0.21898821
-0.0095361555 0.051693141 0.21822104
-0.01346288 0.049960375 0.21848905
-0.018451508 0.049109757 0.21794352
-0.023214154 0.048292454 0.21746078
0.0062589436 0.050197661 0.21509677
0.0016893606 0.052037716 0.21471947
-0.0025737332 0.052970171 0.21454531
-0.0081997411 0.052166581 0.21404412
-0.012932972 0.050745547 0.21343005
-0.01754427 0.0495767 0.21354976
-0.022015255 0.04971331 0.21469095
0.0016262467 0.051866889 0.2096217
-0.0025118841 0.052317977 0.20951006
-0.0072030602 0.051820993 0.20925653
0.036032535 0.028191987 0.24976939
0.035902523 0.031041089 0.24516028
-0.041256025 0.032580491 0.23966834
-0.043964118 0.029884394 0.23999164
0.035277817 0.03300238 0.24050662
0.032995861 0.035666708 0.2401596
-0.041154239 0.033217009 0.2366429
-0.043150138 0.030395027 0.23541683
0.034824912 0.03374565 0.23579761
0.032644015 0.035943929 0.23569164
-0.04019507 0.035232719 0.23187578
-0.042641304 0.0316143 0.23229095
0.030670356 0.038348082 0.23172545
0.027563859 0.040184978 0.2305218
-0.040283002 0.036451217 0.22773248
0.029799551 0.038156692 0.22720417
0.026230037 0.041029874 0.22780722
0.022799253 0.042137329 0.22684073
-0.037493695 0.040599521 0.2239787
0.021585379 0.041635159 0.22120297
0.016808959 0.043138206 0.22159204
0.012804313 0.044307351 0.22144824
-0.029288605 0.043442126 0.21805665
-0.032645214 0.041793879 0.21904653
0.021469368 0.043543223 0.21706027
0.017138496 0.044441998 0.21702206
0.012615126 0.04642123 0.21795726
-0.025122866 0.046269115 0.21506467
-0.027689811 0.044113096 0.215094
0.015869964 0.046171188 0.21280232
0.012107665 0.047602594 0.2134642
0.0077269967 0.04962635 0.21198606
-0.014447086 0.049702406 0.20990753
-0.018043071 0.049164414 0.21043488
-0.023035441 0.047194537 0.21106905
-0.026565302 0.044740316 0.21149749
0.01580831 0.047083855 0.20930344
0.01223811 0.048808694 0.20837381
0.0071830838 0.050566792 0.20807871
0.0024009303 0.051802456 0.20728689
-0.0023949153 0.051908851 0.20667335
-0.0080948519 0.051481664 0.2066983
-0.012834926 0.050365627 0.20693076
-0.017297436 0.048932016 0.20583045
-0.021269754 0.047478735 0.2062642
0.011847866 0.049445987 0.20415828
0.0074192798 0.051388979 0.20338216
0.0022028582 0.052294075 0.2036722
-0.0022511864 0.052572787 0.20361575
-0.0074393852 0.052047133 0.20302668
-0.012459763 0.050932288 0.20230228
-0.016159773 0.049302042 0.20205578
0.0060926406 0.051780164 0.20006731
0.0027374914 0.052547216 0.19862363
-0.0020244448 0.052659571 0.19845054
-0.0070030754 0.052084208 0.19842154
-0.010981643 0.051775396 0.19831795
0.037249241 0.025636021 0.24762926
0.039888494 0.028402034 0.23856562
0.037663642 0.030673567 0.23935434
0.040275116 0.029571835 0.23461896
0.036888871 0.03157765 0.23384556
-0.044131577 0.030549046 0.22906271
0.035303589 0.032464925 0.22911945
0.033335127 0.03414673 0.2279647
-0.039294519 0.034897383 0.22405586
-0.042515431 0.031280752 0.22527516
0.03105456 0.034898225 0.22426045
0.02729765 0.037176613 0.22365084
-0.037693594 0.034660514 0.21884337
0.026078854 0.037946466 0.21885672
0.023264505 0.039905015 0.2215752
0.018461999 0.040076673 0.22056586
-0.03389129 0.039015945 0.21523401
-0.036766253 0.036638673 0.21571553
0.025903732 0.039683584 0.21510026
0.023588948 0.042203192 0.21560094
-0.029177904 0.042245921 0.2121886
-0.032755777 0.040103849 0.21189213
-0.036417343 0.038250919 0.21095839
0.025747936 0.041041199 0.21111518
0.022712 0.043007735 0.2112624
0.01892988 0.04410255 0.21172249
-0.028244104 0.042490061 0.20811772
-0.032277361 0.040164944 0.20804548
-0.035688315 0.039244171 0.20775756
0.022435177 0.043700878 0.20621815
0.018144045 0.045640409 0.20604944
0.014039022 0.047977209 0.20511547
-0.023567714 0.045782443 0.20417771
-0.026368763 0.043385681 0.20287064
0.01779373 0.046847224 0.20127714
0.012937444 0.04900521 0.20169777
-0.014065188 0.049912572 0.19962907
-0.017596357 0.048602879 0.19980541
-0.021613747 0.047317322 0.19939083
-0.02546116 0.044586238 0.19927093
0.015931711 0.047345757 0.19781816
0.012776571 0.048951149 0.19711548
0.0086389938 0.050671875 0.19753733
0.0055021355 0.052408099 0.19692743
-0.007900306 0.051783562 0.19585332
-0.012859822 0.050468683 0.19628218
-0.016933784 0.048942327 0.19537345
-0.021175433 0.047511518 0.1953226
0.012064899 0.050149202 0.19276369
0.008575595 0.051559865 0.19239262
0.0034684809 0.052615881 0.19255865
-0.0017531634 0.052302122 0.19209471
-0.0062301578 0.051672935 0.19146961
-0.011151788 0.051169991 0.19115344
-0.016058855 0.049249947 0.19208974
0.0074348683 0.05188179 0.1878778
0.0034330329 0.053004384 0.18697345
-0.0014962004 0.053344309 0.18658638
-0.0062171454 0.052756488 0.18647674
-0.0097261826 0.052889585 0.18587711
0.037437484 0.029726688 0.22731608
0.036422148 0.03032941 0.22226828
0.033250134 0.032250348 0.22227913
-0.039414566 0.03026497 0.2179614
-0.040893383 0.029965397 0.21597749
0.030607421 0.032368485 0.21792993
0.028012905 0.034279052 0.21898985
-0.039095394 0.034568723 0.21439245
-0.040718149 0.032211538 0.21380892
0.030159809 0.033868913 0.21494883
0.027915109 0.036590103 0.21381813
-0.038474221 0.036934849 0.20929331
-0.040485043 0.03449237 0.20905501
0.027026284 0.039625112 0.20902568
-0.032898042 0.039925989 0.20551705
-0.037207242 0.037713047 0.20502001
0.026116844 0.041028265 0.20500791
0.024249002 0.043441836 0.20418555
-0.02879484 0.042022999 0.2017445
-0.032478567 0.04026198 0.20153952
-0.035926282 0.038700279 0.20085716
0.026311073 0.041362349 0.20170689
0.023374137 0.044143323 0.19973809
0.020382984 0.046077847 0.1990197
-0.027413286 0.043507215 0.19675076
-0.031663563 0.041266259 0.19691905
0.022115745 0.044322673 0.19537321
0.018539641 0.046182215 0.19530326
0.014587733 0.048284173 0.19481063
-0.021784794 0.046862539 0.19250786
-0.026194006 0.044081446 0.19226593
0.017647073 0.046645224 0.19061828
0.013780325 0.04948163 0.19110435
0.010370738 0.050935209 0.18919614
-0.013682962 0.04943651 0.18879297
-0.016952958 0.048288107 0.18916419
-0.021106843 0.046563447 0.18859285
0.016530506 0.047961652 0.18672702
0.013556448 0.049554348 0.18581042
0.009233932 0.051413178 0.18567032
0.0053328043 0.052925885 0.18489012
-0.0051618228 0.053002298 0.18440694
-0.012855892 0.05089134 0.18494508
-0.016229279 0.048335671 0.18421197
-0.019664481 0.046614051 0.18492076
0.0088778967 0.050668776 0.18138415
0.0036904076 0.052533984 0.18134546
-0.001260695 0.053066254 0.18108243
-0.0057658879 0.053151906 0.18091035
-0.010825337 0.052467644 0.18037289
0.0026759682 0.052041352 0.17703724
-0.0010934741 0.052128017 0.17690331
-0.0056161573 0.052568555 0.17696279
-0.010134519 0.052803576 0.17688799
0.038787618 0.027894203 0.22412509
0.041573755 0.027788106 0.22044182
0.038625441 0.028634492 0.22063011
-0.039497036 0.028327879 0.21684721
0.041471455 0.028784219 0.21781212
0.037535895 0.029752258 0.21663982
0.033599302 0.030550484 0.21643233
0.036533426 0.030728284 0.21133322
0.032666381 0.032601062 0.21171075
0.028888777 0.034501139 0.21088636
-0.042848308 0.030135747 0.20674494
0.03221713 0.034028236 0.20638478
0.029087014 0.035831336 0.20730156
-0.038731169 0.036230739 0.20230106
-0.040412184 0.033146199 0.20212519
0.031555425 0.035120253 0.20206502
0.028590154 0.037061814 0.20273411
-0.038036887 0.036317524 0.19851434
-0.040321067 0.033484992 0.19880596
0.027671918 0.038638238 0.19783929
-0.033193804 0.040166553 0.19404551
-0.036815647 0.037540432 0.19372681
0.027580317 0.038716856 0.19394904
0.024202861 0.042627338 0.19328457
-0.027483288 0.043492731 0.18966764
-0.031595808 0.040539619 0.18922895
-0.035302434 0.038154896 0.18949899
0.023590289 0.043263797 0.18882102
0.020582551 0.044937253 0.18902352
-0.022762794 0.045125123 0.18560016
-0.025863223 0.04384267 0.18641272
-0.030024286 0.041954752 0.1852653
0.023240469 0.043864969 0.18475634
0.019157834 0.045986652 0.18422017
0.015240989 0.048506856 0.18254769
-0.017477468 0.047900319 0.18109381
-0.02131436 0.045571085 0.18216264
-0.025520921 0.043902095 0.18133044
-0.028778549 0.043115553 0.18133584
0.018122151 0.046394706 0.17989594
0.013715901 0.048589885 0.17916116
0.0097016161 0.049771667 0.17842457
0.0056356108 0.050727844 0.17812386
-0.013221041 0.050572991 0.17706841
-0.01631977 0.048627079 0.17743957
-0.02078943 0.046268463 0.17682797
-0.024069406 0.044403907 0.17791188
0.013125175 0.048587561 0.17470431
0.0096062245 0.05005306 0.17428416
0.0045956867 0.051633 0.17470902
-0.0009750583 0.052019238 0.17414168
-0.0055011818 0.051610231 0.17364332
-0.010478553 0.051005006 0.17337897
-0.015671447 0.04927218 0.17249274
-0.01972064 0.04767406 0.17244467
0.0039815949 0.050953746 0.17037898
-0.00079398492 0.051466703 0.16978824
-0.0053502833 0.050978005 0.16962197
-0.009533328 0.050432861 0.1695025
0.039567683 0.026928369 0.21313289
0.038700081 0.028461698 0.20920867
-0.043694496 0.029260512 0.20316982
0.03679302 0.029752377 0.20457134
-0.042860273 0.029365357 0.19973981
0.03574561 0.030744497 0.20016778
0.033786904 0.032970134 0.20007959
-0.042086363 0.031326231 0.19541854
0.032154992 0.033643726 0.1955125
0.029760066 0.036521975 0.19626555
-0.040903829 0.034042891 0.19201925
0.031524617 0.035202328 0.19286853
0.028549217 0.03730673 0.1909565
-0.036844805 0.036732491 0.18726131
-0.040804658 0.034576055 0.18878564
0.027889606 0.03880984 0.18633464
0.025700863 0.041356567 0.18657476
-0.032532413 0.039976116 0.18363428
-0.03410821 0.03834283 0.18252394
0.027549874 0.039229158 0.18172234
0.024960376 0.04192448 0.18180984
-0.027191658 0.042912718 0.17859399
-0.030766658 0.040839668 0.17862675
-0.033491157 0.038908537 0.17931709
0.024163585 0.042460624 0.17790264
0.019920424 0.044690609 0.17717227
0.015582537 0.046996891 0.17619598
-0.022349615 0.0462352 0.17377943
-0.025355738 0.043325599 0.17489755
-0.029206369 0.040931042 0.17481199
0.02336058 0.043067161 0.17402869
0.019155024 0.045021415 0.17237023
0.014760897 0.047906578 0.17253175
-0.014550594 0.048714161 0.17037588
-0.021191623 0.046987057 0.17010987
-0.024674233 0.044755515 0.16959026
0.017568784 0.046303928 0.16767699
0.014325164 0.047337055 0.16751558
0.0099134399 0.048722982 0.16798598
0.0051246393 0.050052702 0.16741914
-0.00068627001 0.050970852 0.16713324
-0.0052350839 0.050302446 0.16645777
-0.010123068 0.049385607 0.1663267
-0.015190426 0.047665358 0.16601595
-0.020570144 0.046275854 0.16573367
-0.023668766 0.04516482 0.16575295
0.013194242 0.048620999 0.16352481
0.0099340649 0.048955441 0.16319349
0.0055816243 0.04985255 0.16305539
0.00023999928 0.05045712 0.16319317
-0.0050827418 0.049831271 0.16250437
-0.0096519971 0.049135983 0.16180682
0.0049774325 0.050439596 0.15976217
0.00026041758 0.050705314 0.15933856
-0.0049352203 0.050206721 0.15910614
-0.0087484391 0.049995422 0.15877122
0.039546821 0.026625637 0.20233744
0.037531689 0.027744476 0.19755441
0.036276132 0.028877083 0.19280183
0.034603782 0.031056944 0.19405282
-0.043334953 0.030864891 0.18994683
0.033014372 0.032263104 0.18969095
0.030278455 0.035191659 0.18831789
-0.03846978 0.033886608 0.18489492
-0.041165691 0.031330463 0.18496403
0.032081891 0.033417169 0.18459523
0.030136146 0.036361877 0.18409443
-0.036169793 0.034614798 0.17970538
-0.038472295 0.032359418 0.18123803
0.029701378 0.037191872 0.17936918
-0.034801509 0.036618289 0.1759851
0.028312016 0.038778488 0.17558372
0.025881711 0.040758494 0.17507681
-0.02707506 0.04140931 0.17221102
-0.030732688 0.039304432 0.17187113
-0.03335882 0.037471648 0.17115742
0.024843793 0.040976409 0.17091835
0.021646313 0.04387689 0.17038015
-0.026921127 0.042355414 0.16829124
-0.029710565 0.040542301 0.16767243
0.023759369 0.041313712 0.16742951
0.019988753 0.044499457 0.16568765
0.016159602 0.047055364 0.16536832
-0.020493489 0.04555124 0.16251701
-0.025353543 0.04396176 0.16281348
-0.028924521 0.042026695 0.16267627
0.018930351 0.045667946 0.16152391
0.015253816 0.047654033 0.16180056
0.011033029 0.048945487 0.16088846
-0.014237925 0.047111273 0.16021338
-0.019609407 0.045599401 0.15892518
-0.024730179 0.044053134 0.15873224
-0.028150134 0.043080386 0.15864363
0.018123239 0.046072423 0.15746054
0.014868842 0.048199177 0.15712744
0.010442923 0.049264014 0.15739945
0.0060762423 0.050135553 0.1572493
0.00063542766 0.05051738 0.15671158
-0.0048220386 0.050131381 0.15630561
-0.0096394578 0.049635708 0.15611953
-0.013855956 0.047438741 0.15516734
-0.019012831 0.04587996 0.15509504
0.013729266 0.048179805 0.15313295
0.0098702731 0.04887253 0.15341496
0.0058569531 0.04981035 0.15253603
0.00072520715 0.050424755 0.15217307
-0.004634731 0.050296307 0.15181679
-0.0092299851 0.049960613 0.15135592
-0.012369994 0.047754824 0.15153295
-0.0044813235 0.050036311 0.14794022
-0.0083201723 0.050202727 0.14786378
0.037328847 0.027278427 0.1868194
0.034603897 0.02968562 0.1866087
-0.041785292 0.028539952 0.18229774
0.036953431 0.027566258 0.18298882
0.034246493 0.030898038 0.18260601
-0.040288132 0.029496964 0.17776492
0.033910733 0.032349829 0.17776313
-0.036647722 0.03444409 0.17359349
-0.039228678 0.031223353 0.17283583
0.033302791 0.033713344 0.17332977
0.030585643 0.036119167 0.1731599
-0.035753414 0.034945007 0.16940251
-0.038700815 0.032524701 0.16891146
0.029473472 0.036922339 0.16876179
0.026783098 0.039123897 0.16888866
-0.031588607 0.038966831 0.1649195
-0.034632187 0.035853263 0.16478673
0.029024158 0.037892286 0.16405654
0.025678463 0.039940838 0.16455311
0.022422437 0.041512851 0.16382417
-0.030811071 0.040200885 0.16100302
-0.033489063 0.0372166 0.16045386
0.025224201 0.040344957 0.16011363
0.021813955 0.042420927 0.15887162
-0.0253627 0.043385204 0.15576324
-0.029898722 0.041134473 0.15586621
0.02004596 0.04426235 0.1547429
0.016739763 0.047222197 0.15447861
-0.015515674 0.046488345 0.15235871
-0.0197176 0.046015918 0.15261778
-0.024829686 0.044560608 0.15242648
-0.028722245 0.042884167 0.15108955
0.018535729 0.045783043 0.14986768
0.015607733 0.047071636 0.15037695
0.011001161 0.048005402 0.15049165
0.0069747283 0.049005747 0.149656
-0.014027864 0.047114849 0.14892259
-0.018785253 0.046070278 0.1483821
-0.024078414 0.045513388 0.14737841
-0.02814813 0.044627544 0.14719972
0.015434016 0.047416568 0.14578313
0.011029641 0.048095047 0.14550149
0.0063914037 0.048568606 0.14559972
0.00099075714 0.049078584 0.14568526
-0.0045710062 0.05010289 0.14479199
-0.0092158513 0.049758136 0.14511749
-0.013458636 0.047365665 0.14400291
-0.017944027 0.046302855 0.14420703
-0.023897067 0.04588997 0.14371583
0.010430801 0.048484564 0.14200434
0.0065637394 0.048713923 0.14197257
0.0015229204 0.048949242 0.14108294
-0.0034720327 0.049882352 0.14000314
-0.0086183334 0.049779356 0.14032456
0.03886871 0.027003232 0.18068445
0.038763072 0.027757827 0.17612699
0.035857581 0.030651037 0.17484841
-0.041530836 0.029164728 0.17179757
0.037658192 0.028673772 0.17183614
0.03485762 0.031906489 0.17065278
-0.040252592 0.031421956 0.16628611
0.033841826 0.033172075 0.16663548
0.031621143 0.035354558 0.16666216
-0.036353588 0.0348677 0.16198564
-0.039407704 0.032246705 0.16218671
0.033434939 0.033843342 0.16299069
0.031293657 0.035640303 0.16184792
-0.035619717 0.035407539 0.15831751
-0.038448859 0.032696303 0.15798548
0.029804718 0.037375215 0.15773678
0.026299674 0.039761726 0.15730825
-0.034092151 0.036459859 0.15417084
0.029280953 0.03786904 0.15338993
0.026174024 0.039619152 0.15286532
0.022308394 0.041991595 0.15211317
-0.031145953 0.040075894 0.14998665
-0.032806568 0.037387963 0.14901084
0.025610998 0.040039245 0.14907768
0.021783788 0.042259458 0.14760241
-0.030255206 0.043084498 0.14519203
-0.032570541 0.039535638 0.14394164
0.020250607 0.044198215 0.14348006
0.016570723 0.046963334 0.14311814
-0.015122969 0.047037482 0.14158732
-0.018556364 0.046257198 0.14161924
-0.023546968 0.046307322 0.14145845
-0.029148526 0.044445392 0.14094967
0.019089783 0.044619799 0.13972068
0.015812393 0.046285927 0.13907903
0.0115756 0.047471046 0.13893178
0.0067012641 0.048507273 0.13901871
0.0020930725 0.049025655 0.13821626
-0.0033213764 0.049333155 0.13816422
-0.010275667 0.048466206 0.13720381
-0.013447799 0.046478808 0.1375204
-0.018101588 0.045997679 0.13694948
-0.023307219 0.046644446 0.13731781
-0.027423505 0.045651492 0.13671216
0.01466167 0.046258807 0.13499272
0.011360375 0.047463059 0.13433364
0.0069208997 0.048604012 0.13438532
0.0022613886 0.048964024 0.13441056
-0.0030896168 0.049484849 0.13434491
-0.0085861543 0.049156845 0.1340096
-0.013280664 0.046270072 0.13266367
-0.018347271 0.046220958 0.13284957
-0.022592619 0.04681867 0.13259086
-0.025706623 0.046436068 0.13216364
0.010212998 0.048392296 0.13061118
0.0067253034 0.048881173 0.1303151
0.0024687122 0.049131453 0.12980917
-0.0029694238 0.049220562 0.12960327
-0.0078745978 0.049161613 0.12900081
0.036344338 0.029556815 0.16773072
0.038179029 0.027229074 0.16445652
0.036200885 0.029913906 0.16378993
-0.04118485 0.030487712 0.15886399
0.034991246 0.031597141 0.159729
-0.040035613 0.030993637 0.15492165
0.034726899 0.033146325 0.1551508
0.032279808 0.03489447 0.15619892
-0.036130581 0.034477051 0.1515432
-0.038878795 0.031552192 0.15099949
0.034593768 0.034211401 0.15071166
0.031430572 0.03656948 0.15141544
-0.035188764 0.035933312 0.14790469
-0.038264789 0.033199366 0.14627141
0.030789107 0.037617806 0.14700699
0.02673706 0.039711777 0.14656529
-0.034868635 0.037635203 0.14292213
-0.037454184 0.034983929 0.1424517
0.029905222 0.038816813 0.14281198
0.026832983 0.04030228 0.14148778
0.023284081 0.04239339 0.14166808
-0.03336601 0.039648052 0.13852796
0.026051696 0.040930334 0.13684314
0.02206007 0.04317433 0.13696074
0.018524587 0.044401228 0.13575995
-0.029000223 0.043820675 0.13439941
-0.031164292 0.041313346 0.13299587
0.021698836 0.043843571 0.1321049
0.017335456 0.04579109 0.13272461
0.012477484 0.047555506 0.1320205
-0.013219271 0.046407163 0.1310589
-0.017560124 0.046492338 0.13052458
-0.022508219 0.04673415 0.12969318
-0.027711563 0.044894096 0.12974504
-0.030463517 0.043196496 0.12961999
0.016764555 0.046318412 0.12796181
0.012083687 0.047932684 0.12823305
0.0075467783 0.048849583 0.12776715
0.0025890835 0.049476027 0.1272139
-0.002995773 0.049641669 0.12667638
-0.0093565667 0.048680723 0.12667984
-0.013040356 0.046884716 0.12646735
-0.017711263 0.047249019 0.12649894
-0.022396248 0.046582516 0.12578455
-0.026095957 0.045469757 0.1260708
0.01523577 0.046628714 0.12386364
0.011789638 0.048007309 0.12393022
0.0074391398 0.049335063 0.12353566
0.0026122679 0.049880385 0.12331253
-0.0024414759 0.05017215 0.12270203
-0.0076996055 0.049845636 0.1224637
-0.0128683 0.047352135 0.12204048
-0.017554384 0.047222376 0.12171346
-0.020720623 0.046415091 0.12192678
0.0068646702 0.050064921 0.11925322
0.0029842604 0.050273538 0.11857468
-0.0016100842 0.050651073 0.11638415
-0.007115514 0.050670564 0.1170882
0.037054949 0.028791849 0.15703934
0.038866326 0.026115958 0.15441597
0.037284065 0.028988425 0.15343228
-0.040454701 0.030270334 0.14818799
0.035984401 0.032230202 0.1480259
-0.040450476 0.031015929 0.1438325
0.034571435 0.033520821 0.14506075
0.033003107 0.035426501 0.14440131
-0.03863959 0.03391343 0.14024425
0.031919196 0.036592189 0.14042348
-0.034853261 0.037151452 0.136527
-0.037326869 0.034452196 0.13547301
0.030403998 0.037080351 0.13498569
0.027845066 0.039158467 0.13517889
-0.033263281 0.038291093 0.13152114
-0.035607208 0.035517808 0.13154852
0.027646262 0.040164355 0.13009048
0.023911908 0.042692248 0.13053563
-0.032178432 0.038713451 0.12665999
0.026668306 0.041803662 0.12605026
0.023013841 0.043076638 0.12550661
0.019353796 0.044650495 0.12518632
-0.027571268 0.042445119 0.12254322
0.022203825 0.043306295 0.12114936
0.017751271 0.044936121 0.1208331
0.01264509 0.047282994 0.12085557
-0.012767684 0.04705292 0.11894983
-0.017469943 0.046352088 0.11820334
-0.022253178 0.044901129 0.11882687
-0.025481161 0.043243524 0.11938334
0.015620295 0.045575976 0.11637574
0.012465 0.047420382 0.11661494
0.0083761634 0.04915446 0.11692405
0.003873925 0.049879432 0.11608356
-0.012630444 0.04716754 0.11518848
-0.017157592 0.046040595 0.1143738
-0.02053307 0.045009553 0.11417216
0.012254885 0.048508465 0.11188644
0.0079661431 0.049963653 0.11248523
0.0032486313 0.050659955 0.11277264
-0.0014073167 0.050539196 0.11148661
-0.0072256555 0.050138295 0.11148006
-0.011490953 0.047987878 0.110439
0.0078762537 0.049716175 0.10763872
0.0034783904 0.049882472 0.10735333
-0.0012023549 0.0503304 0.10648769
-0.00591673 0.050227702 0.10617828
-0.0090594003 0.049841821 0.10573262
0.03758147 0.027262095 0.14946502
0.037719835 0.027932409 0.14708766
0.036422778 0.029232446 0.14222011
-0.040893398 0.027434584 0.13615596
0.035106588 0.031667117 0.13716012
0.033519398 0.033714894 0.13660052
-0.038954899 0.032544013 0.13311478
-0.040685903 0.029435273 0.13182124
0.03293119 0.034310702 0.13316625
-0.037664156 0.033918258 0.12909526
-0.040512215 0.031119224 0.12821949
0.031921495 0.036057834 0.12887481
-0.033272628 0.036850747 0.12463921
-0.036862276 0.034325417 0.124493
0.03164731 0.038087074 0.12464869
0.028237745 0.040822331 0.12413979
-0.027164515 0.040863868 0.1194967
-0.03212541 0.036397036 0.11988127
0.028093956 0.040382568 0.11995596
0.023925826 0.042466585 0.11869103
0.020257948 0.043824136 0.11821628
-0.023794424 0.043417688 0.11573917
-0.027275883 0.040620204 0.11593723
-0.03041745 0.037302848 0.11675453
0.026702542 0.041034106 0.11648965
0.023325279 0.042104665 0.11439085
0.018562805 0.044386327 0.11448038
-0.01886081 0.045547962 0.11174941
-0.022528786 0.044365045 0.11235303
-0.02606234 0.042688843 0.11121702
0.017720494 0.045118392 0.10977846
0.014390239 0.047007263 0.10962039
-0.013587516 0.046831071 0.10859674
-0.017151941 0.046273828 0.10849047
-0.021895926 0.045191105 0.10744816
-0.02507747 0.043932673 0.1063506
0.016164867 0.045717359 0.1058138
0.012821954 0.047798038 0.10550624
0.0087207882 0.049271226 0.10471219
0.0035991587 0.050348699 0.10478997
-0.0122123 0.048078299 0.10424519
-0.016954619 0.046705902 0.10297465
-0.020702101 0.045245826 0.10299307
0.011656776 0.047350049 0.10094911
0.008328435 0.04914397 0.1004355
0.0037736606 0.050317764 0.10086393
-0.00096629822 0.051008701 0.10115975
-0.0056915274 0.050953805 0.10088587
-0.011000288 0.049606681 0.09977442
-0.015977748 0.047952533 0.098743498
0.007125936 0.049628973 0.096571743
0.0039535458 0.050030589 0.096725762
-0.00075681764 0.050640047 0.095979929
-0.0051885159 0.050491929 0.095846117
-0.0091963345 0.050146341 0.095514834
0.03771678 0.026516739 0.13946739
0.037847631 0.027029637 0.1356146
0.040510755 0.029363934 0.12814009
0.03718292 0.029166225 0.13034332
0.036796559 0.030747656 0.1258409
0.034137491 0.034283344 0.12648517
-0.037870951 0.033116039 0.12110561
-0.041049153 0.030374404 0.1213128
0.033866748 0.034937207 0.12210801
-0.033667441 0.036106404 0.11766309
-0.036977969 0.033515748 0.117567
-0.040303856 0.030859705 0.11743563
0.031836111 0.036721651 0.11796367
0.029871766 0.038892988 0.11702061
-0.032181509 0.036102768 0.11361265
-0.035642348 0.034078058 0.11269885
0.031706408 0.036647622 0.11352116
0.028499272 0.03919423 0.11328119
0.023788799 0.041525487 0.11184657
-0.028559003 0.039800104 0.11090755
-0.031796381 0.037550446 0.10909176
-0.035009768 0.036443111 0.10811764
0.027831271 0.039791469 0.10821801
0.023976739 0.041768674 0.10845554
0.020334173 0.043622196 0.1070534
-0.027729392 0.040841099 0.10547602
-0.030672539 0.038540479 0.10440218
0.02737873 0.040999893 0.10478109
0.024256233 0.042017225 0.1034255
0.018698234 0.044342935 0.10294056
0.01476546 0.046164334 0.10216391
-0.022040952 0.044173654 0.10041845
-0.026228577 0.041383024 0.10095608
0.022819299 0.043344442 0.10042018
0.018550875 0.044233382 0.098173559
0.013580084 0.046406984 0.098108947
0.010233256 0.048364401 0.097721517
-0.017099813 0.047421992 0.096151948
-0.021050543 0.044576764 0.096246421
0.013612241 0.046473086 0.093468249
0.0090468032 0.048333764 0.093443453
0.0040876283 0.049883604 0.093659937
-0.00062542286 0.05004698 0.092568874
-0.0057939035 0.05006814 0.092826486
-0.010708344 0.04903239 0.092606723
-0.015293367 0.04751426 0.092064679
-0.018156908 0.04642874 0.090889513
0.0079875318 0.048538148 0.089172781
0.0040675919 0.04926151 0.088788033
-0.00045565949 0.049733937 0.088368118
-0.00503072 0.049396098 0.088129342
-0.0097130286 0.048554599 0.088188767
-0.0013293948 0.050200999 0.084048212
-0.0034022226 0.050671279 0.082988024
0.038836297 0.026939753 0.13021463
0.040730473 0.028057817 0.12529245
0.038137984 0.029503707 0.12360275
0.036217175 0.030406598 0.11994022
0.034740679 0.03137416 0.11764115
-0.042123612 0.029591795 0.1149779
0.036475241 0.02926958 0.11620778
0.033903018 0.031594161 0.11385047
-0.03781889 0.032833096 0.11080748
-0.041230645 0.030789431 0.11052102
0.032468632 0.034782115 0.11023349
0.030296549 0.037529174 0.1101892
-0.037467815 0.034607168 0.10664493
-0.039928865 0.032961663 0.10531187
0.032206222 0.03618807 0.10535747
0.030116819 0.038280431 0.10632223
-0.032820825 0.037821885 0.10287786
-0.036312975 0.035447653 0.10167569
0.028924905 0.039118771 0.1014725
0.02596359 0.04191244 0.10146177
-0.027419068 0.039865013 0.098277092
-0.031283911 0.038269218 0.098116815
-0.035585385 0.036300655 0.09815675
0.027764559 0.040157679 0.098245382
0.024812542 0.041776363 0.097100914
0.019863551 0.043806016 0.09601742
-0.023204748 0.04266065 0.094678819
-0.026460804 0.04091328 0.094176352
-0.030286681 0.038528021 0.093497097
0.023677215 0.042292301 0.092228472
0.020237904 0.04414016 0.092737436
0.014988594 0.046095371 0.09145844
-0.020733319 0.044368327 0.090590179
-0.024400368 0.042152222 0.089270532
0.019758765 0.044491351 0.087923348
0.01496838 0.046154022 0.087653816
0.0094714891 0.04766506 0.086837053
0.0052108685 0.048956394 0.086047232
-0.006729525 0.048734069 0.08529079
-0.010331962 0.047762394 0.084851682
-0.014791932 0.046748579 0.085905254
-0.019646961 0.04484576 0.085609734
-0.023733493 0.043034252 0.085998714
0.013597973 0.04623729 0.082986772
0.0093733445 0.047532856 0.082131267
0.0045864559 0.049254 0.082255661
0.00034558706 0.050283015 0.08219713
-0.005784756 0.049804151 0.082186699
-0.0095790746 0.048424244 0.081161916
-0.014668476 0.046195447 0.081709981
-0.01842355 0.04558605 0.081582844
0.0095305359 0.048100591 0.078908503
0.0045877728 0.049817085 0.077256262
2.7100747e-05 0.05109024 0.077477217
-0.004761626 0.051040113 0.077205002
-0.0090525495 0.049291611 0.076606989
-9.4934199e-05 0.051364601 0.072859645
-0.0041846307 0.051140785 0.072783947
-0.0078004678 0.050424933 0.072537184
0.037716996 0.027318481 0.11250317
0.035075579 0.02991325 0.11268508
0.037655134 0.028643433 0.10794657
0.034661744 0.031315271 0.10857725
-0.042393733 0.029065367 0.10469061
0.037138093 0.030466143 0.10530913
0.034745649 0.032063548 0.10439485
-0.03811235 0.034159895 0.098406792
-0.040745616 0.03077751 0.099715889
0.03333294 0.033792619 0.10066164
0.031021032 0.035111133 0.098558903
-0.033068169 0.036980744 0.094833255
-0.036386572 0.034902927 0.094755232
-0.039801564 0.031649407 0.095454037
0.029323924 0.037843708 0.094910324
-0.031648617 0.037929174 0.091251969
-0.03530246 0.035453793 0.090784252
0.028672908 0.038757209 0.089753985
0.025964763 0.040796045 0.090291202
-0.02627176 0.040689643 0.087054789
-0.029375292 0.038378295 0.08637017
-0.032891843 0.03648537 0.086495101
0.025056891 0.041673247 0.085572541
0.021490103 0.043952111 0.085588217
-0.021203179 0.043616652 0.082575917
-0.024709314 0.042120334 0.082667649
-0.027787779 0.039866265 0.082338274
0.024416864 0.042515878 0.081258118
0.020642776 0.044606745 0.081376314
0.016341055 0.046042204 0.081629038
-0.014574975 0.04600966 0.078759551
-0.019978456 0.044436753 0.078594804
-0.02386415 0.042523202 0.077856243
0.019788053 0.045333862 0.077208579
0.015255179 0.046615243 0.076660097
0.0099719623 0.048071861 0.076355457
0.0049334089 0.049692571 0.074584365
-0.011187751 0.047537744 0.075103223
-0.01443674 0.046259522 0.074934423
-0.018813577 0.045310318 0.074255288
0.014054431 0.047035396 0.071678638
0.0098530492 0.049032509 0.072270691
0.0052704136 0.050047517 0.072288573
0.00073852501 0.051376998 0.070180595
-0.0044971453 0.050896049 0.070381463
-0.0098494561 0.049068511 0.071055949
-0.01401668 0.046840906 0.069929719
-0.017484583 0.046100199 0.06960094
0.0096601499 0.049209297 0.067839086
0.005273114 0.050635576 0.067260325
0.00030539287 0.052217245 0.066532254
-0.0045571001 0.051061451 0.066878498
-0.0089717144 0.049802959 0.066476226
0.004399878 0.051165104 0.062898695
0.00093342649 0.052671015 0.062024534
-0.0039255051 0.051653385 0.062119842
-0.0074221687 0.050807059 0.062715054
0.03994495 0.026986603 0.10684556
0.039213199 0.028715376 0.10188198
0.035789575 0.030230049 0.10110104
-0.041639902 0.027888533 0.095540166
0.038451761 0.028531734 0.097973108
0.034763236 0.030309442 0.096726239
-0.041062728 0.029763278 0.09248513
0.033090394 0.031449679 0.09190011
0.03140546 0.033591513 0.092441261
-0.036279969 0.03435665 0.088702798
-0.039355822 0.031356748 0.088673294
-0.043027136 0.029456552 0.0886572
0.031296339 0.034144167 0.087340534
-0.031170454 0.036874827 0.08286804
-0.034860391 0.03396314 0.084461749
-0.037923377 0.032460209 0.085171282
0.029412843 0.037408832 0.084231913
0.027092632 0.039764527 0.081920564
-0.029774148 0.037406381 0.079725802
-0.032802545 0.035519298 0.080732346
0.028827511 0.038622562 0.080101252
0.026000865 0.04075462 0.078200519
-0.025947902 0.040247198 0.074663281
-0.02865338 0.03829306 0.075625241
0.025892705 0.040902738 0.074324131
0.021350043 0.04364932 0.074189126
-0.020869169 0.043462217 0.071381569
-0.023951449 0.041420635 0.071200311
-0.027533319 0.039230879 0.071754754
0.02063062 0.043382943 0.069468617
0.016645834 0.046042323 0.069611371
-0.014963683 0.046757936 0.067205191
-0.019533515 0.044737935 0.067097902
-0.022785131 0.04239982 0.06637007
0.016124792 0.045953572 0.064655662
0.011627128 0.047660708 0.064379811
-0.0099102454 0.048710704 0.06292063
-0.01381446 0.046050549 0.063189745
-0.01896048 0.044297636 0.06297946
0.011044268 0.047754288 0.059235215
0.0061265337 0.050011337 0.05998528
-0.0048481529 0.050325096 0.058349907
-0.0089556659 0.048934698 0.059056461
-0.012265779 0.046240747 0.058736742
0.0054640207 0.049559474 0.055333436
0.00075579551 0.050551713 0.054951191
-0.003671915 0.050262153 0.054829538
-0.0075357561 0.049691975 0.05409658
0.039495099 0.027308527 0.094772816
0.036303617 0.028024498 0.093482912
0.03882717 0.027718309 0.089754283
0.035646301 0.029485051 0.090535104
-0.04079923 0.029557165 0.085496485
0.035101775 0.031120066 0.085708976
-0.036231738 0.032077488 0.080933034
-0.039808355 0.029840406 0.080803812
0.034369748 0.032692675 0.081218243
0.03161227 0.034850542 0.081846833
-0.034941912 0.032991704 0.077368736
-0.037809528 0.030962642 0.075943291
0.030672975 0.03571314 0.076897979
-0.030982584 0.036396798 0.07442832
-0.034287598 0.034570154 0.072834194
-0.037606906 0.03272241 0.071222842
0.029725753 0.036631886 0.07197082
0.027668156 0.039749209 0.071797192
-0.029609069 0.038215335 0.069541037
-0.033567123 0.036021288 0.068579972
0.025786176 0.03990436 0.068034828
0.02243891 0.042223576 0.06807977
-0.025022298 0.040778812 0.065571725
-0.028779354 0.038889583 0.06453824
-0.032347772 0.036614772 0.064337969
0.024895959 0.040427629 0.062990129
0.021805231 0.042772952 0.063456714
0.017594229 0.045071602 0.062302053
-0.01396073 0.045243442 0.059892118
-0.018900808 0.043935895 0.060639381
-0.024057556 0.041941937 0.060564756
-0.027570009 0.040285464 0.05982244
0.021405004 0.043452147 0.058368206
0.017187417 0.045463383 0.058931708
0.013796279 0.047925413 0.057265341
-0.010498025 0.047633767 0.055854678
-0.014405392 0.045684636 0.05749172
-0.018765524 0.04445982 0.056961954
