# .PCD v0.7 - Point Cloud Data file format
VERSION 0.7
FIELDS x y z
SIZE 4 4 4
TYPE F F F
COUNT 1 1 1
WIDTH 1285
HEIGHT 1
VIEWPOINT 0 0 0 1 0 0 0
POINTS 1285
DATA ascii
-0.037027054 -0.036179855 0.24204698
-0.034058139 -0.039494496 0.2413218
-0.029886991 -0.04145712 0.24085391
-0.027713638 -0.042774871 0.24030584
-0.039550141 -0.032956503 0.2381531
-0.037071735 -0.036176864 0.23731095
-0.034113787 -0.039333142 0.23714358
-0.030923456 -0.041696265 0.23706967
-0.028193992 -0.043098174 0.23737466
-0.021440756 -0.0020919237 0.30640212
-0.021706356 -0.0058940239 0.30616108
-0.0053069359 -0.021435242 0.30482894
-0.0015229443 -0.022112917 0.30277681
-0.023385625 -0.0045031104 0.30166054
-0.022172656 -0.0062256716 0.3040947
-0.0053288443 -0.022666827 0.30326611
-0.0025279028 -0.024646631 0.29990411
0.00027304888 -0.026132889 0.29850906
-0.027311765 -0.0014398005 0.29646322
-0.026277453 -0.0043291012 0.2983751
-0.0041182311 -0.026390575 0.29766056
-0.0013972996 -0.028859422 0.29575059
0.0013368186 -0.029641513 0.29405907
-0.031660296 -0.00038312562 0.29223898
-0.030594416 -0.0028616004 0.29409513
-0.0021398365 -0.03116345 0.29366374
0.00060282089 -0.033285394 0.29104301
0.0032063145 -0.034484893 0.28851655
-0.034263954 -0.0012847614 0.28892058
-0.033105366 -0.0039979946 0.29051584
-0.00094933622 -0.036563702 0.28704169
0.0023158789 -0.036405772 0.28556305
-0.038224593 0.00030753575 0.28242067
-0.036740378 -0.0025080647 0.28541043
0.00060519949 -0.038475014 0.28164491
0.0030316748 -0.03936585 0.27824941
-0.040005311 -0.00091857091 0.28002724
-0.039405234 -0.0033815186 0.28137511
-0.00087551959 -0.04121279 0.27743813
0.0018106792 -0.041518364 0.27580339
-0.042531107 -0.0020636711 0.2761153
-0.041201774 -0.0043546725 0.27899507
-0.00028115511 -0.043870591 0.27249405
0.0032979138 -0.045299377 0.27171302
-0.044454403 -0.0033636671 0.27202967
-0.0016485918 -0.045460925 0.26827639
0.0013754889 -0.04622981 0.26693529
-0.045663022 -0.0051219277 0.26784018
-0.0027475785 -0.04666879 0.2633245
-0.00065516494 -0.047267325 0.26257229
-0.046772711 -0.0061747301 0.26278624
-0.047325749 -0.0094625242 0.26270044
-0.0046642479 -0.047137439 0.25815314
-0.047344696 -0.0069040004 0.25883946
-0.047762088 -0.010109527 0.25948817
-0.0090307035 -0.047944713 0.25538138
-0.005977504 -0.04802642 0.25476107
-0.048441656 -0.0081570297 0.25452307
-0.048133358 -0.011869755 0.25459895
-0.046352275 -0.015780022 0.25328425
-0.010873264 -0.047974341 0.2508744
-0.007491542 -0.048788667 0.25039613
-0.048686963 -0.012817906 0.25008446
-0.047400538 -0.016472165 0.25046399
-0.015274066 -0.048323512 0.24627349
-0.011774529 -0.048480682 0.24625093
-0.0085957944 -0.048954599 0.24652639
-0.04821647 -0.013884835 0.24627963
-0.047535568 -0.017302049 0.24542347
-0.046793703 -0.020900462 0.24407166
-0.021056712 -0.045083039 0.24204278
-0.017069466 -0.047555894 0.24236777
-0.013128592 -0.048326939 0.24231094
-0.047374804 -0.018094229 0.24027789
-0.046606857 -0.021542426 0.24056187
-0.0442935 -0.025618151 0.24023634
-0.024612784 -0.043189265 0.23890159
-0.021685649 -0.045525383 0.2384012
-0.018534284 -0.047171962 0.23773229
-0.046222296 -0.022236656 0.23588175
-0.04456602 -0.026049361 0.23598489
-0.04218822 -0.028949175 0.23600641
-0.039834812 -0.032378849 0.23488304
-0.036839113 -0.035748307 0.2336787
-0.033748448 -0.0387871 0.23339275
-0.030124936 -0.041928764 0.23398605
-0.025855795 -0.043287389 0.23375526
-0.022051197 -0.045678459 0.23365715
-0.019769797 -0.046929546 0.23302013
-0.044481609 -0.025669914 0.23159826
-0.042172633 -0.028604805 0.23083588
-0.039814249 -0.032383449 0.23041749
-0.037316166 -0.03604991 0.23071682
-0.033922318 -0.038788944 0.23014054
-0.030306816 -0.041083753 0.22973371
-0.028018033 -0.042576909 0.2295503
-0.039011162 -0.033139933 0.22697189
-0.037262164 -0.03603838 0.22621024
-0.035586685 -0.037599921 0.22629732
-0.020526951 0.00085995812 0.30316892
0.0026862845 -0.021778449 0.29965743
-0.023752723 0.0020738104 0.2985819
-0.022396132 -0.00025673676 0.30038023
0.0033134036 -0.02538003 0.297387
-0.028918928 0.0039764047 0.29425442
-0.026368957 0.0010816474 0.29660174
-0.024922667 -0.0014928551 0.29812825
0.0021340912 -0.027249018 0.29531211
0.0043675844 -0.029000159 0.29358724
-0.032549717 0.0056529315 0.29014826
-0.031730779 0.0025074845 0.29221314
0.0059191035 -0.033396807 0.28804162
-0.034606896 0.004438404 0.28743312
-0.034023646 0.0017555915 0.28918397
0.0046346914 -0.036421996 0.28455743
-0.037226416 0.0029004887 0.28338474
0.0054491069 -0.0386688 0.27894634
-0.040123794 0.0041558016 0.27783683
-0.039869267 0.0017034505 0.27974498
0.0045102611 -0.040758751 0.27593392
0.0066548698 -0.041424509 0.27372712
-0.042500727 0.0033677462 0.27464539
-0.041456789 0.00096750073 0.27716407
0.0068614371 -0.045168668 0.26917675
-0.04409828 0.0015146993 0.27003381
0.005095724 -0.045812983 0.26533112
0.0081223696 -0.04616075 0.26433635
-0.045928866 0.00073916279 0.26495951
-0.045552827 -0.0023992714 0.26565862
0.0021827128 -0.046900555 0.26055354
0.0050225463 -0.047097273 0.25819996
-0.049881727 0.0026438367 0.26000974
-0.048233762 -0.00029418059 0.26119328
-0.046686128 -0.0032568686 0.26160946
-0.0020674244 -0.046744123 0.25813034
0.00089552626 -0.048227649 0.25647831
0.0042784661 -0.049361609 0.25531021
-0.050907835 0.0016835276 0.25840253
-0.048686258 -0.00083710253 0.25738427
-0.047727048 -0.004734138 0.25742668
-0.0035327077 -0.047935896 0.25354752
-0.00029215775 -0.048960853 0.25254241
0.0036824662 -0.049825329 0.25247493
-0.04856455 -0.0058709159 0.25283965
-0.0045542922 -0.048363902 0.24794129
-0.002040524 -0.048448496 0.24774164
-0.049237881 -0.0075487997 0.24805066
-0.04919384 -0.010181189 0.24744961
-0.006169796 -0.048556574 0.24329841
-0.049797036 -0.0080444496 0.24326092
-0.048878945 -0.011747915 0.24333704
-0.04761222 -0.015338261 0.24215189
-0.011450503 -0.048606448 0.23971495
-0.0076689143 -0.048219331 0.23878035
-0.050435774 -0.0089217685 0.23837417
-0.049409267 -0.012670867 0.23875266
-0.047991097 -0.016213313 0.23904517
-0.016087495 -0.0470028 0.23534262
-0.012751123 -0.048164614 0.23497054
-0.0088830628 -0.048867978 0.23497859
-0.049475931 -0.013810446 0.23476142
-0.048207831 -0.017323913 0.23433408
-0.046954472 -0.020463984 0.23330429
-0.023812171 -0.043782081 0.23040166
-0.021177776 -0.044695944 0.22943053
-0.017308891 -0.046827536 0.23058707
-0.01391276 -0.04804239 0.23048171
-0.047578055 -0.017977744 0.22985846
-0.045877032 -0.021370329 0.22914025
-0.044500366 -0.025515974 0.22902119
-0.042209376 -0.028479051 0.22828099
-0.029172122 -0.040974274 0.22693324
-0.025533013 -0.042707168 0.22746831
-0.021698868 -0.044425637 0.22606188
-0.018083207 -0.046299018 0.22538641
-0.015761629 -0.048089333 0.22640467
-0.045096625 -0.022304129 0.22538853
-0.044213481 -0.02515859 0.22470537
-0.04241807 -0.028640719 0.22475287
-0.039905034 -0.031839859 0.2239756
-0.037237205 -0.03525665 0.22303823
-0.033130676 -0.038040545 0.22326446
-0.02960851 -0.040367085 0.22352058
-0.026468843 -0.041968368 0.22313589
-0.021891598 -0.044241797 0.22285524
-0.019646067 -0.046424609 0.22263658
-0.042214908 -0.028005619 0.22074926
-0.039625078 -0.03156846 0.2198351
-0.032396425 -0.037595496 0.21868074
-0.030384973 -0.039208412 0.22002998
-0.019988671 0.0033770613 0.30085063
-0.024862394 0.0041158162 0.29623333
-0.041858874 0.0077424031 0.2718682
-0.043444317 0.0060768072 0.26801869
-0.045814708 0.0071209446 0.26312488
-0.045239687 0.004460955 0.26453048
0.0055496451 -0.045006618 0.26044399
0.0079222955 -0.046825241 0.25890717
-0.04833864 0.0056474097 0.25892809
0.0062066 -0.049340609 0.25603494
-0.050553121 0.003884431 0.25543392
-0.048343308 0.00069625862 0.25491196
0.0049972981 -0.049860649 0.24999404
-0.053760625 0.0067031458 0.25115377
-0.049987845 0.0032294169 0.25237483
-0.047804281 0.0003517326 0.25038064
-0.048087057 -0.0036878083 0.24923593
0.00047168881 -0.048449673 0.24566042
0.0042392295 -0.049629081 0.24441367
-0.047965262 -0.00090096518 0.24511889
-0.047737859 -0.0029931162 0.24544266
-0.00082110986 -0.048521925 0.24084231
0.0030278973 -0.050132215 0.24043471
-0.048632711 -0.0018081013 0.24204782
-0.049064599 -0.0045777559 0.24033448
-0.0054702591 -0.048494283 0.2369298
-0.0015218761 -0.048200332 0.23686743
-0.050697386 -0.0076874327 0.23672509
-0.050110016 -0.010229429 0.2362445
-0.0069672745 -0.04895616 0.23215196
-0.050157413 -0.0080984365 0.2319842
-0.049368568 -0.011040313 0.23130745
-0.048284896 -0.015156312 0.23068595
-0.012031535 -0.048409581 0.22798309
-0.0088908821 -0.049367726 0.22880039
-0.048700284 -0.012155186 0.22748029
-0.047157221 -0.015510321 0.22686753
-0.045859151 -0.018353786 0.22630596
-0.017126113 -0.047571063 0.22435626
-0.013527082 -0.04785049 0.22322845
-0.046236474 -0.016103692 0.2232475
-0.044798099 -0.019237459 0.22265971
-0.044646621 -0.022497207 0.22184324
-0.024580937 -0.041785251 0.2203587
-0.021656916 -0.043909013 0.22003731
-0.017886035 -0.046617649 0.21988019
-0.014753664 -0.047791928 0.21980989
-0.044991247 -0.019901279 0.21830592
-0.043604475 -0.023116391 0.21747148
-0.041814521 -0.02715005 0.21709651
-0.0388413 -0.030590385 0.21641672
-0.035177492 -0.033170272 0.21646762
-0.032340348 -0.036226552 0.21575779
-0.028658332 -0.039275717 0.21634838
-0.025525175 -0.040963411 0.21632811
-0.02134739 -0.043358169 0.21593145
-0.017696364 -0.046099905 0.21635336
-0.043368101 -0.024221733 0.21339455
-0.041491661 -0.027255578 0.21229354
-0.038748607 -0.029991124 0.21196905
-0.035451319 -0.033160739 0.21147591
-0.032943618 -0.036000513 0.21141651
-0.029833887 -0.038886622 0.21120685
-0.027184634 -0.040965088 0.21142331
-0.040593017 -0.029215235 0.20902258
-0.03598845 -0.033949357 0.20826328
-0.034013446 -0.036586907 0.20760399
-0.031402737 -0.038745113 0.208404
-0.04847407 0.0085564386 0.25286037
-0.051997148 0.0076045338 0.24881801
-0.04915648 0.0055034328 0.24836013
-0.048446998 0.0016371962 0.24725473
-0.049700867 0.0043236017 0.24384084
-0.048798725 0.00080059841 0.24407995
0.0024615843 -0.049738433 0.23803696
-0.04957328 0.0038597621 0.24017441
-0.048961665 -0.00025700405 0.2391353
-0.0003370624 -0.048152678 0.23396754
0.0031043384 -0.048261687 0.23542351
-0.048959199 -0.00088300742 0.23450959
-0.048947558 -0.0033353828 0.23440847
-0.0013111364 -0.047548681 0.23001778
-0.049043197 -0.0044728648 0.23027807
-0.0052698497 -0.04816762 0.22608292
-0.050082445 -0.0077216849 0.22839326
-0.048700094 -0.0098608732 0.22456175
-0.047136229 -0.013471633 0.22426331
-0.0085193645 -0.047278419 0.22142285
-0.047774922 -0.010697538 0.22123942
-0.046248898 -0.013848361 0.22033113
-0.045309067 -0.017365053 0.22047362
-0.013156882 -0.04778906 0.2174288
-0.0091749262 -0.047452889 0.21699911
-0.045701686 -0.01444333 0.21651846
-0.045408264 -0.017958965 0.21559587
-0.04492534 -0.021384265 0.21465892
-0.024415152 -0.041319121 0.21323252
-0.021594491 -0.043689076 0.21295205
-0.017398424 -0.045687243 0.21257937
-0.014506862 -0.046931036 0.21373719
-0.045506496 -0.018961344 0.21042269
-0.044082735 -0.022620287 0.21098426
-0.042545844 -0.025938611 0.21115783
-0.03740301 -0.031454049 0.21003485
-0.02836372 -0.040240899 0.2091547
-0.025165984 -0.041196954 0.20932794
-0.022278015 -0.043175351 0.20891196
-0.018551853 -0.044282239 0.20797077
-0.045567129 -0.019714195 0.20734495
-0.043954302 -0.023268644 0.20676261
-0.042043868 -0.026962971 0.20704612
-0.039527353 -0.030971995 0.20737335
-0.036975607 -0.034022275 0.20651266
-0.034046367 -0.037614934 0.20502263
-0.030861715 -0.039860021 0.20604062
-0.026568826 -0.041857623 0.20547172
-0.022842072 -0.043299273 0.20430979
-0.041551966 -0.026646305 0.20272982
-0.039410107 -0.030523436 0.20156717
-0.036968879 -0.034092221 0.20152164
-0.034410428 -0.036692657 0.20080581
-0.030732237 -0.039712705 0.2003336
-0.027442224 -0.042107813 0.20035401
-0.037187923 -0.034071803 0.19728786
-0.033883113 -0.0370363 0.19684747
-0.032247189 -0.038085621 0.19642937
-0.027837077 -0.042643122 0.19612941
-0.049265262 0.0084473025 0.2448968
-0.050829932 0.0087259598 0.2438671
-0.049276069 0.0068893079 0.24131405
-0.049217977 0.0060481466 0.23631328
-0.048930451 0.0020905994 0.23635501
0.0028540995 -0.046651088 0.22979468
0.0052867681 -0.046898719 0.23105142
-0.049588069 0.0049195234 0.23180932
-0.048948638 0.0012195837 0.23191366
0.0011875071 -0.046706475 0.22691801
-0.048537988 0.00076370127 0.22791272
-0.04841312 -0.0021946654 0.22769535
-0.00052803569 -0.046082869 0.2227439
-0.047518272 -0.0036147088 0.22270697
-0.005164206 -0.046743691 0.21943891
-0.0030481983 -0.046910275 0.21711794
-0.048099652 -0.0048733633 0.21926352
-0.047695994 -0.0082995333 0.21820131
-0.0071371179 -0.047231019 0.21410388
-0.003874395 -0.04755462 0.21352634
-0.047161281 -0.0092931874 0.21407872
-0.045913901 -0.012977621 0.2138387
-0.011106886 -0.04603897 0.21074072
-0.0079336911 -0.046765 0.20996201
-0.047015779 -0.010401156 0.20992276
-0.046388529 -0.013189096 0.20888412
-0.045679256 -0.016324434 0.20930663
-0.016215887 -0.044924695 0.20584184
-0.011949029 -0.045594431 0.20527565
-0.0094254799 -0.046745561 0.20530474
-0.046828516 -0.014567325 0.20425671
-0.045976356 -0.017897716 0.2047722
-0.044721685 -0.02108527 0.20462716
-0.021390218 -0.043793786 0.20178959
-0.017411599 -0.04443438 0.20163617
-0.013349338 -0.045866027 0.20094216
-0.045506455 -0.018698029 0.20031023
-0.043856174 -0.022278003 0.20014551
-0.04188665 -0.026094574 0.19939137
-0.040006883 -0.028863251 0.198129
-0.024987206 -0.041725717 0.19671297
-0.022753641 -0.043015093 0.19834614
-0.019426703 -0.043981358 0.19773924
-0.043605909 -0.022817209 0.19551352
-0.042240459 -0.02637485 0.19469479
-0.039803952 -0.030278426 0.19519526
-0.037060294 -0.033790193 0.19445989
-0.03416042 -0.036033448 0.19427493
-0.030272434 -0.038949791 0.19382164
-0.027069835 -0.041548729 0.19342276
-0.02251862 -0.042795509 0.19408879
-0.041130286 -0.02682652 0.19076872
-0.039445743 -0.030036371 0.19061255
-0.037022464 -0.03312299 0.18954891
-0.033954475 -0.036068156 0.18962884
-0.030465728 -0.038690537 0.18957627
-0.027783863 -0.041415393 0.18937239
-0.049419649 0.0092638023 0.23445484
0.0069106314 -0.046440363 0.22936499
-0.051249254 0.0095830578 0.23011136
-0.050472416 0.0072649457 0.23012653
0.0033055861 -0.046110123 0.22421497
0.005851103 -0.047282789 0.22512624
0.0080212094 -0.048743457 0.22378331
-0.050307184 0.005651718 0.22632408
-0.049039066 0.0022884421 0.22580141
0.0022781622 -0.046263877 0.22103265
0.0055133291 -0.04747086 0.22022778
0.0073882919 -0.049222782 0.2200135
-0.047682811 0.0031616576 0.22119036
-0.046688955 -0.00024302118 0.22080094
0.00017781742 -0.046494223 0.21688533
0.0035266746 -0.046571743 0.21612358
-0.047511544 -0.0028593261 0.21598646
-0.0015807822 -0.048450813 0.21178478
0.0016450156 -0.04839775 0.21054769
-0.047795709 -0.0034812707 0.21198747
-0.047642376 -0.0068230741 0.2126295
-0.0059948824 -0.047162391 0.20798817
-0.0033454839 -0.04821416 0.20791054
0.00036179647 -0.049195312 0.20811021
-0.047470048 -0.0078838822 0.20727766
-0.0074834004 -0.047223747 0.20330909
-0.0040199533 -0.048301876 0.20289332
-0.047694281 -0.0092900097 0.20251268
-0.047455773 -0.012626668 0.20291296
-0.012294075 -0.046394937 0.19903535
-0.0089339726 -0.047326945 0.19857132
-0.046411928 -0.013204351 0.19837004
-0.045525305 -0.016097693 0.19830522
-0.016487468 -0.043935798 0.1956459
-0.013597794 -0.045007549 0.19454461
-0.045467038 -0.017149346 0.19331858
-0.043996256 -0.020762756 0.19298893
-0.024826255 -0.041296806 0.19027615
-0.022141095 -0.04255059 0.19061854
-0.018224848 -0.043744966 0.19060743
-0.014906568 -0.044360023 0.19144535
-0.045388702 -0.018237108 0.18902555
-0.043522112 -0.021576917 0.18847671
-0.041694969 -0.02519721 0.1883105
-0.039732967 -0.028407214 0.18765154
-0.034708187 -0.034678917 0.18739921
-0.030096028 -0.038186636 0.18647277
-0.025998324 -0.041191034 0.18665642
-0.023021691 -0.042957805 0.18652388
-0.019587114 -0.04411884 0.18601567
-0.041295141 -0.025225371 0.18432885
-0.039516076 -0.028694116 0.1841878
-0.036926966 -0.032176986 0.18390459
-0.03363084 -0.035214011 0.18350127
-0.030626845 -0.037637897 0.18296409
-0.027380962 -0.040493842 0.18266171
-0.023425367 -0.04281662 0.1824306
-0.037677765 -0.03274456 0.17945009
-0.034595128 -0.035917655 0.17907649
-0.031601839 -0.03812268 0.17894131
-0.028510196 -0.040315658 0.1790629
-0.048708424 0.0076477677 0.21927476
-0.046741631 0.0031947941 0.21845794
0.0063671079 -0.046781272 0.21365052
-0.049006067 0.0066365022 0.21430108
-0.047129486 0.0042816103 0.21406764
-0.045887493 0.001626661 0.2143499
0.0054933 -0.046807505 0.20911393
0.0077423081 -0.046991196 0.21019351
-0.046727702 0.00022150204 0.20931268
0.0022478402 -0.048537806 0.20456314
-0.053188905 0.0058677103 0.20672169
-0.046755258 -0.0015364252 0.20521313
-0.047671512 -0.0050606877 0.20434225
-0.0033053402 -0.048835423 0.20032081
0.0011054371 -0.049216148 0.20072961
0.0038517658 -0.050180312 0.19880396
-0.046910979 -0.0021647811 0.20171469
-0.047568418 -0.005818747 0.19965565
-0.0070186034 -0.047757037 0.19659007
-0.0035197008 -0.048058297 0.19627139
-9.2536211e-06 -0.048971217 0.19712079
-0.046016634 -0.0076619964 0.19612932
-0.045817584 -0.010476701 0.1949892
-0.011022393 -0.045643207 0.19297171
-0.0078631118 -0.046657044 0.19213364
-0.0047459006 -0.04789304 0.19216442
-0.045872886 -0.012465332 0.19183427
-0.046037834 -0.01532874 0.1906454
-0.01688794 -0.044288766 0.1872226
-0.013172379 -0.045291711 0.18870595
-0.008657841 -0.046741545 0.18755719
-0.046048936 -0.013214247 0.18696371
-0.045631871 -0.016206004 0.18617693
-0.043882944 -0.019695982 0.18576968
-0.018298343 -0.044418558 0.18382871
-0.013871312 -0.045426778 0.18410629
-0.0097729713 -0.047291026 0.18464032
-0.045107126 -0.01621386 0.18194067
-0.043127462 -0.020422637 0.18203765
-0.041522741 -0.024464622 0.1816811
-0.039617214 -0.027459133 0.1813488
-0.024964184 -0.040965319 0.17955631
-0.022987183 -0.043095272 0.17991266
-0.018841188 -0.044051785 0.17932689
-0.041395068 -0.024422072 0.17729425
-0.039819334 -0.028550534 0.17808223
-0.037811648 -0.032420434 0.17598945
-0.034567442 -0.035698313 0.17537826
-0.031412311 -0.038047042 0.17590183
-0.026854899 -0.0403312 0.17625594
-0.022632016 -0.042365149 0.17554194
-0.020301746 -0.043929547 0.17519045
-0.041020498 -0.02561995 0.17318574
-0.039862353 -0.028060641 0.17223832
-0.03763289 -0.032191113 0.17181873
-0.034344979 -0.035059173 0.17155665
-0.03084179 -0.037321009 0.17220899
-0.027413208 -0.038968731 0.1723727
-0.049408216 0.0082953237 0.21288049
-0.046138067 0.0035385229 0.21101281
0.0069864336 -0.045856219 0.20659223
0.0085849091 -0.046864975 0.20689413
-0.049457606 0.0077055749 0.2071813
-0.046861984 0.0049972422 0.20723051
-0.045637608 0.0026143063 0.20589089
0.005550541 -0.048760489 0.20251697
-0.050501235 0.0066398121 0.20315564
-0.047677182 0.0045335814 0.20258859
-0.046378776 0.0016196296 0.20277584
0.0055602994 -0.049527805 0.19845706
-0.050472721 0.0056661759 0.19915929
-0.049242143 0.0030774083 0.19815218
-0.047477465 -0.00041632727 0.19832224
-0.00096992403 -0.047396917 0.19220388
0.0015761368 -0.049010426 0.19352186
0.0042229425 -0.049748123 0.19398633
-0.050708644 0.003807595 0.19571185
-0.046978526 -0.0015155338 0.19302988
-0.046156086 -0.0049415659 0.19352093
-0.0020974688 -0.047155391 0.18857086
0.00086503476 -0.048092902 0.18831459
-0.046956539 -0.0031184591 0.18976235
-0.045804694 -0.0061680749 0.1890398
-0.045459442 -0.0091020335 0.18999365
-0.006681893 -0.047130853 0.18548819
-0.0040607601 -0.047203735 0.18529591
-0.046418574 -0.0073484182 0.18477932
-0.045785647 -0.01038993 0.18493491
-0.012897925 -0.04505628 0.18057588
-0.0088528208 -0.046637461 0.18102351
-0.0054244809 -0.047625501 0.18144184
-0.046825029 -0.0079690218 0.18127349
-0.045942657 -0.0113646 0.18033427
-0.045153305 -0.01516916 0.17965862
-0.043190576 -0.018049994 0.17875358
-0.013853516 -0.044632826 0.17673475
-0.01000512 -0.045794256 0.17658669
-0.04611649 -0.012459794 0.17587337
-0.04542993 -0.015437895 0.17515436
-0.042827468 -0.019312922 0.1755743
-0.023922149 -0.039697677 0.17293987
-0.023233805 -0.040834777 0.17310804
-0.018032089 -0.044128109 0.17315674
-0.014748665 -0.044794794 0.17219165
-0.044862319 -0.016477309 0.17173058
-0.043604445 -0.019779548 0.17084876
-0.041816469 -0.023962019 0.17165643
-0.040043611 -0.027124997 0.16886252
-0.032374606 -0.035012644 0.16833711
-0.029901274 -0.03667162 0.16816735
-0.026892841 -0.038772434 0.16911143
-0.022494785 -0.040861398 0.16907796
-0.019149775 -0.043720007 0.16877919
-0.016244054 -0.044805132 0.1692009
-0.043047391 -0.021674484 0.16604394
-0.041999325 -0.024300389 0.16585901
-0.039926 -0.027717816 0.16547203
-0.037010036 -0.031230289 0.16553757
-0.033609871 -0.034234077 0.16505119
-0.030314047 -0.036426477 0.16420919
-0.027132263 -0.038943186 0.16426274
-0.041592278 -0.025471786 0.16167164
-0.039737023 -0.027737502 0.16127527
-0.036854845 -0.030679069 0.16074163
-0.033840377 -0.034227408 0.16064003
-0.030907597 -0.036809556 0.16039711
-0.028647015 -0.038254414 0.16051468
-0.050847922 0.0054768715 0.19678861
-0.049424812 0.0073179528 0.1933617
-0.048923343 0.0031434968 0.19236049
-0.047468562 0.00065045431 0.19123802
0.0028931219 -0.048167661 0.18686825
0.0059126224 -0.048142545 0.18875384
-0.047073595 -0.00025728531 0.18687028
-0.046257533 -0.00406464 0.18713763
-0.0012897067 -0.047005173 0.18283716
0.0019744765 -0.047757812 0.18232244
-0.050910249 0.00072846003 0.18476894
-0.047156289 -0.0019736569 0.18250543
-0.046806015 -0.0050705113 0.18308738
-0.0024294164 -0.047097642 0.17833066
-0.047235299 -0.0025198422 0.1788424
-0.046401426 -0.0058001615 0.17852402
-0.046046186 -0.009513665 0.17761999
-0.0083392933 -0.046269737 0.17466044
-0.0047288779 -0.046796158 0.17411998
-0.045964643 -0.0065579545 0.17466241
-0.046314482 -0.010325095 0.17288598
-0.01300787 -0.045400299 0.17031676
-0.010150684 -0.046308566 0.17000687
-0.0064420849 -0.046877541 0.16903612
-0.046414606 -0.011253478 0.16818589
-0.045541536 -0.014896682 0.1692898
-0.017471569 -0.04405101 0.16591769
-0.014367486 -0.044962179 0.16613391
-0.011076665 -0.04611139 0.16500106
-0.046990968 -0.012453711 0.1636613
-0.045723394 -0.014949564 0.16418666
-0.043996178 -0.019222647 0.16498655
-0.022424448 -0.040562883 0.16344085
-0.018347755 -0.042950843 0.16223323
-0.015013523 -0.044663671 0.16138604
-0.012136269 -0.046096835 0.16197443
-0.047800191 -0.013075359 0.16080225
-0.046096347 -0.01554356 0.16059849
-0.043940522 -0.019620914 0.15970904
-0.042048551 -0.023680011 0.15895471
-0.03971279 -0.026705779 0.15825358
-0.03628828 -0.030265041 0.157675
-0.033547048 -0.033779003 0.15748763
-0.030809414 -0.036586933 0.15775549
-0.027323872 -0.038903594 0.15799749
-0.022515796 -0.040136799 0.15727013
-0.018387992 -0.042814292 0.1576165
-0.041725419 -0.02390445 0.15420952
-0.039374083 -0.026509609 0.15445599
-0.036495823 -0.029169805 0.15410286
-0.032946084 -0.032767884 0.15360469
-0.030415632 -0.035981115 0.15306583
-0.027405621 -0.038510364 0.15256375
-0.026793173 -0.03957691 0.14906609
-0.047713913 0.0056337118 0.18961856
0.0056153405 -0.046551164 0.18369105
0.0080142729 -0.046163417 0.18307242
-0.046891898 0.0022294205 0.18357521
0.0037443582 -0.04722308 0.17875558
0.0077055749 -0.046383385 0.18064228
-0.04696583 0.0014629196 0.18037045
0.0021241736 -0.047729984 0.17630497
0.004412163 -0.04918506 0.17571053
-0.046709307 -0.00053573586 0.17538843
-0.046148051 -0.0036697313 0.17576092
-0.0018588938 -0.046498336 0.17194355
0.0015491042 -0.047251225 0.1715641
0.0030935369 -0.050299145 0.17338228
-0.046954837 -0.0016575716 0.17189372
-0.046065293 -0.0047549102 0.17155033
-0.003590975 -0.046652026 0.16780925
-0.0013795532 -0.04711546 0.16711769
-0.046807546 -0.0058535617 0.16659802
-0.046903625 -0.0088557862 0.16725883
-0.0081535 -0.046050705 0.1632455
-0.0046980251 -0.046028338 0.16348726
-0.047300301 -0.0069567058 0.16194284
-0.047356978 -0.0099144373 0.16257519
-0.012685575 -0.044723928 0.15885079
-0.010225113 -0.045732062 0.15881729
-0.047683097 -0.011256037 0.15831673
-0.046211209 -0.014606835 0.15770012
-0.044941265 -0.017440595 0.1576758
-0.018474694 -0.042792693 0.15490264
-0.014666859 -0.044647634 0.15540799
-0.011515632 -0.045268316 0.15382972
-0.045428634 -0.013935916 0.15429169
-0.043599728 -0.018900987 0.15332517
-0.042438682 -0.022629209 0.15212658
-0.039296612 -0.026255943 0.15150926
-0.036311716 -0.028815713 0.15103701
-0.033399295 -0.031008361 0.15087575
-0.02309251 -0.039957102 0.15105972
-0.019653849 -0.042671807 0.15113088
-0.015364401 -0.044610906 0.15054038
-0.043159463 -0.018788382 0.14898407
-0.041558534 -0.022989146 0.14798385
-0.039140776 -0.025860647 0.14749721
-0.036143564 -0.028422754 0.14701772
-0.033039305 -0.031821877 0.14692083
-0.030307025 -0.035594437 0.1472533
-0.027926153 -0.038531721 0.14712417
-0.023940857 -0.040356979 0.14586896
-0.020254051 -0.042527944 0.14568204
-0.03542795 -0.029361123 0.14335936
-0.033769879 -0.032094881 0.14212671
-0.030478351 -0.035504397 0.14200044
-0.02718392 -0.038315825 0.14146787
-0.045748353 0.0068149325 0.17798996
-0.04570204 0.0050112437 0.17701939
-0.046358421 0.0065178107 0.1739181
-0.046263464 0.0037597977 0.1733855
0.003320124 -0.046476461 0.16834101
0.0056742765 -0.047303572 0.16739088
-0.047154471 0.0018201228 0.1691815
-0.046218328 -0.0025796201 0.16918287
0.00222224 -0.046485186 0.16470894
0.0043581501 -0.048105434 0.16427559
-0.047972757 0.00033379719 0.16507447
-0.047046416 -0.0034935288 0.16499251
-0.0034271665 -0.045529101 0.16019323
0.0010184497 -0.046558078 0.15993512
0.0032004938 -0.049912915 0.15997916
-0.047542103 -0.0013923291 0.16108432
-0.046860658 -0.0043883622 0.15944213
-0.0070622638 -0.044829879 0.15554374
-0.0037224554 -0.045364082 0.15536422
1.9427389e-06 -0.047374889 0.15633655
0.0019443277 -0.050503068 0.15631917
-0.048000995 -0.0073764157 0.15797034
-0.046929501 -0.0089227464 0.15535417
-0.0079408586 -0.044609427 0.15133089
-0.0051313788 -0.045880523 0.14967924
-0.045556545 -0.01006457 0.15140638
-0.044454634 -0.012646921 0.15023619
-0.043861322 -0.015853148 0.15064061
-0.013315165 -0.04494879 0.148278
-0.0098741669 -0.045124657 0.14719999
-0.044329833 -0.013218311 0.14673534
-0.043204445 -0.017015349 0.14643562
-0.041267999 -0.021275483 0.14449295
-0.018393584 -0.042730018 0.14324462
-0.014578846 -0.044174463 0.14399058
-0.011078373 -0.045791049 0.14269701
-0.042621627 -0.018007912 0.14193499
-0.040560022 -0.021235012 0.14028847
-0.038250029 -0.024566792 0.14065328
-0.036244344 -0.027949302 0.14100257
-0.032836881 -0.032207534 0.14048439
-0.029962713 -0.034920577 0.14016134
-0.027952328 -0.036633432 0.13983423
-0.023100015 -0.039286621 0.13917375
-0.019452693 -0.041258354 0.13796422
-0.015614173 -0.043883767 0.13924217
-0.012046333 -0.046196379 0.13977119
-0.042819183 -0.019531246 0.13702008
-0.041485295 -0.022120148 0.13595191
-0.038981948 -0.024995664 0.13571563
-0.036680382 -0.028330579 0.13609505
-0.033659372 -0.031856984 0.1361253
-0.03041484 -0.035145961 0.13588297
-0.027058834 -0.037385244 0.13499272
-0.023213565 -0.039236799 0.13546574
-0.020445477 -0.041679103 0.13430709
-0.040023964 -0.026009064 0.13151765
-0.03771849 -0.029090308 0.13152504
-0.034994364 -0.032930717 0.13192427
-0.031084005 -0.035144828 0.13207495
-0.038381632 -0.030628968 0.1275185
-0.036288079 -0.0337115 0.12769836
-0.034679394 -0.035049457 0.12534791
-0.038668774 -0.031456817 0.12399966
-0.0371642 -0.033710204 0.12430292
-0.045231394 0.0074985102 0.17645672
-0.045906521 0.0072932523 0.17052463
0.0079120453 -0.047640253 0.1656563
-0.047144793 0.0037146471 0.1628828
-0.046867963 0.0014404133 0.15877515
-0.045942806 -0.0013374276 0.15732691
-0.0024589933 -0.045925837 0.15243006
0.00010234304 -0.047212869 0.1534169
0.0031440165 -0.049811572 0.15293685
-0.045288928 -0.0022939686 0.15370765
-0.043961547 -0.0045034681 0.15032172
-0.0042412896 -0.045981772 0.15012443
-0.00064822845 -0.047435671 0.14970717
0.0032733008 -0.049652636 0.15091994
-0.044491522 -0.0068051834 0.14810911
-0.0076996461 -0.045117028 0.14587045
-0.0054766797 -0.046664663 0.14532962
-0.0024052076 -0.047456957 0.14480916
-0.04452949 -0.0078383479 0.14430511
-0.044462815 -0.011459516 0.14419413
-0.0092579015 -0.046410698 0.14190662
-0.0073125996 -0.047310442 0.14118803
-0.0441093 -0.011817155 0.13981777
-0.043111339 -0.015848029 0.13971087
-0.014929161 -0.044247333 0.13676
-0.011097467 -0.046394117 0.13687328
-0.0075999927 -0.04714942 0.13689619
-0.043051094 -0.016532671 0.13500887
-0.042267255 -0.020631423 0.13350517
-0.022570945 -0.038860306 0.13221389
-0.019916976 -0.041895404 0.13154572
-0.016007341 -0.04398632 0.13369912
-0.012532433 -0.045514114 0.13264853
-0.043453977 -0.017415367 0.13037437
-0.041970521 -0.022010271 0.13029635
-0.040807303 -0.024532903 0.12906635
-0.029867155 -0.034627281 0.1284568
-0.026573338 -0.036635593 0.12860715
-0.022713196 -0.03844263 0.12778103
-0.020527475 -0.041617624 0.12806228
-0.016647525 -0.041942861 0.12902611
-0.040972572 -0.022641329 0.12621292
-0.03967851 -0.025717471 0.12583959
-0.038649309 -0.028266057 0.12550357
-0.030245375 -0.034406997 0.12401679
-0.02703546 -0.036115739 0.12367135
-0.038411915 -0.028897014 0.12022859
-0.035673179 -0.032007404 0.11950094
-0.033106446 -0.033735592 0.12024534
-0.046600267 0.0071714912 0.15584415
-0.04596778 0.0045942049 0.15569589
-0.04529614 0.0026794747 0.15207112
-0.04434441 0.00023270771 0.15058053
0.0024669245 -0.046708696 0.14614648
0.0042277854 -0.046949521 0.14708382
-0.043136477 -0.00093671493 0.14654651
-0.044390075 -0.0046128575 0.14595336
0.0011058096 -0.046032455 0.14192376
-0.044573311 -0.0024987627 0.14117411
-0.044661552 -0.0058344603 0.1414341
-0.0029154103 -0.04594079 0.1377432
-0.0007263869 -0.045833439 0.14011443
-0.045912839 -0.0035590045 0.13688755
-0.045352906 -0.0068858955 0.13738799
-0.044258304 -0.010522094 0.13678327
-0.0058246721 -0.046025932 0.1326651
-0.04596084 -0.0077202469 0.13280147
-0.044447895 -0.011445899 0.13361704
-0.010046272 -0.044974662 0.13031363
-0.0070190188 -0.045831405 0.13014501
-0.046575025 -0.0088112783 0.12907255
-0.045381956 -0.012058893 0.12883994
-0.043816984 -0.016157303 0.12821722
-0.015245115 -0.042594504 0.12635621
-0.012114001 -0.043070368 0.12486541
-0.044734046 -0.01298411 0.12416649
-0.043977834 -0.015797762 0.12406221
-0.041093886 -0.019336745 0.12334111
-0.039431293 -0.023388702 0.12245977
-0.025996577 -0.036691777 0.12160808
-0.02276825 -0.038054131 0.12162834
-0.019171638 -0.040610325 0.12203968
-0.015443048 -0.042355672 0.12086093
-0.012921855 -0.043679588 0.12094188
-0.043062583 -0.016775507 0.12042981
-0.039561152 -0.020814059 0.11948764
-0.03874556 -0.024253473 0.11830729
-0.03045553 -0.03455897 0.11827004
-0.027435938 -0.036970925 0.11791658
-0.02348874 -0.038692627 0.11632341
-0.019759294 -0.040732898 0.11697996
-0.017408922 -0.042217482 0.11725754
-0.038704358 -0.025293918 0.11379093
-0.037945941 -0.028097425 0.11418492
-0.034872856 -0.03121884 0.11427337
-0.03170554 -0.034112982 0.11348337
-0.028364688 -0.037247993 0.11272562
-0.024278412 -0.038653653 0.11232531
-0.029605666 -0.035854045 0.10906893
-0.046113458 0.0076220017 0.15282708
-0.045806915 0.0077617615 0.14928058
-0.044875808 0.0051479805 0.14884934
-0.043329261 0.0053492729 0.14478996
-0.043272063 0.0014865063 0.14488718
-0.04445646 -0.00041381642 0.14093888
0.0012666862 -0.044551626 0.1363216
-0.045778558 -0.0018821489 0.13590026
-0.0020801295 -0.045062691 0.13297316
-6.9038942e-05 -0.044558339 0.13097614
-0.046237856 -0.0026644301 0.13108206
-0.046447821 -0.0055780504 0.13070911
-0.0083164573 -0.04328119 0.12639195
-0.0054305866 -0.044277027 0.12607098
-0.0005369205 -0.044444777 0.12786764
-0.04625931 -0.0030983761 0.12635291
-0.046042815 -0.0063287076 0.12570024
-0.0093201026 -0.043186687 0.12315243
-0.0059557706 -0.043533139 0.1215868
-0.045622867 -0.0078664608 0.12090492
-0.04522391 -0.010857888 0.12205437
-0.011068167 -0.044254273 0.11883926
-0.0077138208 -0.044260982 0.11695886
-0.045084644 -0.011460789 0.11707443
-0.04345258 -0.014810205 0.11740023
-0.040097021 -0.017761448 0.11694509
-0.038733892 -0.021706857 0.11657196
-0.015455349 -0.042682089 0.11501449
-0.012055004 -0.044483572 0.11410314
-0.045131709 -0.01257409 0.11262482
-0.043795068 -0.015041684 0.11219615
-0.040612571 -0.018540433 0.11211985
-0.039072242 -0.023074511 0.11275238
-0.035633847 -0.027728185 0.11027378
-0.034158345 -0.029097907 0.11009264
-0.023653235 -0.038605876 0.11059701
-0.019948008 -0.040689122 0.11129409
-0.016105359 -0.042052384 0.10983133
-0.013471271 -0.043845244 0.11079592
-0.041398358 -0.019778274 0.10752815
-0.039233096 -0.023558648 0.10764611
-0.036925528 -0.026912933 0.10677415
-0.033866651 -0.029562283 0.10653019
-0.031475753 -0.032875832 0.10663229
-0.027910581 -0.036319703 0.10588431
-0.023444306 -0.038205434 0.1056993
-0.020544834 -0.039195001 0.10597348
-0.041094605 -0.021400616 0.10437697
-0.039726134 -0.023416465 0.10347527
-0.037017483 -0.026724149 0.1018514
-0.034100916 -0.029548533 0.10197961
-0.031727165 -0.032833595 0.10093015
-0.028737962 -0.036262956 0.10112715
-0.02489876 -0.038682126 0.10102147
-0.029438596 -0.036080651 0.097401202
-0.027024783 -0.038722206 0.096688867
-0.043308005 0.0069091022 0.14151776
-0.042606719 0.0034257602 0.14156771
-0.042521149 0.0059027486 0.13639167
-0.042691909 0.0036477987 0.13769665
0.004360985 -0.042897832 0.13258913
0.0084454697 -0.043953307 0.13197872
-0.044076279 0.0025418717 0.13341013
0.0033146217 -0.043739915 0.12891132
0.0062001124 -0.045673274 0.12816188
0.0088623203 -0.047820035 0.12766612
-0.045589492 -0.00060407259 0.12839794
0.00083160959 -0.044295304 0.12446511
0.0049068835 -0.046719842 0.12377873
0.0076620933 -0.048823126 0.12511861
-0.045856759 -0.0024828296 0.12383261
-0.045753635 -0.0042526536 0.12282342
-0.0038259495 -0.044121977 0.12055814
-0.00012643822 -0.04455708 0.1202324
0.003838608 -0.047583796 0.12011212
-0.045664713 -0.001948813 0.11954713
-0.045887996 -0.0051150788 0.11953056
-0.005530484 -0.044984616 0.11596119
-0.0020475816 -0.045338586 0.11530405
-0.046215013 -0.0063192192 0.11485213
-0.045583054 -0.0093277562 0.11494082
-0.0074876342 -0.045724839 0.11183965
-0.003967857 -0.046622746 0.11103457
-0.045581643 -0.007068051 0.11073202
-0.045559671 -0.010357969 0.11038035
-0.014491113 -0.042856835 0.10798621
-0.011738073 -0.044215631 0.10768682
-0.0078821331 -0.045698032 0.10649335
-0.0045822244 -0.046598747 0.10655439
-0.04499796 -0.011922531 0.10533863
-0.044562649 -0.015473122 0.10712022
-0.04256054 -0.017947037 0.10723269
-0.019380856 -0.04043109 0.10466909
-0.01572914 -0.042003613 0.10343885
-0.012792759 -0.042932414 0.10203052
-0.044545226 -0.015522553 0.10244536
-0.042356405 -0.019372229 0.10189277
-0.039834257 -0.023755146 0.1010111
-0.036521569 -0.027989622 0.099332154
-0.034629591 -0.029914187 0.099198759
-0.023708129 -0.03911021 0.099250913
-0.020473227 -0.040740836 0.099998057
-0.016784515 -0.042206794 0.09904319
-0.040295191 -0.020156898 0.09722209
-0.039016902 -0.023223564 0.09769088
-0.037081093 -0.02624351 0.096459031
-0.034517504 -0.029635683 0.096011639
-0.031932004 -0.033047382 0.095876217
-0.02963721 -0.036140848 0.094625771
-0.025224209 -0.03902746 0.095212758
-0.021135651 -0.04092925 0.094912469
-0.018132344 -0.042084932 0.095292747
-0.036013857 -0.027117833 0.092562675
-0.034157027 -0.029560557 0.092271864
-0.03201019 -0.032620512 0.091167629
-0.029397978 -0.035252012 0.090475678
-0.025747711 -0.038850766 0.091632903
-0.022339942 -0.040282231 0.091154397
-0.04284519 0.0079166107 0.13584024
0.0076565091 -0.04218071 0.13065892
-0.043568596 0.007179521 0.13156104
-0.043230772 0.0061537884 0.12418082
-0.043688003 0.0034724772 0.12689769
-0.04410436 0.0014147144 0.12249216
0.0016789362 -0.044906147 0.11710483
0.0044364147 -0.046060003 0.11598951
-0.044638038 0.0012858436 0.11708087
0.001465125 -0.045005478 0.11341745
0.0034137852 -0.045982927 0.11271459
-0.046108671 -0.00094758533 0.11343902
-0.00047471747 -0.045897976 0.10894024
0.0023503974 -0.045918204 0.10848826
-0.046309665 -0.0011487398 0.10912162
-0.045880429 -0.0049187485 0.10930336
-0.0062429681 -0.046185356 0.10349983
-0.001981616 -0.046251629 0.10391837
-0.044768125 -0.0058467388 0.10558045
-0.043645527 -0.0084529556 0.1034016
-0.010159437 -0.043233085 0.10045612
-0.0064843148 -0.044098485 0.099702477
-0.0031298548 -0.046044037 0.10038275
-0.044372849 -0.010257412 0.10001916
-0.043841153 -0.013647022 0.098212719
-0.015188213 -0.042477276 0.096165836
-0.011569481 -0.043218728 0.095732152
-0.0074959211 -0.043459043 0.096849918
-0.042613558 -0.013636297 0.094909191
-0.04111696 -0.01771416 0.094346106
-0.038772948 -0.021904495 0.094076693
-0.019571112 -0.041444115 0.091941237
-0.01576034 -0.041618243 0.091763675
-0.01275975 -0.042566955 0.091949224
-0.039863776 -0.019241976 0.089454472
-0.038136348 -0.021644231 0.08929646
-0.03661352 -0.02540116 0.089708149
-0.034425531 -0.028812082 0.089332163
-0.032514196 -0.031090453 0.088608086
-0.028125396 -0.035340678 0.088171005
-0.025153514 -0.03767205 0.088038743
-0.021301357 -0.039883442 0.087973058
-0.018795993 -0.040535625 0.086901367
-0.036149241 -0.025872953 0.084954023
-0.033920057 -0.028727107 0.084728956
-0.031753067 -0.032050058 0.084691286
-0.028589316 -0.034655157 0.084096491
-0.026050655 -0.037353791 0.084275603
-0.030583728 -0.032600559 0.080227077
-0.028787153 -0.034664113 0.08024776
-0.026470916 -0.037169505 0.080178797
-0.042940222 0.0073444005 0.11945635
-0.043195359 0.0045275353 0.12019753
-0.044636138 0.0065944511 0.11467087
-0.044694558 0.0032946076 0.11599404
0.0061008688 -0.046295315 0.11116654
-0.0454848 0.0049677659 0.10968429
-0.046193838 0.0020616148 0.1117903
0.0047479905 -0.045859747 0.10592502
-0.046230845 0.00088089518 0.10620421
-0.045174301 -0.0023445785 0.10579216
0.0029459186 -0.046532512 0.10158688
-0.044853404 0.00025530159 0.1021086
-0.043654453 -0.0029283334 0.1016767
-0.043188155 -0.0058928821 0.10160941
-0.0049051084 -0.044823751 0.097896039
-0.0017058272 -0.046230175 0.097906411
0.0009182319 -0.046924032 0.097229302
-0.043286301 -0.0037140939 0.097434938
-0.043382727 -0.0065260958 0.096767485
-0.009871779 -0.043645095 0.092621386
-0.0062212031 -0.044300687 0.094268918
-0.0024055354 -0.04491134 0.093647003
-0.042736106 -0.0081973858 0.092253685
-0.042461783 -0.012311391 0.092033207
-0.040643997 -0.016261181 0.09117502
-0.0144806 -0.041246161 0.088359118
-0.01083412 -0.042952895 0.089686573
-0.006893415 -0.043923333 0.08945477
-0.043379642 -0.0090975128 0.088739812
-0.042784706 -0.012112088 0.08789885
-0.040687013 -0.016366642 0.087854564
-0.039180934 -0.020319311 0.086652637
-0.016071174 -0.040185478 0.085221827
-0.011841121 -0.041823573 0.085578859
-0.042532977 -0.012845303 0.084419847
-0.040844277 -0.016279176 0.083341599
-0.039204575 -0.021093689 0.083146274
-0.036710896 -0.024575265 0.08275193
-0.034140036 -0.027548935 0.081592798
-0.0237392 -0.037465032 0.081460595
-0.02127921 -0.038913719 0.081643164
-0.017392099 -0.039747547 0.0806669
-0.041199669 -0.017367084 0.079570711
-0.039378889 -0.020965111 0.078173518
-0.036405988 -0.024800843 0.078468144
-0.033447783 -0.028170306 0.078987479
-0.030753378 -0.03073271 0.077518165
-0.028622223 -0.034352906 0.076932192
-0.025276594 -0.037102018 0.076724887
-0.021673083 -0.038806178 0.076408207
-0.018815704 -0.040170405 0.076694191
-0.030118018 -0.031821523 0.073388517
-0.028413823 -0.033949614 0.072507262
-0.025456475 -0.036830883 0.072728574
-0.032390349 -0.032355089 0.067531943
-0.033180494 -0.033367768 0.064390361
-0.045324899 0.0081347674 0.10975868
0.0066169575 -0.04565458 0.10262942
-0.04543981 0.0060582832 0.10509038
0.0058353338 -0.046278112 0.099548042
-0.04386767 0.0034751277 0.099597096
-0.042701222 -0.00054591522 0.098507643
0.0046981834 -0.04597532 0.095503569
-0.043560296 0.0020594075 0.096234024
-0.04283648 -0.001570588 0.094886303
-0.00057194009 -0.045029104 0.090503812
0.0036400389 -0.04528949 0.091498017
-0.043154404 -0.0030228328 0.089961648
-0.043242466 -0.0059158765 0.090340793
-0.0053001959 -0.044248104 0.086578965
-0.0012811217 -0.044578582 0.086589992
-0.043748241 -0.0080951191 0.085986793
-0.010559282 -0.041480325 0.082497537
-0.0069209915 -0.043121219 0.082335114
-0.043849114 -0.0091035329 0.082046747
-0.04275826 -0.011594627 0.081231356
-0.04131889 -0.014359597 0.081494451
-0.01479795 -0.039818954 0.079218328
-0.011467899 -0.040924665 0.078096807
-0.0077625792 -0.042673621 0.078120232
-0.042427156 -0.01223034 0.076927006
-0.041371927 -0.015676454 0.076902568
-0.033003792 -0.026138227 0.075913668
-0.016030129 -0.039912518 0.074305058
-0.012692961 -0.040665384 0.074080646
-0.040743589 -0.016466275 0.072637558
-0.039127894 -0.020376829 0.072587073
-0.036044981 -0.024299599 0.072461903
-0.033339139 -0.027202256 0.071762621
-0.031068182 -0.030365378 0.071734488
-0.028435713 -0.033827584 0.069413483
-0.025489397 -0.036266696 0.069872439
-0.021060281 -0.038518798 0.070936739
-0.017956778 -0.04006087 0.069966733
-0.038876802 -0.021336205 0.068448424
-0.037312549 -0.024841938 0.067769885
-0.035358328 -0.028920285 0.067181528
-0.033883393 -0.031292949 0.066619635
-0.029163036 -0.034372397 0.066217005
-0.025200097 -0.036313377 0.066315532
-0.020922821 -0.037986767 0.066703737
-0.036778055 -0.026250893 0.06344682
-0.035989299 -0.02891198 0.062745035
-0.034421861 -0.031689994 0.064210057
-0.030139711 -0.035120882 0.062306464
-0.026829688 -0.036714926 0.061964869
-0.028922757 -0.034721054 0.05810523
-0.043906532 0.0082385316 0.098199487
-0.043060441 0.0055387486 0.096874177
0.0085430834 -0.045585401 0.093004048
-0.04263863 0.0043310523 0.092294037
-0.042174444 0.0011198558 0.092530906
0.0048489161 -0.044440202 0.087864399
0.0073189549 -0.045644827 0.088256001
-0.042092137 0.00067347102 0.088559568
-0.0012831129 -0.043931093 0.083000362
0.0034776796 -0.044650123 0.08422792
0.0077700634 -0.046540789 0.083967447
-0.042796195 -0.0022269636 0.084219992
-0.042408973 -0.0037973803 0.083892941
-0.0017313976 -0.042930592 0.079083264
0.0016705487 -0.043994613 0.08002609
-0.042910084 -0.0020417608 0.080147743
-0.042818423 -0.0054763686 0.079335034
-0.0067598876 -0.042497091 0.074595273
-0.0026018079 -0.043051254 0.075305998
-0.042840861 -0.0075282808 0.074319541
-0.042288609 -0.010291506 0.074621916
-0.040739 -0.013237527 0.073333859
-0.011110189 -0.040990833 0.071153045
-0.0070049185 -0.042230818 0.070749223
-0.0037687365 -0.043078791 0.072071195
-0.040947855 -0.010308318 0.070647359
-0.040530737 -0.014051039 0.068947971
-0.014879132 -0.039954305 0.06773299
-0.011993787 -0.041016668 0.066364944
-0.0082434583 -0.041399278 0.068047941
-0.040312104 -0.014622044 0.064930677
-0.038701743 -0.018495619 0.064661741
-0.038181327 -0.021888193 0.064737737
-0.023189481 -0.03617797 0.063098311
-0.020509189 -0.037453979 0.063014984
-0.016637929 -0.039278053 0.062688529
-0.013281806 -0.040808093 0.062379003
-0.037495628 -0.018997282 0.060362637
-0.036559142 -0.022542996 0.060484469
-0.023132101 -0.03594432 0.058814406
-0.020514062 -0.036995362 0.058191597
-0.030399946 -0.031293213 0.056965709
-0.028303057 -0.033010203 0.054495275
-0.025442353 -0.035403728 0.054653108
-0.033964705 -0.028680371 0.051683962
-0.029517641 -0.032066491 0.050640285
-0.042563405 0.0072522536 0.094551265
-0.04242982 0.0072576106 0.089937687
-0.04223907 0.0048240945 0.087042332
-0.041811008 0.0026897322 0.085663021
0.0053713229 -0.044431701 0.080807745
0.0075287018 -0.045304164 0.080877602
-0.042002883 0.0018236972 0.081252515
0.00062194653 -0.042999476 0.077113569
0.0044838078 -0.043799382 0.076696455
0.0076443534 -0.044194274 0.07710427
-0.042659849 5.120039e-05 0.077085316
-0.042233855 -0.0030582286 0.076242268
-0.00039322674 -0.043348126 0.073459089
0.0025421567 -0.043498717 0.072548866
-0.042523287 -0.0010492709 0.072156489
-0.042339981 -0.0039136279 0.072766602
-0.0018503033 -0.043361731 0.068623722
0.0018993635 -0.043502573 0.06840694
-0.041992478 -0.0050073434 0.06788367
-0.041243002 -0.0087866262 0.068206608
-0.0067336988 -0.042049091 0.06509608
-0.0031818468 -0.04307279 0.063906252
-0.041291177 -0.0097560491 0.06367445
-0.041014891 -0.012839165 0.06307596
-0.014977973 -0.039754026 0.05950433
-0.011547518 -0.041683815 0.061016738
-0.0077790376 -0.042618867 0.060298264
-0.004773479 -0.043612868 0.058792949
-0.041660991 -0.011194842 0.058378041
-0.040279452 -0.013815856 0.059056103
-0.037822556 -0.016579967 0.058370411
-0.035313644 -0.022510288 0.056925416
-0.019842673 -0.03747854 0.055373728
-0.016509557 -0.039193284 0.057161033
-0.013107926 -0.041736282 0.057371736
-0.009100493 -0.043679334 0.055738211
-0.0063805282 -0.044943072 0.054594934
-0.042412691 -0.011736587 0.055131197
-0.040609911 -0.013899471 0.055219054
-0.037660256 -0.017893955 0.055655181
-0.035394624 -0.020876259 0.054280698
-0.03346958 -0.025388135 0.053524554
-0.029535642 -0.030199133 0.051507235
-0.028295089 -0.031911206 0.051715076
-0.023824058 -0.035655383 0.051578343
-0.020549376 -0.037074566 0.052529156
-0.016968656 -0.039447889 0.052498996
-0.013842102 -0.04223096 0.052028596
-0.010570653 -0.043643665 0.051953375
-0.035889357 -0.021821138 0.048619866
-0.034540854 -0.025985438 0.048897684
-0.0307397 -0.029757041 0.048472822
-0.028140064 -0.032982308 0.048987269
-0.025548028 -0.03562348 0.048243999
-0.021326559 -0.03763137 0.048279345
-0.01788955 -0.039879262 0.047491372
-0.014527205 -0.041781325 0.048093379
-0.037942246 -0.022995377 0.044651926
-0.035494924 -0.026864968 0.044355929
-0.031713672 -0.029801821 0.044124544
-0.028390869 -0.032602318 0.043933511
-0.025611609 -0.035722174 0.043592513
-0.021523345 -0.038014766 0.043684185
-0.038435511 -0.024007907 0.04081589
-0.036347888 -0.027152933 0.040309787
-0.03301239 -0.030796515 0.03943944
-0.029566944 -0.03294519 0.039066553
-0.026690764 -0.035647102 0.040517211
-0.04126101 0.0074767563 0.083468258
-0.041606128 0.0071175639 0.079167306
-0.044767968 0.0087283775 0.072859764
-0.043021008 0.0062942319 0.07518357
-0.042603314 0.0017055869 0.074615061
0.0060938708 -0.042923048 0.069930613
-0.04441407 0.0051963385 0.0706653
-0.043078706 0.001071332 0.070803761
0.004255591 -0.042842001 0.06596303
-0.044266358 0.0035682637 0.067452729
-0.042820893 0.00060030445 0.066219509
-0.042376768 -0.0034113191 0.065313637
-0.00077809952 -0.043380581 0.061486542
0.0028571356 -0.042463377 0.060943186
-0.042463966 -0.00026172958 0.06238085
-0.042018302 -0.0040154438 0.060874879
-0.04149387 -0.0072079897 0.060890853
-0.0014676508 -0.043213919 0.05661279
-0.042454198 -0.005053699 0.056282401
-0.041954216 -0.008392306 0.056803405
-0.0036593862 -0.0439642 0.053267062
-0.043285675 -0.0063524973 0.051264346
-0.042943269 -0.0098111834 0.051942766
-0.040169388 -0.013207228 0.051343858
-0.03725262 -0.015964977 0.051454127
-0.035300937 -0.018899137 0.05114311
-0.0086552761 -0.043063678 0.04881072
-0.043276697 -0.010764858 0.047508419
-0.04043787 -0.013149218 0.046291292
-0.037966572 -0.016669687 0.046780527
-0.036292389 -0.01949361 0.047397673
-0.015902203 -0.040050056 0.04380703
-0.012619036 -0.040869582 0.04472208
-0.039029419 -0.017694481 0.04222101
-0.038118158 -0.020555601 0.043172181
-0.023449622 -0.035456717 0.04007715
-0.021439377 -0.036932811 0.040087461
-0.017820906 -0.039254505 0.040514827
-0.039536759 -0.019635893 0.037323833
-0.038932376 -0.022368234 0.037997425
-0.036506746 -0.025871357 0.037826359
-0.02801187 -0.033861343 0.03717041
-0.02524271 -0.035348393 0.036545932
-0.021213692 -0.03666443 0.036280096
-0.018756565 -0.038608499 0.036586881
-0.040048342 -0.019924285 0.033685982
-0.03827408 -0.022619106 0.033637822
-0.035964157 -0.026024291 0.033213854
-0.033590898 -0.029715355 0.033523321
-0.030235825 -0.033144481 0.032908916
-0.026782915 -0.035363268 0.031996191
-0.030833803 -0.032283802 0.028747976
-0.028506007 -0.033919569 0.028094769
-0.045586891 0.0081267562 0.069683671
0.0062999949 -0.042589452 0.063429832
-0.043934975 0.0057984181 0.064190865
-0.042783678 0.0027031898 0.063514173
0.0054617561 -0.042512454 0.05885607
-0.042513624 0.0015148148 0.05964911
0.0037817638 -0.042127356 0.055258214
-0.04202722 0.00071975216 0.055230677
