# .PCD v0.7 - Point Cloud Data file format
VERSION 0.7
FIELDS x y z
SIZE 4 4 4
TYPE F F F
COUNT 1 1 1
WIDTH 1310
HEIGHT 1
VIEWPOINT 0 0 0 1 0 0 0
POINTS 1310
DATA ascii
-0.047766171 -0.007263286 0.26479
-0.004823843 0.040988091 0.26526201
-0.048295483 -0.0028221123 0.26133358
-0.048331156 -0.0059481375 0.26037455
-0.0064400062 0.042533956 0.26070917
-0.010092532 0.041233584 0.26003671
-0.048949696 -0.0012515504 0.25638413
-0.049241118 -0.0048877224 0.2553851
-0.0074343923 0.042758599 0.25659531
-0.010896612 0.041547023 0.25688598
-0.049782224 0.00039480813 0.25260219
-0.05065152 -0.0034643374 0.25092131
-0.0085816309 0.042985015 0.25203344
-0.01200349 0.041927088 0.25206357
-0.015003579 0.040951416 0.25155622
-0.04963129 0.0055931024 0.24780411
-0.049909499 0.0021530148 0.24841365
-0.009529952 0.043355934 0.24761572
-0.012853858 0.042880483 0.24728161
-0.016413046 0.041286182 0.24774092
-0.049404986 0.0067914799 0.24392369
-0.049741048 0.0033515561 0.24370521
-0.013757309 0.043072008 0.24365538
-0.017416118 0.041934781 0.24249128
-0.021425644 0.040293958 0.24200776
-0.046607561 0.015516003 0.23905587
-0.048108086 0.011598878 0.23967612
-0.048886567 0.0076012183 0.23914918
-0.018504893 0.04169482 0.23770288
-0.021859262 0.040296454 0.23785198
-0.025109628 0.038488086 0.23783144
-0.027651364 0.037290014 0.23710743
-0.044345617 0.019324355 0.23558721
-0.045975398 0.016565498 0.2357766
-0.04785908 0.012428427 0.2346769
-0.048868015 0.0088830944 0.23497862
-0.02267256 0.040329002 0.23352149
-0.025329381 0.038730528 0.23350325
-0.029226039 0.036639012 0.23309377
-0.032729413 0.034093983 0.23214191
-0.035883073 0.031444419 0.23149559
-0.039581783 0.028417436 0.23096997
-0.042325504 0.024352591 0.23116884
-0.043631878 0.020457726 0.23134527
-0.045755737 0.016747583 0.23095807
-0.047470175 0.013516657 0.23129293
-0.029686769 0.035970189 0.2282387
-0.032907479 0.034270886 0.22774693
-0.035840921 0.031022862 0.22733209
-0.038614154 0.02782508 0.22708458
-0.041213285 0.025140839 0.2270903
-0.042514399 0.021697316 0.22706762
-0.033539921 0.033325594 0.2241511
0.0020531919 0.013933834 0.30518407
0.001565258 0.014166972 0.30010116
0.0021457514 0.01831446 0.29670781
0.00037232507 0.016897164 0.29894787
0.0041538607 0.023161413 0.292081
0.001779045 0.020948585 0.2943995
0.0030460116 0.025712464 0.28922635
0.0049239779 0.029362839 0.28416473
0.0020504091 0.027550286 0.28680608
0.0060754782 0.032974146 0.27965033
0.0034901528 0.032110579 0.28039169
0.0045930753 0.034663379 0.27603817
0.002616927 0.034742001 0.27678883
0.0028545614 0.037015326 0.27151692
0.0010087788 0.036481995 0.27408013
0.0016978718 0.0391104 0.26765901
0.0038584508 0.04160485 0.26305833
0.00037063099 0.040555887 0.26307324
-0.048047204 -0.0088048223 0.25808018
-0.0011430066 0.041882321 0.2589151
-0.049492016 -0.0071141999 0.2536808
-0.0015094057 0.042195018 0.25381708
-0.004327314 0.04307618 0.25452673
-0.050625164 -0.0060346369 0.25041863
-0.051649436 -0.0085666571 0.24895388
-0.0023186691 0.043288216 0.2496689
-0.0055215266 0.043038137 0.24949965
-0.049654737 8.7913126e-05 0.245114
-0.050014488 -0.0035080593 0.24581113
-0.05144798 -0.0073790383 0.246355
-0.006801324 0.043563336 0.24493447
-0.01067256 0.042938661 0.24454156
-0.049715057 0.0015205387 0.24112144
-0.04949981 -0.0018319357 0.23992932
-0.0078291278 0.043401327 0.24080527
-0.011439802 0.042662155 0.23988307
-0.049243361 0.0059775654 0.23660049
-0.04960601 0.0021701679 0.23609507
-0.012517257 0.042778805 0.23515907
-0.015862362 0.042179912 0.23571074
-0.049301408 0.0073400624 0.23248771
-0.04989107 0.0037559234 0.23146051
-0.013464299 0.043081351 0.23149312
-0.016664369 0.042024195 0.23108521
-0.020097066 0.040435225 0.23025569
-0.024304558 0.037973404 0.22930217
-0.043468561 0.019016914 0.22777617
-0.045154434 0.016251963 0.22707224
-0.047814533 0.012359321 0.22820121
-0.048881683 0.0082027595 0.22768798
-0.020492118 0.039374441 0.22599962
-0.023657117 0.037572399 0.2254222
-0.02771464 0.03626702 0.22579175
-0.038957831 0.026268223 0.22452056
-0.041037302 0.023916431 0.22420064
-0.043041252 0.020170789 0.22447065
-0.045544636 0.01678947 0.22413749
-0.046591945 0.013128165 0.22336006
-0.048039742 0.010225873 0.22349799
-0.02472453 0.03802466 0.22102621
-0.028076634 0.03599982 0.22144324
-0.031734265 0.033643231 0.2216076
-0.034802742 0.03026551 0.22139597
-0.037748117 0.026994716 0.22097376
-0.040453576 0.024372421 0.22078824
-0.043034162 0.020724243 0.22000465
-0.045932136 0.017608864 0.21985602
-0.028451286 0.036052827 0.21788636
-0.031642195 0.033593755 0.21685225
-0.034531813 0.031018721 0.21593988
-0.037420645 0.028083432 0.2158033
-0.040514197 0.024666481 0.21585658
-0.043244045 0.021118745 0.21604311
-0.04603548 0.018258022 0.21605429
0.0059377011 0.036433782 0.27060711
0.0050627235 0.038489047 0.26610851
0.0056838691 0.040715121 0.26360178
0.0041859653 0.039643936 0.26201537
0.0023188312 0.040181629 0.25551197
0.0017533246 0.040999025 0.25195187
-0.0001385808 0.042691454 0.24766627
-0.049435757 -0.0057695452 0.24257305
-0.049572542 -0.0089458209 0.24232927
-0.0020969473 0.043600105 0.24302557
-0.0046981014 0.044341102 0.24278134
-0.049890488 -0.0042123571 0.23891038
-0.050061334 -0.0073229093 0.23744023
-0.0061533973 0.043886781 0.23831785
-0.050381869 -0.0025832932 0.23403192
-0.051627912 -0.0055858493 0.23248005
-0.0078924987 0.044327732 0.23420078
-0.010502957 0.043504857 0.23467618
-0.050480939 0.0019070692 0.23000869
-0.050958484 -0.0015400946 0.22936332
-0.052160781 -0.0042578019 0.22885397
-0.0082507748 0.044032246 0.23003072
-0.011606932 0.043665282 0.22990569
-0.049171031 0.0071892329 0.22538409
-0.049845681 0.0032700449 0.22601578
-0.011932465 0.042599026 0.22576603
-0.015124589 0.041667227 0.22439533
-0.019176379 0.040330369 0.22417313
-0.047057621 0.012026392 0.22145745
-0.048483275 0.0079754647 0.22115377
-0.049503297 0.0043626186 0.22193378
-0.016006924 0.041026428 0.22045776
-0.019371318 0.03969159 0.21968505
-0.022432407 0.038467497 0.2202417
-0.046031132 0.015738327 0.21698967
-0.046534557 0.012541577 0.21722791
-0.047911752 0.0093375668 0.21785918
-0.020912629 0.039048512 0.2155844
-0.024215061 0.038608108 0.21535105
-0.028062792 0.036631126 0.21478188
-0.031722516 0.033848397 0.21381411
-0.03381281 0.032385897 0.21354684
-0.03857645 0.027344737 0.21299377
-0.040624306 0.024933171 0.21262416
-0.043334536 0.02135548 0.21278483
-0.045452103 0.016942551 0.21241951
-0.046082862 0.013435451 0.21349984
-0.024849659 0.038515184 0.21047747
-0.028118605 0.036490634 0.20988172
-0.03129198 0.033645064 0.20963448
-0.034508687 0.031482946 0.20993552
-0.037742995 0.02846178 0.20977831
-0.040786982 0.025254074 0.20943242
-0.042641047 0.021514164 0.20863414
-0.044366892 0.018405929 0.20769969
-0.027914986 0.03674534 0.20631242
-0.030991893 0.03354495 0.20598501
-0.033981446 0.031146925 0.20605662
-0.037185472 0.028118689 0.20501596
-0.040535644 0.025196824 0.20496827
0.0076064412 0.038917236 0.25284639
0.006531978 0.038101867 0.25371689
0.0076701567 0.040003963 0.24955493
0.0050694458 0.039774045 0.25005111
0.0056670513 0.041725218 0.24502665
0.0028883349 0.041841842 0.24552691
0.0023635775 0.042212576 0.24051452
-0.050018743 -0.0099341217 0.23612884
0.00025530346 0.042303212 0.23676011
-0.0022824612 0.042646557 0.23501605
-0.050663434 -0.0089303888 0.2326602
-0.0028835312 0.043104626 0.23081872
-0.050584719 -0.0031093247 0.22621983
-0.050980665 -0.006819455 0.22620168
-0.0060203914 0.043625802 0.22738749
-0.049226642 0.00022021122 0.22308183
-0.04960034 -0.0027261525 0.22386247
-0.0074802358 0.043229423 0.22301394
-0.010208031 0.042748876 0.22242931
-0.013053486 0.041649316 0.22119746
-0.048402376 0.0051395595 0.21843737
-0.049033958 0.0016629975 0.2182672
-0.011044364 0.042445764 0.21763214
-0.014106561 0.041355461 0.21785584
-0.017145785 0.04057873 0.21729293
-0.047453586 0.0077275261 0.21459728
-0.049224038 0.003905924 0.21402532
-0.014604678 0.041421123 0.21339875
-0.018366173 0.039869595 0.21384332
-0.021996912 0.038595997 0.21152282
-0.046108466 0.011680644 0.21085006
-0.046808217 0.0079799183 0.21000603
-0.048757706 0.0048226696 0.21067914
-0.015616412 0.041360371 0.21011204
-0.019247899 0.039930396 0.2089698
-0.023168977 0.038783852 0.20812291
-0.026118163 0.037561338 0.20766023
-0.042886108 0.020241469 0.20594233
-0.044856932 0.016145144 0.20577216
-0.045733951 0.012255877 0.20574284
-0.046428517 0.0090297535 0.20668405
-0.020120073 0.039894097 0.20442551
-0.023502801 0.038801391 0.20365295
-0.02761312 0.036580019 0.20399779
-0.030956663 0.033654165 0.20342502
-0.033833627 0.031137666 0.20338079
-0.037182704 0.028243627 0.2024807
-0.040337596 0.025115544 0.2022295
-0.041750059 0.021040972 0.20238093
-0.043778941 0.017432373 0.20172864
-0.045262687 0.013608752 0.20167679
-0.0276397 0.036182933 0.19929752
-0.030881271 0.03384003 0.19878581
-0.033858724 0.03126061 0.19847015
-0.0371379 0.028343562 0.19833192
-0.040319778 0.025295936 0.19796389
-0.041388914 0.021477833 0.19780284
-0.029234445 0.035968777 0.19604322
-0.031131148 0.034312163 0.1949656
-0.033762049 0.031537775 0.19454721
-0.036059178 0.029309427 0.19468498
-0.039542601 0.025617633 0.19339788
0.0068759192 0.04081263 0.23797297
0.0064713974 0.041498534 0.23420826
0.0030064732 0.041944809 0.23351824
0.0066296756 0.047050327 0.22922423
0.001711186 0.042366009 0.22892201
-0.050658453 -0.0077764615 0.22386575
0.00022666156 0.042842254 0.22463882
-0.0020651221 0.042763177 0.22515348
-0.048214316 -0.0050498229 0.21975398
-0.049668811 -0.0075547099 0.22126707
3.9065257e-05 0.043267712 0.22148803
-0.0036412664 0.042666819 0.22026271
-0.048382163 -0.0034051575 0.21567911
-0.0052989144 0.042442866 0.21508011
-0.008546561 0.042569451 0.21581024
-0.049671084 0.0010356978 0.21166801
-0.049648941 -0.0016742144 0.21143579
-0.0096571352 0.042385429 0.21165583
-0.012143017 0.041474205 0.21120286
-0.047170714 0.0060038213 0.20799673
-0.048900619 0.0033890493 0.20802733
-0.049179927 -1.4489517e-05 0.20654765
-0.010545183 0.042651817 0.2064648
-0.013699589 0.041690469 0.20656741
-0.017031524 0.040348493 0.2058621
-0.046422713 0.011061864 0.20256418
-0.046981301 0.0076758396 0.20335507
-0.048817076 0.0041783527 0.20253527
-0.011580288 0.043353498 0.20236355
-0.014350443 0.042522945 0.20143947
-0.018393956 0.04052091 0.20187148
-0.044385023 0.015261321 0.19926596
-0.046013802 0.012385117 0.19938821
-0.047559202 0.0086552538 0.19827595
-0.048862942 0.0053281803 0.19793183
-0.015244479 0.041837212 0.1979661
-0.018840447 0.040197749 0.19737959
-0.022624519 0.038300678 0.19771919
-0.025692748 0.037161715 0.19736609
-0.041586097 0.019928388 0.1952813
-0.042964648 0.017015714 0.1954807
-0.044880487 0.013242863 0.19467852
-0.020056762 0.039629605 0.19372365
-0.023008469 0.038605284 0.19259521
-0.026408091 0.036959648 0.19261041
-0.03027451 0.0348376 0.19180232
-0.033316642 0.031506464 0.19146758
-0.036258213 0.02813933 0.1914832
-0.039151393 0.025030259 0.1905314
-0.041381076 0.021148251 0.19088018
-0.042775892 0.017356852 0.19135791
-0.045087248 0.013810204 0.1911774
-0.026956344 0.03659267 0.18765998
-0.030322878 0.034598272 0.18713906
-0.033668242 0.031844724 0.1870358
-0.036227576 0.028969364 0.1866411
-0.039255802 0.025653137 0.18622273
-0.040930152 0.022124808 0.18620768
-0.033435564 0.031802341 0.18334913
-0.037119307 0.028220184 0.18309945
-0.039340016 0.025901064 0.18285713
0.0072374586 0.04666812 0.22705075
0.0074297264 0.042907927 0.22763956
0.0043680035 0.042229861 0.22772813
0.0079852864 0.046166569 0.22474858
0.0063380301 0.043442614 0.22275457
0.0031831022 0.042811297 0.22335216
0.0075654332 0.04708489 0.21846527
0.0020606983 0.043314852 0.21918932
-0.0014507622 0.043194957 0.21777013
-0.048028529 -0.006677838 0.21468246
0.00093705207 0.0434663 0.21381348
-0.0024856646 0.043004245 0.21378034
-0.049347889 -0.0046743453 0.20971537
-0.048933886 -0.0080982111 0.20853677
-0.0044208057 0.042589352 0.20943835
-0.0075285062 0.042550184 0.2088235
-0.049255922 -0.003108874 0.20492586
-0.049532279 -0.0046752132 0.20245838
-0.0052805487 0.042919666 0.20493513
-0.0083661117 0.042933922 0.20486331
-0.050098404 -0.00051962025 0.20145121
-0.050174911 -0.0038790293 0.19966596
-0.0096667539 0.043450333 0.20027459
-0.04973498 0.0046173334 0.19636562
-0.051090784 0.0011133421 0.19665357
-0.013381668 0.04199994 0.19541481
-0.016939275 0.041261453 0.1955083
-0.045840986 0.011412883 0.19254839
-0.047252029 0.0084993672 0.19276816
-0.048894823 0.0051330812 0.19192392
-0.050789401 0.0008984115 0.19198322
-0.014472176 0.041604925 0.19039455
-0.017818943 0.040551789 0.19124237
-0.021938778 0.03933619 0.1897437
-0.043043002 0.017388355 0.18838114
-0.045174368 0.012954401 0.18880796
-0.047075845 0.008736603 0.18801388
-0.048659921 0.0053994861 0.18816623
-0.018798858 0.040047292 0.18685299
-0.022110183 0.038344365 0.18533841
-0.025529917 0.037115667 0.18548781
-0.028502651 0.035870615 0.18504342
-0.041682478 0.021133693 0.18423286
-0.04315532 0.017504063 0.18382609
-0.044747379 0.01370515 0.18405813
-0.022987738 0.037849091 0.18169188
-0.025787288 0.036812626 0.18090755
-0.030132905 0.034963388 0.18176198
-0.033603195 0.032085121 0.18130523
-0.036230542 0.029472014 0.18138024
-0.039546508 0.026231188 0.18047833
-0.041554917 0.021816652 0.17981175
-0.042403027 0.018328317 0.17941076
-0.026750632 0.036389515 0.17733461
-0.03079867 0.035648223 0.17729306
-0.034119979 0.032841489 0.17715305
-0.036515631 0.029780686 0.17656434
-0.039195906 0.026084483 0.17574736
-0.041418981 0.022310454 0.17600459
-0.031578999 0.034790654 0.17283028
-0.033617955 0.032539353 0.17313591
-0.035691623 0.030051101 0.17271948
0.007520223 0.042489484 0.21725583
0.0044160374 0.04227002 0.21558344
0.00340808 0.043106794 0.21221831
-0.00012106821 0.042479135 0.21070248
0.0020378865 0.042568941 0.20626745
-0.00027355738 0.042213283 0.20676732
-0.048710383 -0.0089442506 0.20180628
0.00042492338 0.042523623 0.20344326
-0.002413353 0.042765439 0.2027486
-0.049279496 -0.0068411324 0.19941828
-0.004522806 0.043005899 0.19839656
-0.0070387106 0.042925023 0.19737291
-0.050340019 -0.0035682824 0.19462043
-0.0033287946 0.043157469 0.19488126
-0.007808188 0.041676592 0.19285867
-0.011305097 0.04197868 0.19264963
-0.048849791 0.0026745927 0.18939662
-0.049708702 0.00074310228 0.18872628
-0.0088939536 0.041732837 0.18869254
-0.012030376 0.042006191 0.18945256
-0.047057103 0.0075773541 0.185067
-0.04802784 0.0038268063 0.18490422
-0.048796237 0.00077807344 0.1856418
-0.01313654 0.0424986 0.1849077
-0.016919088 0.040602036 0.18407544
-0.020338835 0.03880138 0.18272829
-0.044697102 0.012821864 0.18065491
-0.046492692 0.0087282304 0.18171304
-0.047872901 0.0050466619 0.18164623
-0.013647288 0.042386971 0.18060985
-0.017325416 0.040252935 0.17921221
-0.021166902 0.038261525 0.17901516
-0.023860302 0.037109908 0.17811164
-0.042978212 0.017136034 0.1772154
-0.044384949 0.013594475 0.17646268
-0.04603786 0.0096221417 0.17678595
-0.021606751 0.038767669 0.17435244
-0.025446489 0.037276186 0.17517805
-0.028116703 0.036111046 0.17426112
-0.041337498 0.021500707 0.1730653
-0.04296701 0.017933697 0.17287767
-0.044380683 0.01439257 0.17212072
-0.025196219 0.037107468 0.16998672
-0.028961776 0.035155792 0.17011571
-0.033127949 0.032203015 0.1699844
-0.035839975 0.029143963 0.16994056
-0.038428511 0.025805019 0.1699622
-0.040676855 0.021758404 0.16836908
-0.042343926 0.018702224 0.16880029
-0.029645093 0.034069598 0.16587305
-0.032306477 0.031591084 0.16557875
-0.034868024 0.028998177 0.16552907
-0.037584517 0.025801936 0.16574511
-0.03927251 0.023814321 0.16542676
0.0075215492 0.042486399 0.20994172
0.0054600853 0.042758957 0.20835966
0.0054923911 0.042142518 0.20448193
0.0024297182 0.04225415 0.20096678
0.0017281193 0.041908391 0.19540495
-0.0011145696 0.04267446 0.19714192
-0.047298774 -0.0088776797 0.19030267
-0.0021461733 0.041596182 0.19096202
-0.0047209524 0.041235849 0.19000858
-0.047970615 -0.0040528234 0.18523237
-0.048566915 -0.005443316 0.18921131
-0.0029289816 0.041580036 0.18665969
-0.0063158274 0.041749351 0.18631831
-0.047829561 0.0017438084 0.18214518
-0.047513008 -0.0012159701 0.18211928
-0.0078548379 0.041911073 0.18237296
-0.0475078 0.0027922727 0.17839286
-0.0083677713 0.042007368 0.17780316
-0.011795899 0.042021818 0.17738733
-0.015242411 0.040875733 0.17662185
-0.046477005 0.0082675684 0.17397061
-0.04679849 0.004725676 0.17434397
-0.012413269 0.041397445 0.17310625
-0.016527288 0.040269513 0.17268726
-0.044468768 0.012668271 0.16934863
-0.045744918 0.0095528103 0.16937509
-0.046437051 0.006391691 0.17060217
-0.017400378 0.040010415 0.16778299
-0.021098588 0.038626865 0.16858029
-0.025014836 0.037054896 0.1678246
-0.042658739 0.017230511 0.16627717
-0.043277476 0.01356109 0.16575944
-0.044587146 0.010353221 0.16562724
-0.018755082 0.040294673 0.16381735
-0.021345127 0.038953934 0.16366097
-0.024811372 0.037076216 0.164092
-0.028152967 0.034905605 0.16373357
-0.032387041 0.031810943 0.1630224
-0.035026945 0.028454011 0.16282952
-0.037379391 0.025723113 0.16286325
-0.039735422 0.021582609 0.16251326
-0.041475981 0.017157681 0.16186497
-0.02257742 0.038775865 0.16030169
-0.024850177 0.037009809 0.15968433
-0.028085079 0.034731165 0.15907454
-0.031563617 0.031986196 0.15794599
-0.034437485 0.028576871 0.1575678
-0.036821458 0.025578832 0.15754998
-0.038895473 0.022789231 0.15823144
-0.028848488 0.034225982 0.15531227
-0.032114103 0.032022465 0.15384763
-0.033802226 0.030013982 0.15351275
0.0065670684 0.04112269 0.19775051
0.0044859294 0.041231357 0.1937564
0.0030594189 0.041633606 0.19045317
0.00038670003 0.041253291 0.18910176
-0.046122689 -0.0090592057 0.1833733
-0.0005803369 0.041517425 0.18450367
-0.045730419 -0.0051054284 0.17907941
-0.0021879822 0.041376851 0.17986819
-0.0048935786 0.041686468 0.17999697
-0.04655287 -0.0024428889 0.17555189
-0.0059533622 0.041960016 0.17568398
-0.046584595 0.0016133152 0.17244944
-0.047177203 -0.0011911299 0.17086819
-0.0069739334 0.041607484 0.17097548
-0.010662161 0.041580185 0.1710397
-0.046522364 0.0044114292 0.16757447
-0.047798425 0.00041920878 0.16712815
-0.0076741315 0.042078272 0.16748485
-0.011033384 0.041492619 0.16621631
-0.014519055 0.040754247 0.16613495
-0.042985089 0.011612443 0.16281909
-0.045136955 0.0088609643 0.16297138
-0.046476804 0.0049881916 0.1622811
-0.047710866 0.0021291841 0.16419968
-0.015922923 0.040715504 0.1616993
-0.019837469 0.039686184 0.16126448
-0.039807595 0.018937336 0.15914136
-0.041455466 0.016388703 0.1589238
-0.043179538 0.012930151 0.1591202
-0.045057796 0.0097297635 0.15843797
-0.017391572 0.040594995 0.15747952
-0.021046586 0.039486859 0.15786803
-0.024065247 0.037224025 0.1569258
-0.038920335 0.021209588 0.15563896
-0.040898968 0.017390199 0.15509981
-0.043158595 0.013644211 0.15428013
-0.044721402 0.010874867 0.15500605
-0.020646151 0.039102133 0.15396979
-0.024119662 0.036536828 0.15264857
-0.027134746 0.034741066 0.15264788
-0.031368826 0.032125212 0.15167084
-0.034770031 0.02900333 0.15133053
-0.037196264 0.025893597 0.15161407
-0.039145399 0.02259003 0.15112996
-0.04119854 0.018171076 0.1503576
-0.043241881 0.015269313 0.15042379
-0.031124718 0.031671509 0.14725053
-0.035000615 0.029722568 0.14657331
-0.03770455 0.026857944 0.14625156
-0.039571911 0.023656528 0.14580405
-0.040414982 0.020094264 0.14724341
-0.035779245 0.028825445 0.14271653
-0.037612692 0.026939325 0.14253286
-0.039247662 0.024852132 0.14211655
0.0059149005 0.040768776 0.18707341
0.0049388073 0.04113324 0.1829218
0.0014581662 0.041467056 0.18088347
-0.044832833 -0.0073925573 0.17736381
0.003742462 0.041352235 0.17789727
0.00039851479 0.04143367 0.17747885
-0.04614285 -0.0058134422 0.17343733
-0.046437871 -0.0091392789 0.1728121
-0.00066230632 0.041724682 0.17320904
-0.003786223 0.041622475 0.17260063
-0.047452427 -0.0042349007 0.16951275
-0.048215427 -0.0073171128 0.16811562
-0.049885474 -0.0094033983 0.16773498
-0.0018962063 0.041970421 0.16820008
-0.0045519937 0.041883979 0.16910681
-0.04848754 -0.0023070406 0.16565847
-0.049582388 -0.0052765328 0.16429335
-0.0054992698 0.042267941 0.16443372
-0.0096103419 0.041795321 0.16340199
-0.047019109 0.0034488067 0.16004252
-0.047558166 -0.00016600639 0.16071025
-0.049267434 -0.0036837347 0.1599648
-0.006952893 0.042554289 0.15973032
-0.01036801 0.041587923 0.15936553
-0.013227832 0.040744361 0.15848851
-0.045079343 0.0073278826 0.1558311
-0.046137206 0.0045707263 0.15565073
-0.047090665 0.0011651237 0.15642175
-0.049103886 -0.0030304622 0.15634719
-0.01069236 0.041618768 0.15461534
-0.014191608 0.040717114 0.15465614
-0.043513142 0.011610245 0.15204969
-0.044607833 0.0086669922 0.1515373
-0.045738876 0.0050666034 0.15092844
-0.015947632 0.04022925 0.15079463
-0.020025318 0.038694464 0.15061527
-0.021891 0.036831744 0.15046296
-0.042639218 0.01664529 0.1481654
-0.043840442 0.013491676 0.1484637
-0.045319825 0.01008115 0.14742956
-0.017393202 0.040085945 0.14634836
-0.019724574 0.038699701 0.14580372
-0.023076443 0.036411013 0.14618352
-0.026151627 0.033872589 0.1462605
-0.029919697 0.031838343 0.14453673
-0.03981575 0.021519333 0.14408052
-0.0415782 0.018552881 0.14458895
-0.044214144 0.014620591 0.14403826
-0.046039183 0.011331879 0.14325267
-0.020671129 0.038000748 0.14213908
-0.023490291 0.036485661 0.14146754
-0.026348891 0.034425084 0.14016721
-0.029768644 0.031777553 0.13989946
-0.033671357 0.029327247 0.13960144
-0.037235819 0.026693461 0.13937217
-0.039308503 0.022897284 0.13882494
-0.040948261 0.019059338 0.13942564
-0.04372913 0.01554779 0.13999167
-0.045841664 0.012633551 0.13994473
-0.02770089 0.034145515 0.1360321
-0.028691608 0.03326093 0.13601768
-0.033130627 0.029102396 0.1354534
-0.037143413 0.026775174 0.13562244
-0.039250445 0.023716517 0.13532007
0.0061009359 0.041591927 0.17637211
0.0051179118 0.041440304 0.17178506
0.0022301562 0.041527659 0.17049453
0.0011295509 0.041747019 0.16693223
-0.00069945492 0.042196184 0.16219851
-0.050372466 -0.0059567168 0.15772659
-0.00125717 0.042611986 0.15762562
-0.0042509809 0.042669229 0.15826213
-0.047176011 -0.00081994198 0.15389705
-0.049444873 -0.0038626883 0.15364501
-0.050354395 -0.006561242 0.15396345
-0.0019346233 0.043066792 0.1540536
-0.0056980904 0.04279504 0.15350544
-0.0090431441 0.042039488 0.15215144
-0.046299554 0.0039721224 0.1488868
-0.046970077 -0.00026524998 0.14947516
-0.048586838 -0.003439391 0.1493378
-0.005943181 0.042638235 0.14933789
-0.0096117891 0.041657247 0.14785963
-0.013197525 0.040491439 0.14810652
-0.045117032 0.0076996423 0.14587045
-0.045974657 0.0049978644 0.14520785
-0.046246577 0.0010407455 0.14521766
-0.010383093 0.041451603 0.14376721
-0.014010768 0.040293708 0.14354801
-0.045528293 0.0083499774 0.13993523
-0.015111824 0.03966742 0.13970855
-0.018769488 0.038397603 0.13924453
-0.022142477 0.037145782 0.13927343
-0.04150933 0.017813329 0.13707647
-0.043616585 0.014886011 0.13701713
-0.045448042 0.011140388 0.13654873
-0.019437041 0.038009305 0.1343171
-0.022723831 0.036737327 0.13493681
-0.026347205 0.034790047 0.13380933
-0.029449621 0.03203401 0.13353729
-0.03269811 0.029124383 0.13264298
-0.036474112 0.026238017 0.13208863
-0.038942017 0.022668995 0.13194329
-0.040630102 0.018960241 0.13354838
-0.04279232 0.015433481 0.13345698
-0.044114724 0.012972461 0.13263285
-0.023335651 0.03707128 0.12917325
-0.026635572 0.035543624 0.12914753
-0.029389592 0.032493733 0.12835339
-0.032238271 0.029013721 0.12788963
-0.035804629 0.025745764 0.1276153
-0.037796017 0.022809755 0.12760961
-0.03945718 0.019856369 0.12873948
-0.027726617 0.036196813 0.12436408
-0.029895829 0.033502471 0.1238144
-0.032174349 0.029827617 0.12439719
-0.036403123 0.025577743 0.12403822
0.0061751865 0.040811874 0.1646232
0.003380172 0.040993702 0.16315198
0.0044949297 0.042065322 0.15950119
0.0030458476 0.041559637 0.15993515
0.0043996908 0.042425562 0.1560294
0.0016394109 0.042520743 0.15525219
-0.00012329966 0.043087859 0.15125942
-0.003451556 0.042897496 0.15100071
-0.046569496 -0.0026191194 0.14598221
-0.04770698 -0.0053764172 0.14678609
-0.0012704059 0.042951055 0.14707923
-0.0047110803 0.042829044 0.14679781
-0.045118541 0.0028970037 0.14106435
-0.045658849 -0.0015392583 0.14240527
-0.0051954631 0.04274942 0.14211714
-0.0087600779 0.041909412 0.14130005
-0.043964539 0.0027212873 0.13751531
-0.044611372 -0.00059727207 0.13865742
-0.0093138013 0.041506913 0.13693616
-0.013301264 0.040178176 0.13692391
-0.044599675 0.0075155832 0.13420853
-0.044553772 0.0047328286 0.13245127
-0.013194279 0.040387101 0.13225433
-0.016834989 0.039064951 0.13290742
-0.042101681 0.014822001 0.12985492
-0.044524424 0.010545926 0.13014573
-0.045676783 0.0068850629 0.12898105
-0.0142872 0.040057737 0.12859941
-0.018279327 0.03905062 0.1284346
-0.021798953 0.038082778 0.12864766
-0.033564311 0.02736349 0.12549943
-0.038222842 0.021570029 0.12629595
-0.040012017 0.018023038 0.1266585
-0.041836165 0.014689264 0.12581956
-0.043864265 0.011265619 0.12531132
-0.045262493 0.0085283518 0.12570983
-0.019990355 0.039038591 0.12475431
-0.022903187 0.037864503 0.12381345
-0.025801517 0.03679898 0.12243947
-0.030885028 0.032487191 0.12156898
-0.032817461 0.029451331 0.12222576
-0.035885792 0.026384732 0.12181258
-0.037935242 0.022432314 0.12191892
-0.039534613 0.018529847 0.12150103
-0.040579021 0.015458127 0.12179068
-0.023352446 0.037298262 0.12042004
-0.026998935 0.035713624 0.11826259
-0.02977783 0.033474017 0.11774778
-0.032995872 0.03007997 0.11737144
-0.036436416 0.026905099 0.11726463
-0.03830627 0.023616724 0.11673701
-0.038986951 0.019812383 0.11794549
-0.029558346 0.033466198 0.1137687
-0.032469757 0.030692641 0.11362267
-0.035710871 0.027889811 0.1132611
-0.038386915 0.02524808 0.11345226
0.0064969379 0.041332245 0.15243602
0.005632503 0.041839942 0.14847177
0.0023920927 0.042955443 0.14987698
-0.045600593 -0.0076547693 0.14244062
0.00073247217 0.042445928 0.14478061
-0.045185536 -0.0040084738 0.1397118
-0.04496485 -0.0062649343 0.13916835
-0.00036355108 0.042558096 0.14069429
-0.002858568 0.042531565 0.13979316
-0.045179568 -0.0021470096 0.13587916
-0.045520257 -0.0055115744 0.13423109
-0.0037146211 0.042020652 0.1358844
-0.0075867474 0.041560687 0.13445422
-0.044251528 0.002508793 0.13311836
-0.04599838 -0.00045138039 0.13152421
-0.047333427 -0.003377486 0.13080651
-0.0044347998 0.041511022 0.13175935
-0.0079209004 0.041436575 0.1301716
-0.011355982 0.040890045 0.12941986
-0.045509472 0.0048132222 0.1254034
-0.046426304 0.00076803006 0.12670144
-0.047910139 -0.0026002694 0.12587515
-0.0087341871 0.041751787 0.12532678
-0.012391465 0.040509738 0.12568462
-0.015338741 0.039445564 0.12496862
-0.04373559 0.0099644326 0.1219528
-0.044993751 0.0063445792 0.12225926
-0.046007942 0.0022589676 0.1217607
-0.012934174 0.040485293 0.12108862
-0.016787184 0.039019115 0.12123972
-0.040321786 0.017266469 0.11897415
-0.04138831 0.014206587 0.11928129
-0.043358423 0.010672012 0.11835474
-0.044111617 0.0075552426 0.11677295
-0.017367303 0.038441096 0.11656302
-0.021667283 0.037041951 0.11682254
-0.024241345 0.035593428 0.11597025
-0.03826648 0.021112241 0.11549401
-0.039951928 0.01873029 0.11562544
-0.041236967 0.01449839 0.11384499
-0.043741658 0.011511201 0.11356974
-0.0188978 0.03807082 0.11259758
-0.022082478 0.036821038 0.11231369
-0.025587993 0.035482716 0.11256444
-0.029339151 0.033357296 0.11163896
-0.032422908 0.030406337 0.11070156
-0.035660516 0.0270756 0.11018378
-0.038152181 0.022501856 0.11086714
-0.039839275 0.01907913 0.11023349
-0.041541323 0.015576713 0.1091907
-0.043716699 0.0134056 0.10873938
-0.025687609 0.034343757 0.10758698
-0.0285349 0.032787751 0.10691422
-0.03172341 0.030550653 0.10673273
-0.035369895 0.027163409 0.10651684
-0.037714608 0.024037365 0.10589987
-0.032272227 0.030042728 0.10337639
-0.034862053 0.027911054 0.1024971
-0.03751326 0.025321189 0.10232395
0.0051430855 0.040689349 0.14519668
0.0071157161 0.040971648 0.14148724
0.0051606484 0.040539935 0.14082259
0.0023195036 0.041463688 0.13764822
-0.044799007 -0.0083094891 0.13213018
0.00084828585 0.041969277 0.13301259
-0.0016924795 0.041901834 0.13306653
-0.047095023 -0.0061305948 0.12849098
-0.046590276 -0.00820834 0.12740827
0.00080688298 0.0422801 0.12939343
-0.0025925525 0.042054757 0.12894142
-0.048231356 -0.0048230141 0.1246565
-0.04813198 -0.0084307287 0.12426266
-0.0036400519 0.042496581 0.12490776
-0.0073599108 0.042134553 0.12320608
-0.045030542 0.00447491 0.11916727
-0.046562716 0.0013045706 0.12030697
-0.048379965 -0.002551334 0.12078887
-0.0045958962 0.042449884 0.12090409
-0.0079165697 0.042010102 0.11925411
-0.011479539 0.041108239 0.11874366
-0.044942077 0.0054853056 0.11590761
-0.046568438 0.0022512693 0.11570764
-0.048017971 -0.0012124944 0.11623114
-0.0090939924 0.041550428 0.11509955
-0.012132219 0.040535398 0.11446458
-0.015745349 0.039142057 0.11391872
-0.044614203 0.010304855 0.11110395
-0.045296647 0.0070314612 0.11129922
-0.046471208 0.0036110338 0.1116876
-0.012453952 0.040407006 0.11043215
-0.016574506 0.038799372 0.10979581
-0.020432163 0.037235633 0.10969472
-0.042936999 0.014574595 0.10808766
-0.044632047 0.011433791 0.1079703
-0.045462482 0.0079475269 0.10643601
-0.017371155 0.037929598 0.10578018
-0.020811804 0.036624644 0.10495967
-0.024433076 0.035121143 0.10542268
-0.038030956 0.021325443 0.10483909
-0.039330721 0.018795591 0.1039167
-0.041967362 0.015692707 0.1033935
-0.043372769 0.012745882 0.10274559
-0.021700552 0.036484566 0.10081643
-0.024689088 0.035034053 0.1002956
-0.028081365 0.032660238 0.1007039
-0.031530526 0.030656401 0.10083687
-0.035116248 0.028300764 0.099976778
-0.038278453 0.023778493 0.09992522
-0.039899401 0.019614141 0.098924875
-0.042261213 0.016451564 0.098442256
-0.04344001 0.013462499 0.09885329
-0.025727417 0.034366954 0.096530497
-0.027970854 0.03276179 0.096780717
-0.031645689 0.030467112 0.096010625
-0.034786094 0.028159697 0.095758736
-0.037832856 0.025076371 0.095685303
-0.039938562 0.019813411 0.095151544
0.0052036326 0.04092034 0.13530147
0.0076621938 0.042667076 0.13032895
0.0044316985 0.041530002 0.13081089
0.0066342559 0.043247819 0.12618864
0.0033727288 0.041974012 0.12587661
-0.048135936 -0.0083626509 0.12141764
0.0024411343 0.041259099 0.12206426
-0.0010968093 0.04218848 0.12137431
-0.048027992 -0.0042863544 0.11717671
-0.0026860796 0.042004652 0.11722428
-0.047990549 -0.0026879068 0.11284703
-0.0034267958 0.04187974 0.11307943
-0.0065884627 0.04177504 0.11317581
-0.010060729 0.040854272 0.11130464
-0.046359066 0.00097536668 0.10952508
-0.047528356 -0.0023302641 0.10843581
-0.0072726514 0.041589536 0.10851395
-0.011499318 0.040602058 0.10773271
-0.014157544 0.039456569 0.10688305
-0.045349255 0.0052884519 0.1043458
-0.045369685 0.0019077379 0.10475051
-0.046857558 -0.0011973437 0.10487998
-0.0083418563 0.041521162 0.10488206
-0.010856453 0.040549718 0.1031695
-0.015648967 0.038700525 0.1029368
-0.043905925 0.010684961 0.10080647
-0.044079304 0.0070669111 0.099880517
-0.011828194 0.040466018 0.10030508
-0.016267419 0.038491812 0.098085165
-0.020373542 0.037214484 0.098556578
-0.043167815 0.015278355 0.095979035
-0.044022448 0.011938265 0.095961511
-0.0443203 0.0085048992 0.095068097
-0.017406464 0.038676199 0.09449178
-0.020517932 0.037037008 0.093255341
-0.024103053 0.035053782 0.093805015
-0.027792066 0.032746006 0.093704998
-0.030534483 0.030728415 0.092989266
-0.039365385 0.0201957 0.092437029
-0.042011932 0.016180344 0.091952562
-0.043749228 0.012728586 0.091311872
-0.021645261 0.036454383 0.08956784
-0.024380952 0.034736216 0.088717163
-0.027736591 0.032954942 0.088862002
-0.031393338 0.03081527 0.089607537
-0.034071699 0.027732298 0.089113593
-0.03666522 0.024561487 0.088508666
-0.038604692 0.020717241 0.087048948
-0.040318076 0.017869789 0.087461352
-0.028784936 0.032945435 0.084850967
-0.03133104 0.030802058 0.083844006
-0.034117449 0.02805922 0.08340162
-0.036854375 0.025014715 0.08296901
0.0081738569 0.042386137 0.12254736
0.0054440089 0.042113639 0.12289622
0.0037502795 0.041158251 0.11933476
0.0040402692 0.0411148 0.11621958
0.0016785301 0.040666576 0.1143133
-0.0011463165 0.04132795 0.10996389
-0.047545623 -0.0045825634 0.106987
-0.047310442 -0.0068962835 0.1063354
-0.0031312238 0.042089909 0.10618633
-0.0048214775 0.041832477 0.10600549
-0.045414031 5.5152923e-06 0.10156745
-0.046927333 -0.0030994229 0.10204029
-0.0064139664 0.041451652 0.10174906
-0.043661173 0.0046293661 0.098021567
-0.044812582 0.0010690819 0.097565532
-0.046083279 -0.0018867385 0.098080099
-0.0070669036 0.041425571 0.09749645
-0.010502211 0.040611919 0.097082376
-0.014279589 0.039322816 0.096042991
-0.044208519 0.0053660031 0.093889952
-0.044425629 0.0025633685 0.093136668
-0.010954487 0.040446773 0.092512727
-0.014984313 0.039562859 0.092515469
-0.017790066 0.038281403 0.091477752
-0.043990858 0.011393139 0.08889848
-0.044183899 0.0071688835 0.089796066
-0.011965704 0.040426701 0.088450968
-0.015005489 0.039616246 0.087727308
-0.019710705 0.037448436 0.087309778
-0.022976723 0.035396829 0.086329043
-0.041072965 0.01628444 0.085220814
-0.042855401 0.01196438 0.085287452
-0.043718182 0.0081566162 0.085538924
-0.016297635 0.039248273 0.083255351
-0.019625379 0.037848637 0.082586169
-0.024066646 0.035434034 0.082355559
-0.027367838 0.033580914 0.082426429
-0.03009174 0.031850688 0.081564963
-0.038953055 0.021318551 0.081694722
-0.040446848 0.017236996 0.080356002
-0.041784965 0.013286178 0.081881583
-0.020216204 0.037567701 0.079468429
-0.024261959 0.035396807 0.077934682
-0.027224848 0.033042569 0.077618539
-0.030489849 0.030534551 0.076879442
-0.034032535 0.028259015 0.077481985
-0.036844954 0.025271239 0.077134907
-0.038792573 0.021659017 0.076390028
-0.040361248 0.019011114 0.076948106
-0.031399779 0.029706189 0.072835267
-0.034161739 0.027612921 0.073085368
-0.036630854 0.025235567 0.072952569
-0.038158935 0.022883018 0.07224983
0.0071908925 0.040807813 0.11818945
0.0061780047 0.040883183 0.11324751
0.0074685998 0.04317873 0.10874927
0.0049305689 0.041743115 0.10925347
0.001760127 0.041010376 0.10860163
-0.046580154 -0.0076358821 0.10249335
0.0071110874 0.043779779 0.10538876
0.0041342434 0.042208232 0.10474008
0.00068296492 0.041250866 0.10384643
-0.045564219 -0.0055528618 0.097345889
-0.046346389 -0.008502081 0.0985021
-0.00083074532 0.040981047 0.099520266
-0.0038091484 0.041333586 0.099168003
-0.045044035 -0.00088723749 0.094178021
-0.045299575 -0.0043278486 0.094430268
-0.046059929 -0.0080740787 0.095974684
-0.005086679 0.041628763 0.094482839
-0.044969335 0.00059283338 0.090861559
-0.045358986 -0.0030032042 0.08996886
-0.0068239607 0.042000726 0.090441048
-0.0095933937 0.041191991 0.090213597
-0.043934137 0.0049644727 0.086164713
-0.044889882 0.0018158872 0.086221516
-0.0074547641 0.042469595 0.085630357
-0.010580704 0.041400734 0.0860309
-0.01368071 0.040385626 0.085455477
-0.042379215 0.010862589 0.082580864
-0.043587793 0.006948255 0.08234936
-0.044353887 0.0042143166 0.081230819
-0.011329525 0.041669074 0.081180871
-0.014806088 0.040354859 0.081819177
-0.041525461 0.01183173 0.078139842
-0.043314263 0.0082307085 0.077572167
-0.044603005 0.0052744672 0.078084469
-0.012368322 0.04155777 0.077418268
-0.015444829 0.040514287 0.076816976
-0.019612711 0.038460128 0.077300966
-0.023300976 0.035987861 0.07624352
-0.040408086 0.016541317 0.074966967
-0.041400079 0.012737792 0.073504984
-0.042838797 0.0096238442 0.073957741
-0.01629601 0.039921623 0.072630465
-0.019812226 0.03860287 0.07186538
-0.023895172 0.035829775 0.072461784
-0.026988497 0.033081383 0.072457016
-0.030593589 0.031189164 0.07110244
-0.033435531 0.028256983 0.070486367
-0.036250889 0.025452677 0.070341885
-0.038547929 0.020776607 0.070718467
-0.040376261 0.017530842 0.070117295
-0.041462541 0.014416669 0.069365144
-0.024126887 0.035827536 0.06804198
-0.027416935 0.033812657 0.067159534
-0.031451289 0.031821799 0.06651628
-0.033881135 0.028909165 0.065978527
-0.036534406 0.025175158 0.066520512
-0.037775006 0.021219624 0.06627202
-0.028528448 0.033234362 0.062357664
-0.031773191 0.032606579 0.062618852
-0.034607179 0.029337851 0.061836839
-0.036426216 0.026112072 0.061556399
-0.031898275 0.031953115 0.058479488
0.008480506 0.042817995 0.10100144
0.006503541 0.042117141 0.10134345
0.0057825409 0.041407775 0.097838759
0.0030318666 0.040166803 0.096911192
-0.045461565 -0.006590195 0.092629075
0.00099393167 0.040043175 0.092517555
-0.04565499 -0.0054515116 0.089107454
-0.046665549 -0.0082502346 0.088233709
-0.0007578209 0.041082148 0.088224828
-0.0031585079 0.041432224 0.088880539
-0.045620974 -0.0027410798 0.084630609
-0.046527699 -0.0065642446 0.083932579
-0.0012814216 0.041891232 0.084048212
-0.00377924 0.041897655 0.084038317
-0.044356935 0.0018572342 0.079623699
-0.044875711 -0.0022604 0.080657899
-0.046158411 -0.0054849386 0.079741895
-0.0056998283 0.041665666 0.079486549
-0.0084150862 0.041511878 0.077997506
-0.044034272 0.0068077631 0.074759662
-0.044377986 0.0027537048 0.075059891
-0.0065588392 0.041839637 0.075060725
-0.0097114295 0.041468449 0.074506283
-0.012596543 0.040155318 0.07252866
-0.041997686 0.010844132 0.071251571
-0.043007791 0.0078611244 0.070808232
-0.044518061 0.0041641574 0.07079035
-0.010779802 0.040439744 0.070583463
-0.013960769 0.040031794 0.068964362
-0.040848091 0.015878413 0.066963911
-0.041692533 0.012138774 0.066597879
-0.042717732 0.0076641329 0.067100942
-0.014941613 0.03971849 0.064847171
-0.018201819 0.038157646 0.064684451
-0.021795463 0.035892133 0.064321756
-0.037086476 0.01975072 0.062037706
-0.039418146 0.016543936 0.062453985
-0.04111892 0.013090911 0.061893404
-0.019277975 0.037756752 0.060728312
-0.02225486 0.035556283 0.059678853
-0.026119502 0.033456173 0.059660852
-0.029659932 0.032564998 0.059531391
-0.037074406 0.02430995 0.059359848
-0.037006967 0.020525075 0.058207393
-0.026685609 0.033198439 0.055507362
-0.030020237 0.031195626 0.054662704
-0.03340419 0.02869199 0.055031478
-0.035838719 0.025487689 0.054538071
-0.034129281 0.027652605 0.050621629
-0.035160154 0.026720501 0.050612271
0.0068387762 0.041037835 0.094450593
0.0067185573 0.040794641 0.090676129
0.00397541 0.040186897 0.090868056
0.0027338322 0.040565129 0.086211622
-0.046440728 -0.0086782034 0.080441117
0.00095202774 0.041415095 0.080869317
-0.044769451 -0.0032255594 0.077211559
-0.045885086 -0.0074606668 0.076213419
-0.00038115866 0.041513719 0.07716924
-0.0027559996 0.04139863 0.077005982
-0.04520769 -0.0022113286 0.073304594
-0.046729185 -0.0056961868 0.071832836
-0.0040244386 0.041076034 0.071446061
-0.044872344 0.0016853046 0.069692314
-0.045266584 -0.0013109334 0.06819427
-0.0047542583 0.040563475 0.067957342
-0.0084372349 0.040572632 0.068200171
-0.042715915 0.0072283186 0.064581692
-0.044409171 0.0034012515 0.06447947
-0.045326192 0.00024319813 0.064884603
-0.0098051187 0.040737931 0.063430727
-0.013581793 0.040283106 0.063024938
-0.04152102 0.011735738 0.060364425
-0.04305239 0.008238038 0.060896397
-0.044980027 0.0047774389 0.05965656
-0.010681272 0.041065708 0.059689164
-0.013836105 0.040550381 0.059005499
-0.017228596 0.038421068 0.059212804
-0.021445148 0.036218461 0.056894362
-0.037557561 0.01992289 0.055482209
-0.03917392 0.01676851 0.056562543
-0.041551404 0.012672878 0.056684673
-0.043209143 0.0088488199 0.055515707
-0.045176227 0.0055472441 0.056210816
-0.014378942 0.040105008 0.055162609
-0.017661482 0.038210064 0.054425299
-0.021602796 0.036540996 0.054133296
-0.025319286 0.033857204 0.052964687
-0.029003544 0.031279981 0.052001894
-0.036391828 0.023936858 0.051449358
-0.03733281 0.0208099 0.052884758
-0.039672568 0.016937684 0.052030802
-0.041671917 0.01350168 0.051681697
-0.042660423 0.010187894 0.051736295
-0.018782888 0.037956472 0.049190521
-0.021767002 0.036986526 0.049385786
-0.025584027 0.034244314 0.049178064
-0.029536575 0.030984087 0.049026191
-0.032829583 0.028401816 0.04859513
-0.035956923 0.02521769 0.048790395
-0.037416812 0.021108471 0.047979891
-0.039266311 0.017460844 0.048078358
-0.022290843 0.036754288 0.045397699
-0.025573846 0.034098212 0.045599699
-0.028804081 0.031248603 0.044790626
-0.032021713 0.028171863 0.044223487
-0.035395212 0.025224507 0.04447943
-0.03675513 0.022595556 0.044479609
0.0075981673 0.04008276 0.084630609
0.0045286175 0.040271185 0.082519531
0.0055325236 0.039606944 0.078418434
0.0037637409 0.040275216 0.074833274
-0.046616249 -0.0089581292 0.070544481
0.0012570191 0.040418975 0.070308745
-0.0011087563 0.040783159 0.069961369
-0.045166664 -0.0034519713 0.065622568
-0.04643438 -0.005677823 0.065947175
0.00095983967 0.040963169 0.066759408
-0.0027498547 0.040763177 0.065141141
-0.0062978454 0.040342022 0.064654648
-0.044898175 -0.0022348184 0.06117171
-0.046670325 -0.0051559173 0.061253786
-0.0028588157 0.040755656 0.061146259
-0.0066373721 0.040289916 0.060711086
-0.045176785 0.0023611076 0.058067858
-0.044116914 -0.00086976402 0.056144834
-0.0078990888 0.040491439 0.056687891
-0.043490879 0.0069366489 0.051998794
-0.044706527 0.0045959689 0.053165257
-0.044629775 -0.00022999756 0.053815246
-0.0095025366 0.040393859 0.052241623
-0.012681285 0.03993525 0.051280081
-0.016090333 0.038135968 0.050692976
-0.04217089 0.011837433 0.048466384
-0.042786546 0.0083587281 0.048419595
-0.043759748 0.0045609213 0.048383355
-0.013182252 0.039794095 0.046539128
-0.016482156 0.038355108 0.046644509
-0.039148659 0.016547315 0.044524491
-0.040956125 0.012734652 0.0441643
-0.042145781 0.0092000663 0.043752253
-0.014618807 0.040201116 0.041845739
-0.017601926 0.039196972 0.042021155
-0.021422749 0.037322108 0.042558134
-0.024626397 0.034327049 0.042011499
-0.027983887 0.030970713 0.041538417
-0.030638704 0.027542369 0.039919913
-0.034544624 0.024515755 0.040263295
-0.037005872 0.020713512 0.040906429
-0.038839359 0.016823094 0.039504826
-0.041087378 0.013057426 0.039257348
-0.018767644 0.039473038 0.037118137
-0.021571595 0.037507925 0.037101328
-0.024711594 0.034688655 0.037093937
-0.027605467 0.031637415 0.03674823
-0.031136569 0.028228784 0.036562204
-0.034768604 0.024923835 0.036520541
-0.037013065 0.021218445 0.035253823
-0.03880389 0.018516593 0.03496033
-0.025474656 0.034726288 0.032365501
-0.026731484 0.032958928 0.032939017
-0.030710086 0.028993405 0.032636106
-0.034869999 0.026016105 0.031278491
-0.03696543 0.023382768 0.031573176
0.0057653021 0.039835535 0.072294354
0.0070941634 0.040981021 0.066094339
0.004414957 0.040445887 0.068396509
0.0023592878 0.04143339 0.064160466
-0.045714814 -0.0076618418 0.061659515
0.0019170698 0.041218981 0.059451401
-0.001021577 0.040872797 0.058280885
-0.044034705 -0.0038976278 0.055400789
-0.045590013 -0.0055670943 0.056854248
-0.00275217 0.040323377 0.054545343
-0.0062516704 0.040032066 0.054064035
-0.044227719 0.0015145019 0.050653875
-0.044655517 -0.0022451896 0.05135721
-0.0067875888 0.040153638 0.050325811
-0.044107001 0.0023392402 0.046586573
-0.0083646663 0.040205263 0.045627534
-0.011504901 0.040839672 0.04551369
-0.042973366 0.0071767867 0.04298842
-0.04340867 0.0036649313 0.041935503
-0.0088212155 0.04044161 0.041370571
-0.01243155 0.040994056 0.04204011
-0.043192267 0.0091249347 0.038794219
-0.044781819 0.0052518677 0.036687613
-0.013934562 0.040849522 0.036611259
-0.017272364 0.040537044 0.03649354
-0.039923392 0.017171305 0.034177244
-0.041512772 0.013685605 0.034746468
-0.043227337 0.010390181 0.033435583
-0.043648712 0.0077274814 0.032795131
-0.014502067 0.040670007 0.032628477
-0.017589675 0.039826542 0.031595886
-0.021527745 0.037763335 0.031990469
-0.024824636 0.035645805 0.031033456
-0.027860133 0.032185834 0.031356573
-0.031053387 0.029480495 0.030063808
-0.033386543 0.027883293 0.029378772
-0.037557676 0.022008389 0.03041023
-0.039336059 0.018335499 0.029827058
-0.041152135 0.014724979 0.029788613
-0.018660083 0.040015914 0.026447237
-0.022192467 0.038742121 0.026823103
-0.025061438 0.036126606 0.026788831
-0.027797617 0.032127179 0.026410282
-0.030824386 0.029056629 0.025556445
-0.034458734 0.026541241 0.026060522
-0.036829595 0.023087837 0.025539279
-0.038196925 0.019757643 0.026495397
-0.023888193 0.038696695 0.022624671
-0.025710229 0.036107853 0.022747338
-0.02723222 0.033008754 0.022703886
-0.031406265 0.02820814 0.021898925
-0.034305289 0.02611234 0.022285402
-0.036171202 0.023987044 0.021941483
0.0058535356 0.040557489 0.061383426
0.0078130588 0.040947847 0.057316244
0.0048359465 0.040701054 0.056706965
-0.043678217 -0.0054725781 0.051569939
0.0032737721 0.04094106 0.052424848
-3.5213307e-05 0.040519826 0.052024424
-0.042225398 -0.0027182866 0.046346962
-0.042467739 -0.0066898298 0.045757353
0.0024233572 0.041396014 0.047941804
-0.0015387908 0.040513597 0.047816575
-0.0048526246 0.040129282 0.046971798
-0.042452391 -0.0034594256 0.043864191
-0.042982988 -0.0060741939 0.044425547
-0.0016030557 0.041161083 0.043519258
-0.0056236945 0.040362082 0.043016315
-0.043566726 0.0032300837 0.038920343
-0.043164082 -0.00060736947 0.038810074
-0.0034721103 0.04134528 0.038532197
-0.0070567038 0.040889189 0.038432896
-0.04517315 0.00092621148 0.034061968
-0.0075182952 0.041643519 0.034001172
-0.010623701 0.040698804 0.034299195
-0.044325478 0.005838329 0.030480504
-0.046109751 0.0031539407 0.029974759
-0.047329381 -0.00085178204 0.032053411
-0.0081237648 0.042503245 0.030083597
-0.012384832 0.040760946 0.029506445
-0.01569744 0.040106621 0.028763652
-0.040416457 0.013500539 0.026109815
-0.04212983 0.010459108 0.026749372
-0.043678805 0.0063924473 0.025983095
-0.045490462 0.003646791 0.025674284
-0.013071097 0.041159175 0.02504164
-0.016326338 0.040458761 0.025195122
-0.028774975 0.029485576 0.023207486
-0.036544751 0.02127073 0.022260368
-0.037662465 0.018305253 0.022546351
-0.039770972 0.014329039 0.022389829
-0.042165481 0.01040272 0.021844864
-0.044557139 0.007690046 0.021326303
-0.012777443 0.041663807 0.021553576
-0.018043388 0.038923636 0.020922959
-0.021182932 0.03809832 0.020305157
-0.025293611 0.036260754 0.019587219
-0.027528398 0.032173943 0.019519269
-0.029828595 0.029004406 0.019016922
-0.032950547 0.026171826 0.018650115
-0.035552293 0.022456318 0.018206716
-0.037604131 0.017872851 0.01879102
-0.039303809 0.015350013 0.018923879
-0.043492734 0.010129334 0.018525183
-0.025756199 0.034864023 0.01668787
-0.027831256 0.032582253 0.015506625
-0.030083923 0.029250436 0.014282465
-0.032815166 0.025967695 0.013643265
-0.035299949 0.02232399 0.015068412
0.0062672645 0.040930755 0.050945282
0.0081090741 0.041512422 0.045980871
0.0049432479 0.041803624 0.045675874
-0.042516083 -0.004378723 0.041138411
-0.042493887 -0.007809652 0.040340126
0.0036244895 0.04198084 0.040997565
-2.2085384e-05 0.041797001 0.04084605
-0.04296039 -0.0037852749 0.037632227
-0.042636123 -0.0062405299 0.035640299
0.0023276564 0.041768797 0.037176549
-0.00069551542 0.041730851 0.036997139
-0.043370582 -0.0025122929 0.033888042
-0.044745278 -0.0046102256 0.031411111
-0.0025053844 0.042246979 0.032493591
-0.045855902 -0.00030717067 0.029359996
-0.0037841853 0.042905394 0.027656674
-0.0071308855 0.042726859 0.027096212
-0.043901786 0.0051251426 0.023582399
-0.045255903 0.0034549925 0.02323848
-0.0074613318 0.041525133 0.022984803
-0.010012751 0.04087805 0.022293329
-0.044221066 0.0055294633 0.021963179
-0.011694419 0.040770818 0.018701732
-0.037234113 0.01810718 0.016032279
-0.039912459 0.014016316 0.016174674
-0.041787021 0.011143235 0.016340196
-0.044089518 0.0087286737 0.016791403
-0.035065111 0.021800334 0.011770844
-0.036896415 0.0181769 0.011808693
-0.039036319 0.014453237 0.011775076
-0.027246859 0.030615658 0.010125935
-0.02938316 0.028722197 0.010148168
-0.031926762 0.025234843 0.0092173815
-0.033881277 0.02215378 0.0081905723
-0.042897128 -0.0080675241 0.034483671
0.0078180246 0.043616228 0.03494662
0.0046654362 0.042301148 0.035330892
-0.043914415 -0.0068492685 0.031778991
0.0037995651 0.042564426 0.030661583
0.00028565153 0.042244978 0.030340016
0.0017624889 0.043141775 0.025737345
-0.0006382484 0.042908229 0.026628792
0.0017529521 0.043444805 0.021662295
-0.0018333569 0.042929336 0.021532595
-0.0053502303 0.041413408 0.02061218
-0.0031918008 0.042505544 0.017815232
-0.0061376281 0.041413333 0.017189801
