# .PCD v0.7 - Point Cloud Data file format
VERSION 0.7
FIELDS x y z
SIZE 4 4 4
TYPE F F F
COUNT 1 1 1
WIDTH 1341
HEIGHT 1
VIEWPOINT 0 0 0 1 0 0 0
POINTS 1341
DATA ascii
0.043917317 -0.0041415668 0.25483301
0.044176444 0.00013756094 0.25457102
0.04329484 0.0038909276 0.25530913
0.04477312 -0.0024892495 0.25101048
0.044838514 -1.5847023e-05 0.25090173
0.0030627765 -0.0034736712 0.3397246
0.0084604537 0.0096029853 0.32672331
0.0094355019 -0.013755789 0.32399595
0.010026864 0.0094326623 0.32282263
0.011931437 -0.013060939 0.31992853
0.012100236 0.0075875116 0.3186214
0.01265967 -0.01285079 0.31561449
0.012934991 -0.0094581898 0.31470567
0.013811588 -0.005958498 0.31449783
0.013975842 -0.0014708095 0.31397015
0.013345599 0.0029399046 0.31370509
0.012581297 0.007232266 0.31483909
0.01329124 -0.0057485276 0.30971614
0.013838513 -0.0017297879 0.30895358
0.013386829 0.0020119082 0.30888456
0.016534977 -0.0060455995 0.30309933
0.015666911 -0.0020223642 0.30437848
0.015777009 0.0019049247 0.30371371
0.01868289 -0.0099887867 0.2999498
0.019496901 -0.0064462703 0.30111319
0.019882016 -0.0021341674 0.30129123
0.019530876 0.0021266143 0.30091348
0.018113699 0.0057895589 0.29942119
0.02122179 -0.013287298 0.29663166
0.021963665 -0.010317429 0.29790646
0.022495303 -0.0065862881 0.2979587
0.022456579 -0.0023709952 0.2978341
0.021644149 0.0021328137 0.29854634
0.021433098 0.0068936455 0.2971468
0.021295872 0.010718664 0.29544362
0.019380979 0.01383587 0.29421973
0.0228491 -0.019040907 0.29135233
0.023201058 -0.015150778 0.29366541
0.023537023 -0.011657042 0.2956574
0.02415904 -0.0042138183 0.2955316
0.023939252 0.010932091 0.293109
0.022987656 0.014252678 0.29085287
0.024492349 -0.019465888 0.28868103
0.026475141 -0.016276745 0.28958306
0.02496779 0.015929176 0.28675136
0.023935881 0.018618368 0.28547677
0.02674091 -0.022271134 0.28207326
0.027700732 -0.019612212 0.28486755
0.028674245 -0.017088713 0.28525987
0.027900033 0.015718251 0.2827954
0.026795268 0.018833589 0.28197998
0.026043277 0.022122143 0.28000984
0.028642775 -0.022681504 0.27955213
0.030262573 -0.019787347 0.28070647
0.030862467 -0.017240882 0.28169677
0.029981017 0.015757721 0.2794241
0.029792752 0.018617379 0.27806756
0.028333576 0.021745823 0.27703756
0.030932872 -0.023548797 0.2753495
0.032681517 -0.019968467 0.27647272
0.032449365 -0.017377539 0.27859697
0.032202501 0.018816229 0.27353603
0.030270131 0.022169998 0.2724728
0.02925922 0.024659274 0.27091843
0.033005066 -0.023823142 0.27123073
0.034738336 -0.020166893 0.27203247
0.033951148 0.018217476 0.26920766
0.032600388 0.02196336 0.26817775
0.031164866 0.024483684 0.26717246
0.034987554 -0.023915781 0.26704863
0.036697831 -0.020370377 0.26753414
0.037014946 0.015181906 0.2643269
0.03525649 0.01803058 0.26431143
0.03438735 0.022130618 0.26377073
0.032976151 0.024932506 0.26333359
0.037071142 -0.023936179 0.26281551
0.03839922 -0.020586764 0.26287693
0.039459739 -0.017349925 0.262676
0.038128648 0.014721903 0.26055154
0.036830816 0.017838564 0.25956768
0.036012564 0.021579364 0.258838
0.037781853 -0.023274835 0.25938889
0.039043054 -0.020646628 0.2585724
0.040690288 -0.017180469 0.2594108
0.040774636 0.010158303 0.25592485
0.038836293 0.013561126 0.25582299
0.037191052 0.017713632 0.25569913
0.036558867 0.020235118 0.25597632
0.039345402 -0.020347038 0.25525117
0.041425414 -0.016373817 0.25407952
0.042692032 -0.012409292 0.25390905
0.043277111 -0.0084119774 0.25323755
0.043572001 -0.0049191057 0.25203854
0.042370729 0.0048846221 0.25196007
0.040435858 0.008335717 0.25233269
0.039373755 0.011917606 0.25165424
0.041662831 -0.015420706 0.24926463
0.042631492 -0.012536024 0.24860427
0.043294329 -0.0087887896 0.2488009
0.044225845 -0.0046005836 0.24899295
0.044593692 -0.00011676515 0.24828246
0.043413267 0.0042402614 0.24808586
0.041669983 0.0076483926 0.24676448
0.04163279 0.011040718 0.2457068
0.042742763 -0.011442602 0.24529868
0.042941041 -0.0089472216 0.2452752
0.043836646 -0.0046085855 0.24476084
0.044282608 -0.00028477839 0.24395737
0.043341994 0.0038691857 0.24365026
0.04293767 0.0084380498 0.24338856
0.042865481 0.011349823 0.24344194
0.011966127 -0.010965549 0.31173912
0.010704415 0.0068509723 0.31088734
0.0089140283 0.010234847 0.30965948
0.011112777 -0.013422048 0.30855849
0.012276803 -0.0098607941 0.30866575
0.013345293 -0.0063713733 0.30836087
0.012573736 0.0030967018 0.3076902
0.010812163 0.0063436851 0.3069039
0.012543134 -0.012615337 0.30341753
0.014152868 -0.010066777 0.3040942
0.01475731 -0.0064206556 0.30517146
0.014339907 1.2179133e-05 0.30594015
0.014197418 0.0030607621 0.30409065
0.013436028 0.0066379891 0.3025201
0.012688738 0.010948772 0.30102578
0.012478657 0.013995397 0.29986146
0.015149578 -0.014205513 0.29894397
0.016471216 -0.010514357 0.30096129
0.016630821 0.0081410389 0.2990866
0.016002622 0.010932538 0.29818276
0.014788474 0.014321618 0.29710114
0.017342705 -0.022261351 0.29349822
0.017579608 -0.019133136 0.29482368
0.018248014 -0.015263055 0.29657635
0.017952101 0.010814355 0.29603553
0.017171655 0.015130802 0.29375213
0.016450474 0.018202202 0.29116964
0.019682257 -0.02364471 0.29096067
0.020880461 -0.019576665 0.29247129
0.020128267 -0.016751785 0.29412818
0.020242147 0.016379565 0.28999707
0.019762261 0.01926361 0.28848809
0.018481491 0.022758812 0.28660414
0.017870408 0.025509963 0.2854526
0.020542096 -0.027246183 0.28535491
0.022066204 -0.023946254 0.28761226
0.022046737 0.019942615 0.28595343
0.020980442 0.022845188 0.2841107
0.019568935 0.025380183 0.28316996
0.022887725 -0.027895518 0.28231737
0.024501802 -0.024242491 0.28351027
0.023734381 0.02307863 0.28133488
0.022560084 0.026109921 0.27851096
0.025521042 -0.028612614 0.27832928
0.02695794 -0.025072804 0.27933976
0.026868733 0.023645189 0.27608019
0.02508652 0.026188111 0.27490151
0.027827231 -0.028943524 0.27419573
0.028937001 -0.025933893 0.27519831
0.027288588 0.026733901 0.27050841
0.029901728 -0.02877328 0.26992968
0.031235322 -0.026254565 0.27033126
0.029671719 0.027019596 0.26613209
0.031761393 -0.028731687 0.26507401
0.033521995 -0.026368188 0.26544508
0.031955022 0.026698308 0.26138467
0.033399329 -0.028959068 0.26033038
0.035361886 -0.026165765 0.260813
0.033807024 0.025994988 0.25721896
0.034124441 -0.028569896 0.25580192
0.036269035 -0.025496416 0.2567941
0.037802339 -0.022204665 0.25604805
0.037229571 0.017641395 0.25326052
0.036293454 0.021591188 0.25387812
0.03406002 0.025496308 0.252626
0.035305381 -0.028685002 0.25323212
0.036992006 -0.025150741 0.25241596
0.038534045 -0.021289816 0.25182715
0.039729953 -0.018672921 0.25126654
0.039250936 0.0096727377 0.24965146
0.038183518 0.013759984 0.24969316
0.037348814 0.017321922 0.24903381
0.036236592 0.021046674 0.24862894
0.034611173 0.023892727 0.24959242
0.037596602 -0.023907684 0.24774283
0.039215174 -0.021039138 0.24717465
0.041067228 -0.017456152 0.24753585
0.041035499 0.009328275 0.24625689
0.040113177 0.012686946 0.24569947
0.038444333 0.016543461 0.24431181
0.037227172 0.0199032 0.24484354
0.039615102 -0.02031018 0.24381861
0.041667528 -0.017020969 0.24280113
0.042803612 -0.012927029 0.24270707
0.043130025 -0.0090907682 0.24208209
0.043548808 -0.0047545377 0.2412602
0.044054084 -0.00041960893 0.24049526
0.043552484 0.0042280639 0.24059954
0.043370809 0.00832396 0.24035174
0.04238018 0.012377254 0.24047878
0.040098872 0.015377904 0.24029776
0.042349834 -0.01555804 0.23778731
0.043093342 -0.012901718 0.2374883
0.043529801 -0.0093035279 0.23734882
0.044290628 -0.0049142041 0.23758513
0.044559464 -0.0005440315 0.2374981
0.044418149 0.0038177001 0.23714122
0.044598956 0.0081807617 0.23699701
0.043800421 0.011924544 0.23624364
0.042260733 0.014460557 0.23591322
0.043622732 -0.011954134 0.23421726
0.04377028 -0.0092262989 0.2334781
0.044375744 -0.005031053 0.23317999
0.044370737 -0.00071245508 0.23319626
0.044645343 0.0036332679 0.23227659
0.044930987 0.0080088098 0.23220301
0.044132251 0.010963039 0.23261192
0.0075504435 0.008958457 0.30825964
0.0074978722 0.0088446001 0.30505642
0.0094955824 0.0087283868 0.30289799
0.010137881 0.011215022 0.30254233
0.012321405 -0.016189687 0.29899681
0.012050833 0.015993664 0.29658085
0.013437459 -0.019920511 0.29554003
0.013295121 0.019581484 0.29179931
0.016062956 0.023439541 0.28741533
0.020239083 -0.030055232 0.2804907
0.019598108 0.028563388 0.27650374
0.022092106 -0.030128568 0.27828994
0.022550734 0.028768303 0.2732887
0.023630673 -0.032977819 0.27199703
0.022984384 0.030507518 0.26771232
0.025150847 -0.033217512 0.26715404
0.027429396 -0.030599229 0.26752207
0.02519759 0.030300515 0.2632798
0.026939956 -0.033439923 0.26246133
0.027846133 -0.030860525 0.26284754
0.027081011 0.030614909 0.25839439
0.028385896 -0.036209904 0.25770813
0.029294986 -0.033623133 0.25810567
0.029655935 -0.031080211 0.2581704
0.029665587 0.030148698 0.25419489
0.029994864 -0.032965302 0.25461993
0.03166616 -0.03061066 0.25440192
0.032485742 0.027773431 0.25051692
0.030909622 0.029611442 0.2505888
0.033795528 -0.029550234 0.24984181
0.035643645 -0.026650427 0.24900052
0.035350952 0.022515332 0.24598911
0.03311532 0.025440525 0.24606401
0.031297345 0.028136391 0.24559182
0.034667373 -0.029198848 0.244524
0.035883412 -0.026158676 0.2449646
0.037663579 -0.022784147 0.24521646
0.037824102 0.018547388 0.24197528
0.036028199 0.021288319 0.24211743
0.033867411 0.024027158 0.24119717
0.036307044 -0.025599455 0.24032462
0.037691168 -0.021918487 0.23992905
0.039838314 -0.018676028 0.23884469
0.03836821 0.017426087 0.23756126
0.036421537 0.020728445 0.23708454
0.034788813 0.023592828 0.23804003
0.038530726 -0.021684289 0.23504245
0.040240187 -0.017956479 0.23553452
0.041874595 -0.014445108 0.23488861
0.03924169 0.016833009 0.23315144
0.037494525 0.019575262 0.23331079
0.039500203 -0.020922653 0.23201647
0.040732794 -0.018472139 0.23015058
0.041473184 -0.014168036 0.23021692
0.042627811 -0.0098330751 0.22956926
0.043133397 -0.0053539523 0.22915649
0.043113727 -0.00086499617 0.2289933
0.043351088 0.0034997084 0.22804621
0.043144379 0.0078925136 0.22764212
0.042069811 0.011921639 0.22908998
0.0398283 0.014332278 0.22925907
0.041804194 -0.013591269 0.22633636
0.041956954 -0.0098043373 0.22621164
0.042676397 -0.0054484475 0.22473752
0.042827472 -0.0010369561 0.22457489
0.042969193 0.0023912743 0.22470677
0.041919097 0.007066098 0.22482985
0.043806095 -0.0053261532 0.2213676
0.044359956 -0.0012145997 0.22052664
0.043640103 0.0019913698 0.22154453
0.04512845 -0.0025978931 0.21772641
0.022137061 0.032304518 0.2613439
0.023608597 0.032177258 0.25891948
0.023820825 0.033380143 0.25648856
0.026655745 -0.038015842 0.25694561
0.026833124 0.031894609 0.25342351
0.026405759 0.033156097 0.25225553
0.026684558 -0.037517942 0.25299081
0.029237358 -0.034380957 0.25256932
0.028175915 0.031397097 0.24803579
0.028962955 -0.033790503 0.24845713
0.031414747 -0.031372629 0.24795091
0.029973915 0.030033316 0.24357912
0.031379495 -0.030966481 0.24294999
0.032948203 0.025735551 0.23975036
0.031319976 0.02847093 0.23911899
0.033696823 -0.029840566 0.2393122
0.035956368 -0.027426822 0.23796189
0.035793595 0.022199662 0.23456785
0.034338459 0.024913449 0.23491165
0.032795854 0.027397366 0.23483416
0.037285566 -0.025912615 0.23423475
0.038482495 -0.023365064 0.23402649
0.038098659 0.016319089 0.23052797
0.036561832 0.02096222 0.2307111
0.034417901 0.023839762 0.23046654
0.037237849 -0.025218856 0.2294952
0.039277859 -0.022453895 0.2300534
0.037958726 0.016595485 0.22685668
0.036241803 0.020273233 0.22622561
0.039309178 -0.022098323 0.22572786
0.040554695 -0.018778855 0.22409597
0.041755456 -0.014542216 0.22409058
0.042292461 -0.009908516 0.22389424
0.042166013 0.0039636698 0.22297341
0.042035528 0.0072018099 0.22256806
0.040384617 0.011702109 0.2227675
0.03802187 0.014151908 0.22153512
0.040180769 -0.01769796 0.22035673
0.041218504 -0.014058046 0.21951646
0.042620454 -0.010090524 0.21986213
0.0442729 -0.0060624834 0.21939287
0.043722052 0.0027207437 0.21936384
0.04271308 0.0069703064 0.21890089
0.041515999 0.011042446 0.21807724
0.043869853 -0.009885353 0.21500143
0.044543624 -0.0058719059 0.21494275
0.044839792 -0.0013382846 0.21464348
0.044009738 0.0023374001 0.21407795
0.043435439 0.0064390693 0.21389541
0.041943669 0.01062177 0.21386206
0.044534989 -0.0092230579 0.21083581
0.044172559 -0.0066967588 0.21042877
0.044182319 -0.0016246104 0.21013224
0.043932591 0.0021762664 0.20972851
0.025789008 -0.038024116 0.24597338
0.028287498 -0.03485189 0.24529371
0.024877308 0.033444207 0.24123582
0.028269362 -0.034527823 0.24096721
0.030025467 -0.032081515 0.24088532
0.028692942 0.030168558 0.23624891
0.027305039 0.031510383 0.23612443
0.029150505 -0.034155108 0.23654553
0.031481013 -0.031522766 0.23607138
0.029614599 0.029172556 0.23153254
0.032211747 -0.030925818 0.23143619
0.033998713 -0.028642647 0.2322323
0.033154506 0.025100986 0.22785819
0.031060847 0.028213246 0.22710076
0.033151541 -0.030259451 0.2266432
0.034674272 -0.027786681 0.22729832
0.034786362 0.02152789 0.22347096
0.033164926 0.024411451 0.22356576
0.03170279 0.027835416 0.22388399
0.036095843 -0.025993729 0.22321868
0.037994385 -0.02316202 0.22204933
0.037234783 0.015841544 0.22051898
0.035516329 0.01977719 0.21938348
0.037563905 -0.022454903 0.21781346
0.039014492 -0.01927707 0.21771613
0.040332966 -0.016138947 0.2175056
0.039729085 0.012647167 0.2156468
0.038033161 0.015232698 0.21518266
0.037000485 0.018711222 0.21450964
0.039523549 -0.01917286 0.21331644
0.041263308 -0.01481264 0.21405137
0.042443275 -0.011672333 0.21296236
0.04251286 0.0079697547 0.2109724
0.041342854 0.011717312 0.21182716
0.038503442 0.014664928 0.21093753
0.037535395 0.017687261 0.21123761
0.040239625 -0.018205922 0.21007773
0.041568823 -0.014774964 0.20941946
0.043375254 -0.010774676 0.20816046
0.043941889 -0.0059541557 0.20791426
0.043638367 -0.0017104157 0.2078054
0.043327536 0.0020970742 0.20735708
0.042611923 0.0067082066 0.20705739
0.041686025 0.011035763 0.20674369
0.042805705 -0.010480571 0.20404467
0.043934021 -0.0063622827 0.20330039
0.044004731 -0.0019018854 0.20308572
0.043831434 0.0019164993 0.2027334
0.042931285 0.0061796103 0.2024138
0.042214651 0.010560909 0.20236582
0.044007029 -0.0033163484 0.19968158
0.043675203 0.0017845873 0.19913745
0.026775448 -0.03618668 0.2382009
0.023898685 0.033563312 0.23382217
0.025752427 -0.038074199 0.23423922
0.028106641 -0.035667498 0.23391336
0.026082156 0.032715231 0.22930658
0.025011521 0.035289347 0.22674096
0.028342266 -0.034947522 0.22945595
0.030154264 -0.032768507 0.22909006
0.029864276 0.029869417 0.22511154
0.02786345 0.032161254 0.22475439
0.026283706 0.035184473 0.22500429
0.028557047 -0.034313962 0.22554535
0.031029124 -0.032319233 0.22534931
0.032313056 0.025822919 0.22098196
0.03026206 0.028656732 0.22066477
0.028226238 0.031155607 0.22137067
0.031782798 -0.030918499 0.22025001
0.033741016 -0.028325811 0.22023207
0.034751877 0.02175805 0.21599025
0.032395773 0.024440052 0.2168133
0.030143328 0.02754293 0.21711957
0.034002647 -0.026999401 0.21568936
0.036032028 -0.023767285 0.21528283
0.035532221 0.021130551 0.21276093
0.033956919 0.023607854 0.21187332
0.03446281 -0.025916582 0.21172029
0.037027258 -0.023302332 0.21160644
0.038300361 -0.020765441 0.21060699
0.037981663 0.01589554 0.20876616
0.036604185 0.019086789 0.20855308
0.035113335 0.022046227 0.2079019
0.03786901 -0.022689594 0.20664254
0.039389286 -0.019781867 0.20672366
0.040252805 -0.015662001 0.20529372
0.039150085 0.014884461 0.20472005
0.037167344 0.01850803 0.20345029
0.039858088 -0.019729137 0.2016727
0.040668625 -0.01541265 0.20149633
0.042363524 -0.011175051 0.20141169
0.042448182 0.0069486573 0.19969276
0.042126723 0.011059954 0.19991511
0.040258527 0.014536304 0.19963413
0.041151218 -0.014454065 0.19722173
0.04232398 -0.01110921 0.19717103
0.043080211 -0.0072446465 0.19749033
0.043960437 -0.0025588288 0.19726712
0.043276854 0.001706923 0.19688058
0.042361226 0.0055472539 0.19620594
0.041993074 0.010029456 0.19567147
0.041035805 0.013908919 0.19562525
0.042883568 -0.010782281 0.1929802
0.043635607 -0.0074544093 0.19262928
0.044301152 -0.002987931 0.19197088
0.043542318 0.0013798419 0.19168216
0.042269878 0.0050870394 0.19220498
0.042114053 0.0097005274 0.19225791
0.026752507 -0.036452133 0.22677708
0.026074646 0.033861432 0.22236505
0.024243386 0.035903949 0.22275871
0.026864497 -0.035810523 0.22306719
0.026287027 0.032268059 0.21828315
0.028865987 -0.032916311 0.21839607
0.028841102 0.028833466 0.21442828
0.027322154 0.031064466 0.21471334
0.030726928 -0.031957775 0.21423545
0.033113379 -0.028693179 0.21339107
0.031209162 0.025608679 0.20986077
0.029697826 0.02750642 0.21080062
0.031094927 -0.031280767 0.20970377
0.033573441 -0.02818073 0.20933276
0.032780785 0.024152601 0.2058025
0.03422565 -0.027721286 0.20505279
0.036392417 -0.024436451 0.20494512
0.036760673 0.019998182 0.20097253
0.034242 0.022282539 0.2022683
0.037238464 -0.023736604 0.2001915
0.039686833 -0.020676116 0.1993489
0.039217114 0.015932577 0.19682783
0.037031345 0.018433636 0.19708508
0.034636617 0.021307107 0.1985051
0.037108541 -0.022830376 0.19585007
0.039031558 -0.020070136 0.19553128
0.040753994 -0.016509941 0.1958476
0.040126562 0.015027015 0.19331217
0.038675718 0.017125316 0.19283807
0.039210372 -0.019162411 0.19095716
0.041224837 -0.015709652 0.19150719
0.042987432 -0.011617215 0.19063151
0.043753523 -0.0076014758 0.18919006
0.043609962 0.0013899273 0.18855023
0.041860446 0.0055798506 0.18948689
0.041452441 0.0099120447 0.18940037
0.040118285 0.014221125 0.18897372
0.038843904 0.016997559 0.18853921
0.041487694 -0.015279716 0.18669182
0.04232296 -0.011623993 0.18569708
0.042697139 -0.0077815768 0.18485817
0.04392457 -0.0032436096 0.18550786
0.043834753 0.0014026088 0.18552199
0.042161722 0.0051436774 0.18458402
0.041381478 0.0092475563 0.18435264
0.043219022 -0.0029924063 0.18080243
0.043455262 0.0010895646 0.18044132
0.042663116 0.0043435856 0.18054575
0.025435722 -0.036683131 0.22013763
0.02529119 -0.036080826 0.21673325
0.024520293 0.032660205 0.21156058
0.026225569 -0.03548158 0.21150714
0.02895003 -0.033514924 0.2114208
0.027526667 0.028860293 0.20713028
0.025562676 0.032010552 0.20715138
0.025159732 0.037508424 0.20674074
0.03010435 -0.03274421 0.20734745
0.028353401 0.027194714 0.20275328
0.03066271 -0.032009654 0.20284453
0.03246275 -0.029928815 0.20237452
0.032080088 0.023581581 0.1989041
0.02960239 0.025924727 0.19818899
0.031459145 -0.030557806 0.19934124
0.033655286 -0.027692044 0.19843271
0.035402808 -0.025371317 0.19742525
0.035261698 0.019862944 0.19374186
0.033313446 0.022674164 0.19458687
0.031869702 0.025448216 0.19345167
0.034929872 -0.024119383 0.19257095
0.037580252 -0.021694401 0.19257906
0.035777144 0.019111354 0.19061273
0.034152441 0.022385681 0.18923736
0.032511696 0.025501903 0.18964314
0.035652895 -0.023228295 0.18858624
0.038230725 -0.020930456 0.18919796
0.039597325 -0.017982537 0.18850458
0.039169855 0.015625026 0.18619376
0.037039571 0.018658968 0.18596956
0.035106439 0.021994727 0.18567631
0.038964324 -0.020780576 0.18462873
0.040591583 -0.016741551 0.18381548
0.041640453 -0.012414571 0.18255672
0.041138597 0.01089435 0.18169424
0.039102469 0.014227196 0.18265617
0.037500042 0.017968925 0.18175334
0.039565034 -0.020093359 0.18085331
0.040796451 -0.016412918 0.17922103
0.041860241 -0.011921076 0.17910653
0.042259559 -0.0080219759 0.17917883
0.043017063 -0.0039540213 0.17831764
0.043607049 0.00099115632 0.17787585
0.042706031 0.005093921 0.17823046
0.04211349 0.0090717785 0.17823815
0.039669003 0.013334952 0.17755634
0.038115621 0.016730387 0.17818418
0.040962849 -0.014714764 0.17498857
0.041647963 -0.011861998 0.17462093
0.042657442 -0.0082407137 0.17409667
0.043631315 -0.0036784881 0.17457402
0.044176035 0.0008640532 0.17472398
0.043710761 0.0047442117 0.17413801
0.042684421 0.0084615927 0.17364755
0.041796073 0.011284448 0.17409027
0.042836104 -0.007088671 0.17055082
0.044027261 -0.0032058926 0.17020825
0.044173326 0.00069557218 0.17022115
0.043503694 0.0043315189 0.16966996
0.024827654 -0.036982562 0.21010947
0.02505229 0.033130247 0.20399749
0.026295358 -0.035912607 0.20532215
0.027960116 -0.034293417 0.20417756
0.02691594 0.029048938 0.20024103
0.025293332 0.032013655 0.2003305
0.027575051 -0.034026656 0.19998845
0.027768627 0.02773663 0.19678614
0.025881272 0.030577855 0.19550595
0.029468998 -0.03209411 0.19623524
0.03193479 -0.029424533 0.19606215
0.029359663 0.027378233 0.19296211
0.027291603 0.02960154 0.19144154
0.030018622 -0.031420924 0.19242245
0.031492557 -0.028554147 0.19069257
0.032957859 -0.025793605 0.19034305
0.031104784 0.026865512 0.18697876
0.028451748 0.029147571 0.18827882
0.0324581 -0.028677471 0.18566465
0.034499288 -0.025026334 0.186694
0.03471591 0.022528162 0.1829409
0.033110619 0.025412332 0.18329
0.033680625 -0.027537996 0.18199635
0.035192166 -0.024884209 0.18206173
0.036871023 0.01875161 0.17893016
0.034854107 0.021731419 0.17930371
0.033454094 0.024786627 0.17962673
0.035910949 -0.024659043 0.17777187
0.038419809 -0.021314939 0.17783195
0.039842863 -0.017930754 0.17613146
0.039272036 0.014239904 0.17451945
0.037255425 0.01797922 0.17505851
0.03533338 0.020980101 0.17448595
0.038076181 -0.021085924 0.17352405
0.039831419 -0.016987093 0.17228082
0.041321244 -0.01256796 0.17197019
0.041417446 0.009221999 0.1703077
0.039121628 0.013200095 0.17012164
0.037094645 0.017873613 0.17102045
0.039952092 -0.015048577 0.16788012
0.040600777 -0.012451179 0.16731831
0.041993074 -0.008663211 0.16794753
0.042971697 -0.0048632007 0.16762182
0.043665342 0.00058786233 0.16711462
0.042281065 0.0048238272 0.16624212
0.040851779 0.0082976455 0.16651875
0.039605703 0.011097342 0.16607291
0.041498933 -0.012276478 0.16390121
0.042325258 -0.0087138424 0.16296774
0.042979822 -0.0045105908 0.16341701
0.042614579 -4.2284439e-05 0.16251943
0.041609697 0.0041262037 0.1627498
0.040844832 0.0070246756 0.16271275
0.042757019 -0.0075480728 0.1595771
0.04321146 -0.004920715 0.15978274
0.0430304 -0.0016542634 0.15944797
0.023538452 0.03351355 0.19701934
0.025056943 -0.037179746 0.19853306
0.024242518 0.03276151 0.19399768
0.026162678 -0.036910728 0.19415849
0.027019197 -0.034578115 0.19418401
0.026276195 0.031388033 0.18980467
0.024117554 0.035018913 0.1880433
0.026561176 -0.037147939 0.18996716
0.028345792 -0.033435524 0.18941945
0.027379528 0.03045805 0.18563229
0.025265181 0.033857383 0.18570074
0.029905612 -0.033385072 0.18496969
0.030197585 0.02724627 0.18022698
0.027663076 0.029358689 0.18094844
0.032217674 -0.032271061 0.18028378
0.03346692 -0.029298633 0.18078053
0.032971092 0.023427026 0.17663985
0.031314153 0.025897561 0.17616314
0.032824058 -0.03309121 0.1771583
0.034095425 -0.028697319 0.17664292
0.035458907 -0.026089026 0.17570308
0.033744387 0.022763794 0.17236698
0.032029457 0.024654126 0.17132401
0.035552043 -0.025257027 0.17170745
0.037612338 -0.021947337 0.17043114
0.037977986 0.015116874 0.1673134
0.037079215 0.017971352 0.16775545
0.03524806 0.02167381 0.16811317
0.03601604 -0.024751933 0.16754264
0.036897182 -0.021321185 0.16557801
0.038844977 -0.017504733 0.16607058
0.039904017 0.0097016506 0.16364926
0.03820508 0.012753762 0.16371536
0.036737628 0.016795056 0.16321129
0.03547091 0.021034958 0.16411987
0.039446048 -0.016808102 0.16159126
0.041494593 -0.012976431 0.16146696
0.041373357 0.0046270839 0.16006371
0.040618248 0.008429083 0.16039258
0.039070949 0.01205688 0.15942341
0.04035376 -0.015966823 0.15755436
0.04180675 -0.012901343 0.15729749
0.04254004 -0.0091152955 0.15742883
0.043186683 -0.0050321128 0.15701503
0.042802844 -0.0001705052 0.15697652
0.04192441 0.0041584093 0.15639174
0.041313939 0.0080922265 0.15567631
0.040411387 0.011064159 0.15524751
0.041567191 -0.012416991 0.15338725
0.042244129 -0.0088759009 0.15298212
0.043141469 -0.0052191396 0.15237796
0.042924795 -0.00062549248 0.15193582
0.042252507 0.0039666491 0.1511277
0.041980762 0.0079104304 0.15067875
0.041312356 0.01060127 0.15183699
0.042831048 0.0012080672 0.14804745
0.042775054 0.0051567755 0.14777169
0.025267377 0.031814359 0.18221748
0.023391875 0.034557451 0.18219885
0.025554301 -0.036885764 0.18379796
0.028420586 -0.035620004 0.18129221
0.025403686 0.030667936 0.1780394
0.022940703 0.033192139 0.17862824
0.028702294 -0.035020009 0.17782772
0.028830118 0.027486693 0.1733084
0.026825154 0.029573716 0.1735127
0.030693209 -0.032868348 0.1743269
0.031446014 -0.030043082 0.17320666
0.029992511 0.026689241 0.16966748
0.028163908 0.028728945 0.16816804
0.032236423 -0.02856884 0.16960305
0.034404926 -0.02691048 0.16887313
0.031464458 0.025701022 0.16558167
0.03269342 -0.028837785 0.16445529
0.034999356 -0.02599477 0.16455835
0.036158171 -0.022767991 0.16325378
0.035904408 0.017616522 0.1600689
0.033545647 0.022138136 0.16103745
0.032286592 0.024923576 0.16088247
0.033677254 -0.02866929 0.16105571
0.03522047 -0.025886301 0.15978506
0.036176819 -0.022104159 0.15892661
0.037490334 -0.019019175 0.15854752
0.03774517 0.013482943 0.15622598
0.03633954 0.016189225 0.15680596
0.034539137 0.020062003 0.15619406
0.03276699 0.02428511 0.1572333
0.036910262 -0.021872241 0.15455285
0.038569298 -0.018172083 0.15462384
0.03849256 0.012828075 0.15278816
0.037091017 0.016021837 0.151858
0.036260657 0.019218368 0.1513828
0.039343972 -0.017185448 0.15049121
0.041074939 -0.013388053 0.15066475
0.041688018 -0.0095913587 0.15007538
0.039696693 0.012029371 0.14836991
0.038283043 0.015674446 0.14778507
0.037356429 0.018560043 0.14820391
0.040407404 -0.01605591 0.14615747
0.041280627 -0.013418937 0.14577824
0.041770168 -0.0094378358 0.14594477
0.04219687 -0.0054650963 0.14606011
0.042397141 -0.001029925 0.14579499
0.042819247 0.003753993 0.14540786
0.042930007 0.0076978207 0.14495724
0.041045614 0.011322985 0.14441246
0.041426029 -0.012918451 0.14212754
0.042138729 -0.0093525192 0.14175475
0.042449865 -0.0055101113 0.14089629
0.042443786 -0.0015531281 0.14084333
0.042803254 0.0029535275 0.1397782
0.042998008 0.0075141978 0.13941881
0.042295933 0.010189685 0.13962126
0.022376059 0.031818565 0.17465129
0.026662385 -0.035961349 0.17636421
0.024364827 0.031373836 0.1710293
0.027279908 -0.033685364 0.16935366
0.029030699 -0.030911213 0.17051548
0.025829569 0.030801315 0.16628456
0.023461051 0.034044977 0.16676554
0.027525444 -0.032852799 0.16626364
0.02959146 -0.030568158 0.16687489
0.029990979 0.027184455 0.16230008
0.027377894 0.02980582 0.16222137
0.025646105 0.035372574 0.16126561
0.02861294 -0.03273122 0.16199908
0.030671956 -0.030803174 0.16217831
0.031042404 0.026727628 0.15898556
0.028736623 0.02881394 0.15800545
0.031895757 -0.029988928 0.15788925
0.034550175 -0.02687504 0.15700388
0.033046246 0.02256663 0.15523776
0.032105532 0.025746757 0.15454665
0.029177273 0.028376825 0.15419689
0.032907333 -0.029016966 0.154906
0.034538832 -0.026210763 0.15336901
0.036263261 -0.023324406 0.1522643
0.034498163 0.021720057 0.15039617
0.033037968 0.024678063 0.14937514
0.034494486 -0.025939198 0.14945114
0.036344904 -0.022476753 0.14815718
0.037975535 -0.019299166 0.14811614
0.038207378 0.016458809 0.1452809
0.036740489 0.020007653 0.14552584
0.034672227 0.02309075 0.14429122
0.036778603 -0.021962386 0.14386922
0.038847584 -0.018564247 0.14391163
0.039910965 0.012993756 0.14218983
0.038595457 0.01568662 0.14189732
0.036962986 0.019270027 0.14098707
0.038906083 -0.017717242 0.13926369
0.040739231 -0.013904366 0.1392042
0.041900754 -0.010063857 0.13906661
0.042473264 -0.0070849177 0.13889658
0.042332463 -0.00046400435 0.13839543
0.040234923 0.012187877 0.13780856
0.038611192 0.015015388 0.13706267
0.040361423 -0.013249896 0.13467625
0.041164551 -0.0099357562 0.13420436
0.042077933 -0.0059223063 0.1347318
0.042537536 -0.0019282094 0.1348832
0.042501058 0.0026489308 0.13441578
0.042499729 0.0073589967 0.13431308
0.040922694 0.011175605 0.13332039
0.042026944 -0.0057617887 0.13042301
0.042370167 -0.0021111856 0.13002518
0.042140722 0.0022643195 0.12971461
0.042013459 0.00738056 0.1287688
0.041927371 0.0098663829 0.12895954
0.023939045 0.034411065 0.16403109
0.025876064 -0.034438372 0.16463602
0.026381133 0.031295087 0.15929091
0.025281377 0.033653982 0.15989804
0.025115438 0.037483457 0.16034043
0.026476011 -0.038393792 0.15788832
0.026968872 -0.033925842 0.15940669
0.026957169 0.030658375 0.15568721
0.025224717 0.03395604 0.15545723
0.026229806 0.037030414 0.15636063
0.028482813 -0.03310588 0.15540168
0.030109663 -0.031710953 0.15566111
0.028192008 0.029868335 0.15124354
0.030411756 -0.030324038 0.15151712
0.03263104 -0.027901128 0.15088788
0.031161902 0.026796173 0.1474528
0.029045768 0.029558655 0.14655143
0.030458657 -0.029473031 0.14737386
0.033524904 -0.026959015 0.14672548
0.035042372 -0.024149708 0.14509779
0.03298039 0.025615076 0.14334926
0.030493343 0.028594401 0.14249814
0.034070596 -0.026832303 0.14211303
0.035679359 -0.02344829 0.14117885
0.03635139 0.020563988 0.13853347
0.034531269 0.024026502 0.13848305
0.032674108 0.026832674 0.13737783
0.036124043 -0.022754369 0.13709056
0.038144231 -0.019443564 0.13679507
0.037784204 0.016176369 0.13461602
0.036951542 0.019549886 0.13467878
0.035387073 0.02343162 0.13340273
0.038483925 -0.018885208 0.13266531
0.039944634 -0.014906581 0.13253033
0.040417518 0.011958679 0.13041908
0.038781881 0.015363934 0.13075393
0.03745212 0.019392435 0.12941253
0.036325999 0.022116294 0.12926954
0.038671274 -0.018882127 0.12884206
0.040066686 -0.01470493 0.12803766
0.041295342 -0.010173716 0.12863702
0.041983366 -0.0064659421 0.12786165
0.042579379 -0.0022160728 0.12735859
0.042390194 0.0028906888 0.12690318
0.042448997 0.0064447564 0.12674731
0.040531907 0.011549667 0.1264652
0.039568357 0.015192858 0.12571409
0.038166761 0.018369945 0.12562385
0.040900774 -0.013025563 0.12465394
0.041588135 -0.010230735 0.12340134
0.042764682 -0.00624617 0.12355286
0.043168597 -0.0023869071 0.12310067
0.0432133 0.0022344033 0.1226812
0.043144941 0.006955998 0.12254113
0.041674633 0.010693149 0.12181598
0.040381499 0.013736609 0.1226663
0.042903442 -0.0063087135 0.11869305
0.043745298 -0.0026321504 0.11690116
0.044259872 0.0016642169 0.11729115
0.044184465 0.0062037152 0.11677176
0.043628201 0.0094438717 0.11706585
0.043646641 -0.0053878808 0.115049
0.04432404 -0.0020974921 0.11352026
0.044415493 0.0012543387 0.11340737
0.04419218 0.0039320276 0.11305881
0.023985639 0.033957891 0.15169936
0.024759704 -0.035382621 0.15262598
0.02372166 0.033904839 0.14797848
0.026999323 -0.033471383 0.14956862
0.028040377 -0.031730592 0.14809293
0.026029943 0.032353081 0.1440019
0.028979916 -0.030790251 0.14438307
0.029535616 0.03031666 0.14125383
0.027666653 0.031833574 0.13919529
0.02999139 -0.030428752 0.1398696
0.032328591 -0.028519735 0.13937831
0.030193549 0.02861103 0.13620913
0.028015237 0.030744908 0.1362209
0.03047194 -0.030084217 0.13605505
0.032578416 -0.027361229 0.13571408
0.03465838 -0.024028357 0.134377
0.034728374 0.024904786 0.13063842
0.032403894 0.027198678 0.13201466
0.032876935 -0.026243759 0.13112569
0.035191707 -0.023683822 0.13041314
0.035134997 0.023841182 0.12695199
0.032811437 0.026260898 0.12706357
0.03642961 -0.023608658 0.12555668
0.038026571 -0.019891605 0.12589973
0.038644809 -0.017050095 0.12488979
0.03732935 0.019676436 0.12292981
0.03581439 0.022443984 0.12341157
0.036974788 -0.023084514 0.12126052
0.038136467 -0.019944202 0.1207822
0.03916306 -0.015381308 0.12121838
0.040793795 -0.011856558 0.12066144
0.040405259 0.012284056 0.11893588
0.039053679 0.015197944 0.11929351
0.03722012 0.018299859 0.11817825
0.038451485 -0.018764021 0.11712533
0.039407525 -0.014897932 0.11622018
0.041074738 -0.010670427 0.11698329
0.042402096 -0.0075510233 0.11666495
0.041037235 0.011494139 0.11567396
0.039355006 0.014693143 0.11459208
0.04064732 -0.013586642 0.11194587
0.041771855 -0.010715953 0.11203212
0.042989884 -0.0070013171 0.11239606
0.043944445 -0.0031656243 0.11180091
0.043905921 0.0011793452 0.11103415
0.043221168 0.0062503219 0.11135238
0.041505322 0.010215955 0.11100107
0.042087231 -0.0097002601 0.10812354
0.042512197 -0.0067537143 0.10754949
0.042971492 -0.0028010083 0.10711473
0.043065701 0.00060410879 0.10709512
0.042523742 0.0048382138 0.10689437
0.041968141 0.0085011385 0.10697448
0.023051465 0.033893146 0.14533603
0.024205226 -0.035069898 0.1465089
0.023676291 0.034142289 0.1425063
0.024756741 -0.03431182 0.14168185
0.026771719 -0.03256055 0.1417684
0.023675678 0.033691216 0.13636315
0.028251633 -0.0320484 0.13817769
0.028643589 0.029297194 0.13300982
0.026103051 0.031906635 0.13270253
0.029432928 -0.030931128 0.13334584
0.030997092 -0.028905418 0.13259801
0.029130628 0.029200772 0.12959504
0.02673636 0.031117354 0.12880015
0.0273243 0.037716132 0.12714025
0.026520353 0.038794931 0.12785751
0.030255269 -0.030510698 0.12824079
0.031623349 -0.028119517 0.1289638
0.029868873 0.028252656 0.12489155
0.032996383 -0.027757062 0.12483561
0.035909772 -0.025262119 0.12305212
0.033539671 0.023706848 0.12014449
0.029921496 0.026263133 0.12081659
0.034438796 -0.027111758 0.12046671
0.036728997 -0.024544397 0.11920547
0.036416583 0.020111324 0.1165216
0.034575053 0.022551268 0.11626178
0.035043392 -0.026961876 0.1166147
0.036521263 -0.023880223 0.11446744
0.037870698 -0.020414567 0.1145404
0.038990788 -0.017091256 0.11426669
0.038655791 0.015497589 0.11145455
0.037369914 0.018944476 0.11208349
0.035500545 0.022257786 0.111449
0.037670374 -0.020113992 0.11021835
0.039521355 -0.016115246 0.10994297
0.041350722 -0.012339637 0.10957456
0.040616002 0.011507085 0.10821015
0.039003916 0.014709613 0.10791546
0.037593432 0.018408498 0.10675216
0.039559979 -0.014322375 0.10551661
0.041208796 -0.011341301 0.1052494
0.042717066 -0.0074617011 0.10513991
0.043204207 -0.0037585171 0.10487115
0.042827982 0.0018797099 0.10486537
0.04277781 0.0053580655 0.10445911
0.041253552 0.010050568 0.10391688
0.039080042 0.013243243 0.10416538
0.041250486 -0.010450548 0.10091192
0.042271513 -0.0073134322 0.10033184
0.042449407 -0.0032478021 0.10025781
0.04256589 0.00081404112 0.10012913
0.042651568 0.0048726671 0.099973738
0.041893192 0.0089307427 0.099065304
0.040600929 0.011704527 0.099720716
0.042759061 -0.0030708848 0.096103489
0.04300005 0.00064348936 0.095615447
0.043076687 0.0044459263 0.095664561
0.025162036 -0.032986976 0.1347678
0.024637952 0.033526927 0.13046354
0.025613362 -0.032768708 0.13032123
0.025733674 0.032475397 0.12597859
0.025002835 0.035460494 0.12584639
0.02710472 -0.032601643 0.12613678
0.027998837 0.029080829 0.12098014
0.025596498 0.0316796 0.12192667
0.026009558 0.03702325 0.12128031
0.028504986 -0.03093645 0.12101018
0.031637549 -0.02947828 0.12162095
0.028357334 0.027794076 0.11724061
0.032399196 -0.028730171 0.11834574
0.032265544 0.02466429 0.1151458
0.029640248 0.026780706 0.11279488
0.033534765 -0.02798936 0.11304522
0.035350189 -0.025786232 0.11292148
0.033925194 0.024134228 0.11027873
0.032117434 0.02589469 0.10911113
0.0336629 -0.02739626 0.10862428
0.035475869 -0.024617501 0.10905784
0.037174396 -0.020874858 0.1071927
0.036786623 0.020133879 0.10469347
0.034679532 0.023134742 0.10537463
0.032782216 0.025766075 0.10480171
0.035836764 -0.023430467 0.10538626
0.036273275 -0.02054348 0.10285175
0.038263269 -0.016367437 0.10293996
0.037817258 0.01471971 0.10076386
0.036073465 0.018007478 0.10026747
0.03568656 0.0214915 0.1026749
0.036990985 -0.019566972 0.10027778
0.038479943 -0.015856836 0.098318219
0.040885653 -0.011902915 0.098703742
0.039035544 0.013470299 0.096258163
0.037496004 0.016464228 0.095701933
0.039541636 -0.015044734 0.094388902
0.04101108 -0.011670334 0.093537152
0.042056784 -0.0075571844 0.094245613
0.042661581 -0.0037847899 0.093392372
0.042927966 0.00053663843 0.092596471
0.042892713 0.004965743 0.092805803
0.042309932 0.0087455902 0.093545079
0.039955005 0.012455443 0.091493249
0.041540369 -0.010457101 0.089982927
0.041837506 -0.007481792 0.08928889
0.042702045 -0.0036938135 0.088667393
0.043058548 0.00039642441 0.088759124
0.042782359 0.0044767749 0.088274658
0.042152524 0.0085909925 0.088461041
0.042942472 -0.0024755653 0.084838688
0.043210134 -0.00042556089 0.08496815
0.0244735 -0.0334072 0.12749103
0.025296349 -0.033672269 0.12237173
0.024805935 0.032273658 0.11862141
0.024203077 0.035396393 0.119394
0.02438915 -0.035324506 0.11781096
0.026576197 -0.033115529 0.11951822
0.025523849 0.031820584 0.11487234
0.024112752 0.03555404 0.11509687
0.025359089 -0.035419185 0.11569792
0.027613675 -0.032496437 0.11474407
0.02919291 -0.029891254 0.11471355
0.028182607 0.028872842 0.11143643
0.026426399 0.031286713 0.11008614
0.024272764 0.03457243 0.11170924
0.028712768 -0.032240503 0.10954124
0.029799549 -0.030112386 0.11035186
0.030121155 0.028002229 0.10727531
0.028130496 0.030807421 0.10540438
0.029780084 -0.031695109 0.10649234
0.031218207 -0.029193193 0.10562378
0.033867002 -0.026169995 0.10578758
0.031143919 0.027545547 0.10201442
0.028813055 0.030018449 0.10210276
0.032286797 -0.027783656 0.10154045
0.033924885 -0.025182998 0.10159403
0.035924897 -0.022254514 0.10146171
0.034703646 0.020076679 0.098943591
0.033386759 0.02302723 0.098354399
0.031698246 0.026484568 0.097711444
0.034254618 -0.024434393 0.096547306
0.03577362 -0.021269469 0.097070575
0.03744287 -0.017683124 0.09662044
0.036121998 0.018786481 0.09533602
0.034234643 0.0222445 0.093461037
0.032522526 0.025532212 0.093739092
0.036108818 -0.020865627 0.092300236
0.038022026 -0.017560134 0.092882931
0.039671406 -0.01448868 0.091498375
0.039196424 0.014178312 0.089434862
0.037633285 0.016994562 0.090182722
0.035603795 0.020341692 0.089227557
0.038311038 -0.016928753 0.088082135
0.040079612 -0.012619119 0.087283075
0.041352458 -0.0082177678 0.086200416
0.041672435 0.0084976805 0.085044444
0.040323004 0.012660172 0.085567057
0.03813488 0.016616372 0.085346282
0.039875612 -0.01211861 0.082902491
0.041444011 -0.007873904 0.082016289
0.042531814 -0.0041048685 0.082304776
0.042947225 0.00035579054 0.082113683
0.042314276 0.0042735366 0.081878722
0.041567497 0.0083725816 0.080957294
0.040117111 0.012247952 0.080603898
0.039515324 0.015319742 0.081680357
0.041717853 -0.0081823822 0.07869184
0.042509183 -0.0038335917 0.077704906
0.042671137 -3.7788544e-05 0.076432824
0.042227525 0.0038371477 0.077008963
0.041241135 0.0096190646 0.076569736
0.025489209 0.033060741 0.10792762
0.02553693 -0.036481857 0.10903186
0.027195916 -0.034351327 0.1093449
0.026690839 0.032938384 0.10503012
0.024738446 0.035401478 0.10448283
0.026446328 -0.036444385 0.10520095
0.028651461 -0.033254553 0.10362858
0.030498711 -0.030485788 0.10309929
0.027843013 0.031570975 0.099692166
0.025721923 0.034823034 0.099547207
0.029623851 -0.032078523 0.099452913
0.030384118 -0.02955661 0.098981917
0.0305054 0.027718566 0.094810367
0.028530221 0.030808363 0.094883859
0.026755264 0.033442289 0.095167696
0.031349096 -0.028199242 0.093783736
0.033501353 -0.026375687 0.095095336
0.032045756 0.026281605 0.091001332
0.030418649 0.028764449 0.089698732
0.032238621 -0.028402651 0.089592755
0.034555692 -0.025560394 0.090508461
0.035605073 -0.022359353 0.089938998
0.034892116 0.022187207 0.087586343
0.033191495 0.025170119 0.086636782
0.035429835 -0.024963925 0.085658014
0.036549773 -0.021619447 0.086083412
0.037825637 -0.018413179 0.085726678
0.036993332 0.018206868 0.08321768
0.035470657 0.021011122 0.082673848
0.03381535 0.024294695 0.08232379
0.035919633 -0.024603464 0.081660569
0.037183389 -0.021691384 0.080889881
0.038573742 -0.017678808 0.081687748
0.039705224 -0.014094783 0.081721663
0.039706249 0.013862574 0.078930259
0.038063917 0.017070005 0.078958154
0.035664849 0.019971883 0.078220963
0.037835751 -0.02065449 0.077145398
0.039139256 -0.01770615 0.076741874
0.040522251 -0.013055118 0.077185273
0.041620579 -0.008616196 0.076444805
0.041965742 -0.0055377637 0.076088488
0.041810222 0.0054397583 0.075321972
0.041663494 0.0081946421 0.075365067
0.040014882 0.012371579 0.075273275
0.038834043 0.016126279 0.074252546
0.040752001 -0.012884786 0.071525753
0.042080794 -0.0084435251 0.072320163
0.042410221 -0.0043095499 0.072395623
0.043237362 -0.00022620252 0.071498692
0.04248992 0.0039370665 0.072004318
0.04240169 0.0078782244 0.071445763
0.040619731 0.012191115 0.069781244
0.039979476 0.014981384 0.070037425
0.042332001 -0.0082758283 0.067983449
0.042957135 -0.0045293202 0.066838086
0.043929476 -0.00039114719 0.067275345
0.043447241 0.0037401938 0.066838324
0.042899508 0.0078678885 0.066084445
0.041109324 0.010690064 0.066264689
0.044755287 -0.00018430733 0.062488854
0.044067211 0.0035742307 0.062347174
0.043615017 0.0063293413 0.061758876
0.024923753 -0.036281943 0.10056567
0.025227426 0.035631016 0.096692622
0.02653507 -0.03431011 0.097870708
0.025333591 0.034445323 0.092471123
0.027991178 -0.032804221 0.093068123
0.028762121 -0.030489147 0.093218625
0.027621131 0.030850811 0.088595152
0.025977524 0.032692172 0.089540243
0.028799111 -0.030270949 0.088124752
0.032112021 0.026701817 0.083324373
0.02921702 0.029416325 0.084584832
0.031591978 -0.028701888 0.083999217
0.033095293 -0.026867466 0.083244622
0.032661643 0.025562987 0.079864621
0.030115331 0.028596766 0.08074367
0.033977661 -0.025801213 0.078941464
0.03558423 -0.023437159 0.077246249
0.034235053 0.021156091 0.075091481
0.032470413 0.024864638 0.076095164
0.03507328 -0.024949942 0.074831903
0.036453519 -0.02244154 0.074750006
0.037336759 -0.018793454 0.07252264
0.03700304 0.01789199 0.071148813
0.034390263 0.020440482 0.071626127
0.035752568 -0.021642089 0.071206748
0.037643451 -0.018049641 0.069277704
0.039870501 -0.015455334 0.06962359
0.038605213 0.01673972 0.067341447
0.035861596 0.019218203 0.066956997
0.037882295 -0.017707612 0.065836668
0.03952064 -0.01381617 0.064780176
0.040731926 -0.0099701583 0.064265966
0.039930124 0.012027538 0.063370347
0.038636226 0.015943365 0.062809348
0.036807723 0.019097369 0.063767493
0.041040964 -0.0093662273 0.05955857
0.04242238 -0.0047743348 0.060214579
0.043696661 -0.0020220613 0.060261548
0.043943986 0.003470541 0.059167325
0.042350344 0.0080621345 0.059131205
0.042079058 -0.0077135046 0.055940151
0.04264411 -0.0049647302 0.055301845
0.043733239 -0.00050327467 0.056312144
0.043197565 0.003148085 0.054941058
0.042430248 0.0071850396 0.05492878
0.024125783 -0.035285629 0.093814194
0.024104781 0.035580318 0.08972919
0.025957143 -0.033985276 0.091338873
0.024230001 0.03428641 0.085645199
0.026339294 -0.03328684 0.086938977
0.027823502 -0.031456154 0.085806787
0.027075646 0.031091204 0.081562936
0.024796842 0.033442374 0.081206143
0.028307423 -0.030836059 0.081555545
0.02814097 0.029834293 0.077136695
0.030107211 -0.02950245 0.077973783
0.03189259 -0.02721167 0.076768756
0.031579513 0.026053036 0.073454559
0.029309237 0.029401027 0.072537839
0.032330532 -0.026497768 0.072381735
0.033452053 0.02169859 0.069328249
0.032124486 0.025006952 0.069267571
0.03049043 0.02820039 0.06808579
0.034814104 -0.022499409 0.067995727
0.034076519 0.021338399 0.065166235
0.032729134 0.024684714 0.063972056
0.035129581 -0.021764895 0.063808203
0.037005648 -0.018983537 0.063370764
0.038202114 -0.015747663 0.062956035
0.038747653 0.012660661 0.059822083
0.038046498 0.017583156 0.060929179
0.035879321 0.020623019 0.060498059
0.03399723 0.023308143 0.059851468
0.037335023 -0.018342895 0.058453977
0.039085813 -0.014532775 0.058934629
0.040911555 -0.011136623 0.057065427
0.039236631 0.011874282 0.057250261
0.038186226 0.0160836 0.057036161
0.0368535 0.019457031 0.055984318
0.037942734 -0.017518247 0.054562807
0.039392762 -0.014759345 0.053736866
0.041270971 -0.010557856 0.054285228
0.042040177 -0.0057713185 0.052180529
0.042436738 -0.0012470881 0.052313089
0.042480931 0.0039454787 0.051548481
0.041936979 0.0077217817 0.051634192
0.039692197 0.011721479 0.05253917
0.038725428 0.015727384 0.051971138
0.03776627 0.01876794 0.052354336
0.040468149 -0.013544962 0.049528301
0.04119955 -0.010772838 0.049047649
0.041773029 -0.0061365985 0.048657358
0.04221271 -0.0010330845 0.048456848
0.042601094 0.0031478615 0.048603594
0.042362913 0.0073214844 0.04813689
0.040039454 0.011296071 0.047926605
0.041936722 -0.00045095413 0.04503417
0.042155489 0.0030394332 0.045054615
0.042029195 0.0072230408 0.04469645
0.023979818 -0.0347501 0.084578574
0.023430856 0.03474123 0.079101145
0.023864662 -0.034147006 0.078950465
0.027259011 -0.031870302 0.078226626
0.026620897 0.030971946 0.074067533
0.022873417 0.034001842 0.074915826
0.025104253 -0.033921953 0.075704396
0.027694449 -0.031008784 0.074495971
0.025390606 0.032379031 0.070828855
0.027844703 -0.030323064 0.070088685
0.03064166 -0.02804438 0.069880962
0.029154742 0.029981364 0.066238165
0.026087981 0.032275256 0.067378759
0.028422987 -0.029635448 0.066885531
0.030934405 -0.026657954 0.065528572
0.032322407 -0.024108443 0.064039528
0.032357916 0.026213486 0.061228573
0.029495459 0.029168943 0.061466157
0.030514037 -0.027048863 0.061818361
0.033106584 -0.023217404 0.06060648
0.032700419 0.024949472 0.057501972
0.030243412 0.028357925 0.058088779
0.033713937 -0.022581644 0.056664705
0.036364164 -0.020243974 0.056303918
0.035458598 0.021346755 0.053613305
0.032733474 0.024333999 0.053016663
0.034787588 -0.021868495 0.051766455
0.036915421 -0.019244494 0.051331937
0.038656611 -0.016274912 0.051035106
0.037776232 0.016566539 0.04833883
0.036105189 0.019876307 0.049029052
0.033241868 0.023113029 0.049832761
0.037530951 -0.018814076 0.046608031
0.039137468 -0.015452 0.046996295
0.040045995 0.011843327 0.045093656
0.037785478 0.015756575 0.044224441
0.036116071 0.019107575 0.04449743
0.03991786 -0.01509325 0.042031109
0.041070342 -0.011033471 0.042680681
0.041291051 -0.0068292646 0.042663991
0.041307602 -0.002485119 0.042205751
0.041108198 0.002519974 0.040766299
0.041079335 0.0071231062 0.0406304
0.039573774 0.011191819 0.040222704
0.038393803 0.01533276 0.03982389
0.04127419 -0.014093515 0.036758482
0.041481514 -0.011278114 0.03680855
0.041948065 -0.0070562051 0.037039638
0.041491833 -0.0030241921 0.036622107
0.041173749 0.0016340705 0.035992563
0.041579861 0.0064433706 0.03572911
0.040229101 0.010745733 0.035736322
0.042891178 -0.012171632 0.032475531
0.042276926 -0.0072109574 0.033164859
0.042452116 0.0064007295 0.031680048
0.024578029 -0.034220897 0.068223774
0.026395187 -0.032362841 0.069278181
0.025906101 0.032225531 0.064132988
0.026994366 -0.03100696 0.063569129
0.026187504 0.032118823 0.059242189
0.027345302 -0.030530415 0.059034586
0.029962217 -0.027495131 0.058700264
0.028853415 0.029542821 0.05498606
0.026426502 0.03203265 0.055327952
0.030454313 -0.026566979 0.054541409
0.032517467 -0.024098286 0.054567993
0.031700902 0.026033156 0.051312268
0.029981833 0.027877912 0.051128685
0.032911319 -0.023608422 0.05005604
0.034361549 0.021584952 0.046830952
0.032540306 0.024490461 0.046996295
0.031154444 0.025892224 0.04348737
0.034136958 -0.022525212 0.045425832
0.037102718 -0.020738432 0.04560101
0.035311513 0.020892581 0.04319495
0.034195099 0.023600938 0.042374372
0.037485838 -0.019507302 0.041714132
0.039230399 0.01270462 0.037438691
0.038285036 0.016985474 0.038364947
0.036708355 0.01987762 0.038748085
0.034894466 0.023236828 0.038178265
0.037014689 -0.018811531 0.036294162
0.039620671 -0.016336197 0.036919177
0.041460976 -0.0015314517 0.034139574
0.040585093 0.011384986 0.033949256
0.038764715 0.015293808 0.034989297
0.037335634 0.018313618 0.033663571
0.035899349 0.021201259 0.033660233
0.041693535 -0.015289038 0.032424212
0.042298641 -0.011013331 0.031989098
0.042794108 -0.0070309555 0.030717194
0.041816559 -0.0030445289 0.03141278
0.042078905 0.0013613666 0.030979276
0.043088488 0.0049603675 0.029609561
0.041558556 0.0098700654 0.029801428
0.040217657 0.013867036 0.029920459
0.038601942 0.016761193 0.030255258
0.042643905 -0.015195637 0.027624011
0.043332953 -0.011484251 0.027855933
0.042285819 -0.0076819919 0.026235819
0.041372843 -0.003208396 0.026731014
0.042229209 0.00099621899 0.026304662
0.043019719 0.005192481 0.025815606
0.042026129 0.0091121495 0.026181221
0.040613599 0.012335718 0.026162922
0.043778405 -0.011810413 0.024341822
0.042711906 -0.0083164684 0.023055911
0.042440567 0.0022643099 0.022192657
0.042518325 0.0050876928 0.022116125
