# .PCD v0.7 - Point Cloud Data file format
VERSION 0.7
FIELDS x y z
SIZE 4 4 4
TYPE F F F
COUNT 1 1 1
WIDTH 866
HEIGHT 1
VIEWPOINT 0 0 0 1 0 0 0
POINTS 866
DATA ascii
0.033672668 0.053665593 0.82406664
0.037482429 0.053619284 0.8233555
0.042104349 0.053638101 0.8236444
0.047971275 0.053104188 0.82328874
0.052818317 0.052833229 0.82304436
0.056491226 0.053174246 0.82437247
0.019090872 0.058320906 0.82486671
0.028597435 0.057491004 0.82396668
0.032871339 0.057440907 0.82324439
0.037471589 0.057431698 0.82311106
0.042087402 0.057446018 0.82331663
0.047444433 0.057426464 0.82302904
0.052801397 0.057408635 0.8227722
0.057484686 0.055189233 0.8239283
0.034477532 0.061394706 0.82493347
0.043708596 0.061394706 0.82493347
0.04908948 0.061389744 0.82486683
0.052153356 0.061374858 0.82466686
0.03776307 0.049390983 0.82951134
0.042389285 0.049373779 0.8292225
0.053213455 0.049372457 0.82920021
0.0088733137 0.052926142 0.82850003
0.012984485 0.05237316 0.82788879
0.017610027 0.052354019 0.82758516
0.02224762 0.052369595 0.82783699
0.027433785 0.052496776 0.82763648
0.032480486 0.051800549 0.82797521
0.037631899 0.051525678 0.82663321
0.042267863 0.051539421 0.82685548
0.046604771 0.051405072 0.82717341
0.052329581 0.050807472 0.8274501
0.0572563 0.051355738 0.82803106
0.0077563371 0.057229713 0.82787186
0.012957889 0.057645619 0.82619447
0.017426498 0.057529055 0.82552737
0.022182776 0.057592344 0.82543343
0.025763452 0.057567474 0.82506686
0.057156127 0.058366843 0.82551438
0.0085466607 0.062012807 0.82805842
0.01297882 0.063128166 0.82752585
0.017597703 0.063086294 0.82698506
0.022229215 0.063099608 0.82716274
0.027599804 0.063035659 0.82631654
0.032789402 0.063204944 0.82601672
0.037604172 0.06301292 0.82601476
0.042038716 0.063213937 0.82613331
0.047319926 0.063334227 0.82619989
0.053243298 0.063468061 0.82622862
0.057777379 0.062660709 0.82812411
0.0099123493 0.067111067 0.82920027
0.013002916 0.067099236 0.82905596
0.01763781 0.067855626 0.82887435
0.022273501 0.067850895 0.82881516
0.02744754 0.06764894 0.82804853
0.032750741 0.067936882 0.82797337
0.037663285 0.067728706 0.82731837
0.042288955 0.067724347 0.82726645
0.047239833 0.067589797 0.82749987
0.052560803 0.067905046 0.82776362
0.058903251 0.066875637 0.82947159
0.019186532 0.070949942 0.82900035
0.022475459 0.072311074 0.82913363
0.026917262 0.072492689 0.8290078
0.032119356 0.072356194 0.82904887
0.037739199 0.071720041 0.82898927
0.042570323 0.072297946 0.82898366
0.047017504 0.072494015 0.82902265
0.051652223 0.072488867 0.82896334
0.025391314 0.075637057 0.82966685
0.050887659 0.075585395 0.82910037
0.013858242 0.049660236 0.83403325
0.01774439 0.049648989 0.83384436
0.022389552 0.049606651 0.8331334
0.027450277 0.049236201 0.83343339
0.032752436 0.049095523 0.83324438
0.037903477 0.048026126 0.83259994
0.042879816 0.047413178 0.83273327
0.047037065 0.04822854 0.83279157
0.05264058 0.048398461 0.83237499
0.057720505 0.048904996 0.83175725
-0.0022490674 0.053158026 0.83328408
0.0019652338 0.053090084 0.83222854
0.0063306079 0.052150723 0.83255553
0.05952828 0.051025465 0.83100003
-0.005589833 0.057470344 0.83480006
-0.0024732254 0.057399485 0.83376664
0.0021859531 0.057263177 0.83179253
-0.0016975708 0.062127575 0.83477807
0.0021889617 0.061986413 0.83287406
0.0063157841 0.063120268 0.83081108
0.059475765 0.064880528 0.83026683
0.0028164322 0.066152081 0.83461314
0.0069895224 0.068047293 0.83292717
0.013026009 0.069538094 0.8305555
0.057437453 0.068515964 0.83064443
0.061078105 0.066483662 0.83100003
0.0089395083 0.07247036 0.83466649
0.01305419 0.072788522 0.83237785
0.017487096 0.072852656 0.8309083
0.020779314 0.074200876 0.83086658
0.034722712 0.074194916 0.8308
0.037829705 0.074210793 0.83097768
0.040930387 0.074212782 0.83099991
0.054843601 0.072620422 0.83046657
0.057999015 0.072693348 0.83129621
0.0099816816 0.076123245 0.83499974
0.013607316 0.077115208 0.83452207
0.017944414 0.077404067 0.83414149
0.022387028 0.077497713 0.8330518
0.027228475 0.077651829 0.83263326
0.032482225 0.07748317 0.83289999
0.037976354 0.077603549 0.83419991
0.04278364 0.077312052 0.83314151
0.047213353 0.077444442 0.8324815
0.05242632 0.077596761 0.83205003
0.057655685 0.077394225 0.83380735
0.026333183 0.080783039 0.83499974
0.030226398 0.080783039 0.83499974
0.042684678 0.080783039 0.83499974
0.047355235 0.080780886 0.83497757
0.052022889 0.081551053 0.83491087
-0.00092151755 0.049836893 0.83699995
0.0025957283 0.049549796 0.83873343
0.0071155443 0.048787016 0.83808577
0.012044869 0.048005957 0.83768004
0.01782872 0.047703914 0.83784008
0.022526229 0.047569528 0.83822221
0.026875237 0.047363397 0.83733338
0.031854723 0.047336258 0.83685321
0.037797377 0.046417296 0.83711994
0.042425759 0.04558491 0.83756661
0.047901489 0.045594312 0.83773339
0.051821791 0.045995586 0.83795005
0.056872424 0.045973342 0.83754998
-0.0056045642 0.05450784 0.83700001
-0.0024771944 0.051283352 0.83520001
0.0029758746 0.051309958 0.83563328
-0.0061173141 0.057543736 0.83586669
-0.011301219 0.062661655 0.83500004
-0.0066454913 0.062029559 0.8369444
-0.00310029 0.06215911 0.83520138
-0.0062332274 0.067325458 0.8376357
-0.0024816224 0.066917181 0.83641094
0.0018846967 0.068081267 0.83542645
-0.0019663076 0.071263462 0.83872652
0.0022034028 0.072520696 0.83822668
0.0063584633 0.073663607 0.83646655
0.0073400922 0.077756658 0.83824772
0.011247653 0.078755111 0.83655995
0.016212119 0.079236135 0.8350665
0.041130677 0.079236127 0.83506638
0.057517428 0.079283565 0.83556652
0.008465426 0.081176452 0.83906686
0.012349493 0.082559071 0.83724999
0.017809683 0.082529448 0.83695549
0.022484478 0.082501292 0.83666658
0.02739061 0.082952552 0.83673328
0.032843675 0.082651637 0.83675748
0.038100101 0.082525611 0.83691841
0.042767495 0.082691781 0.83662492
0.047431171 0.083245136 0.83632207
0.052153002 0.084090479 0.83699995
0.057423867 0.082422405 0.83729702
0.060101364 0.084291436 0.83900017
0.013473365 0.086487643 0.83910674
0.018046446 0.087208055 0.83890009
0.022766348 0.086951062 0.83883822
0.027025308 0.087152362 0.8383584
0.032488443 0.086738072 0.83812511
0.037605744 0.087509759 0.83855766
0.042649802 0.086935259 0.83868569
0.047775678 0.086911552 0.83845717
0.052239504 0.087351076 0.83839256
0.056578711 0.086238988 0.83896685
0.060111973 0.085867301 0.83914828
0.053880889 0.090598948 0.83960015
0.0037974806 0.044025782 0.84499991
0.0069480068 0.044018835 0.84486657
0.012459991 0.044004075 0.84458333
0.017980903 0.044025782 0.84499997
0.022707433 0.044023469 0.84495544
0.027780093 0.043553054 0.84346682
0.032085702 0.043918114 0.84293365
0.037278078 0.043276761 0.84355247
0.043076769 0.043119837 0.84267777
0.047799446 0.042790141 0.84280956
0.052534271 0.042554058 0.84312505
0.057282854 0.042380471 0.84357148
-0.00092829298 0.047064036 0.84315413
0.0020179099 0.046827372 0.84240651
0.0066091372 0.046051916 0.84182674
0.012431454 0.045471724 0.84266686
0.017921995 0.045838982 0.84223354
0.022648573 0.045477718 0.84277803
0.027302245 0.045375798 0.84088874
0.032001194 0.045366198 0.84071088
0.036695812 0.045355413 0.84051102
0.052369025 0.045353014 0.8404665
-0.010324484 0.064078584 0.84000003
-0.0079759946 0.064091288 0.84016669
-0.007205531 0.065771379 0.8416667
-0.0064274943 0.072106279 0.84250003
-0.0035419774 0.07305377 0.84139079
-0.0056531099 0.076966844 0.84425002
-0.0025012379 0.076866478 0.84313387
0.0022140914 0.077564485 0.8422001
0.005347982 0.079016939 0.84099972
-0.00093014201 0.080948688 0.84483325
0.0022200055 0.081702195 0.84449512
0.0067280359 0.083238088 0.84215003
0.0078871856 0.087643825 0.84422672
0.011626186 0.088329144 0.84135234
0.01632343 0.089164414 0.84079987
0.021803018 0.089129061 0.84046662
0.02885909 0.089136139 0.8405332
0.031212078 0.089139678 0.84056652
0.043761939 0.089157343 0.84073317
0.046867765 0.089100786 0.84020001
0.057431854 0.088575438 0.84114647
0.060250424 0.088412136 0.8410809
0.0085252859 0.091181673 0.84499991
0.012921235 0.092479847 0.84392673
0.017926864 0.092478015 0.84248161
0.02263337 0.09244822 0.84220743
0.02733529 0.092412554 0.84188145
0.032049078 0.092423052 0.84197783
0.037540115 0.092410289 0.84186107
0.04306294 0.092468172 0.84239274
0.047746107 0.0924116 0.84187406
0.052206796 0.092512339 0.84101653
0.057212036 0.092482448 0.84252614
0.060925335 0.092709444 0.84174824
0.013253094 0.09589722 0.84499991
0.017980903 0.09589722 0.84499997
0.02270492 0.095882095 0.84486657
0.027612565 0.097199656 0.84435833
0.032123674 0.097347997 0.84394097
0.037601195 0.097265653 0.84323364
0.043119781 0.097296968 0.84350389
0.047844447 0.097309045 0.84360766
0.052525472 0.097236246 0.842978
0.057332356 0.096604697 0.844311
0.061184388 0.096472293 0.84315073
0.033214957 0.10113681 0.84499997
0.037468337 0.10155654 0.84467494
0.042396497 0.1021577 0.84477317
0.047918726 0.10138821 0.84491104
0.052617114 0.10166972 0.84444761
0.043379795 0.039478708 0.84862232
0.048090365 0.039446663 0.84793347
0.052811462 0.038641024 0.84757799
0.057565186 0.038647998 0.84773237
0.060674433 0.039403237 0.84700006
-0.0056871483 0.043461286 0.84933335
-0.00093362847 0.044182077 0.84800023
0.0022283576 0.042838577 0.84746003
0.0069675259 0.04177912 0.84727794
0.012501 0.041784238 0.84738338
0.018430104 0.042184561 0.84750009
0.022780197 0.041798029 0.84765571
0.027172914 0.041589174 0.84661329
0.032223362 0.041742772 0.84654444
0.036995176 0.040996011 0.84735566
0.042004369 0.041265577 0.84642667
0.047941007 0.040896576 0.84529984
0.052655648 0.040885288 0.84506649
0.055860575 0.040923975 0.84586662
0.060531165 0.040882058 0.84500003
-0.005671524 0.045705572 0.84700006
-0.0033039441 0.046513863 0.84738493
-0.0072340677 0.075463042 0.84500003
-0.0056637125 0.081044555 0.84583342
-0.0029613806 0.082105041 0.84633112
0.002222948 0.084423549 0.84553331
-0.005671524 0.088246316 0.84700006
-0.002517377 0.086028419 0.84843022
0.0020022669 0.087180741 0.84757155
0.0059098639 0.088200837 0.84655565
0.0032885186 0.090593517 0.84931135
0.0069754347 0.092663296 0.84828597
0.010111983 0.093639866 0.8459
0.008562956 0.097110569 0.84873366
0.012421001 0.097845085 0.8470062
0.018006545 0.098399073 0.84623337
0.022732081 0.098358989 0.84588879
0.025862629 0.099048801 0.84506649
0.057405103 0.099085249 0.84537774
0.061383177 0.099144503 0.84588343
0.013317364 0.10110232 0.84911138
0.018274795 0.10212277 0.8482098
0.022794215 0.10257188 0.84819287
0.027516356 0.10248474 0.84746683
0.031709708 0.10293976 0.84688896
0.03611549 0.10378934 0.84526646
0.044796526 0.10381389 0.84546655
0.047960266 0.10383572 0.8456443
0.052663967 0.10378115 0.84519982
0.057495493 0.10239158 0.84670377
0.061332256 0.10215621 0.84735793
0.019671015 0.10594337 0.84993345
0.023148671 0.10653247 0.84958684
0.026790429 0.10588938 0.8495003
0.032323647 0.10585199 0.84920025
0.037022829 0.10728312 0.84801507
0.042518035 0.10717776 0.84718341
0.04789947 0.10709111 0.84805852
0.052644748 0.10709229 0.84806693
0.056848325 0.10580629 0.84883368
0.038689617 0.1106778 0.84986687
0.041034795 0.11059099 0.84920037
0.045004942 0.11061702 0.84940022
0.047643363 0.034967169 0.85410011
0.052883107 0.034638301 0.85383338
0.056443922 0.034991734 0.85470021
-0.0025309424 0.039717879 0.85376358
0.0022428788 0.03971583 0.85371965
0.0070161396 0.039682366 0.85299999
0.012585508 0.039692052 0.85320836
0.018480349 0.039071895 0.85354006
0.02290882 0.038521562 0.85243326
0.027647456 0.038820188 0.85150546
0.032453377 0.03886931 0.85259444
0.037205476 0.038850218 0.8521778
0.041982766 0.03806575 0.85235995
0.047518935 0.037252352 0.85188752
0.053021491 0.036420897 0.85094446
0.057818849 0.036443483 0.8514722
-0.0027236184 0.042573299 0.85133976
0.0014427823 0.041157834 0.85070002
0.017299507 0.041135252 0.85023344
-0.0025240888 0.088644542 0.85082221
-0.005718396 0.093741439 0.85400003
-0.0025294917 0.092009477 0.85266662
0.0020103531 0.09273342 0.85099518
0.0054107229 0.094189033 0.85086656
-0.0057100262 0.09519051 0.85275006
-0.0025323073 0.096458018 0.85393745
0.00204188 0.096980199 0.85278749
0.0067329067 0.098144829 0.85085541
0.0033082534 0.10066217 0.85431123
0.0072441953 0.10228079 0.8532905
0.012295347 0.1035023 0.85152221
0.017309342 0.10446057 0.85073328
0.013216835 0.107687 0.85400748
0.017921202 0.10792963 0.85156655
0.022469837 0.10882976 0.85086656
0.027852131 0.10808895 0.85081899
0.032385331 0.10842697 0.85081106
0.049804211 0.1091397 0.8502
0.054565422 0.10914826 0.8502667
0.057880443 0.10809929 0.85237771
0.061061803 0.10704626 0.85240775
0.01498697 0.11121608 0.85400003
0.018360727 0.1125437 0.85352087
0.022897787 0.11254676 0.85203332
0.027702723 0.11269731 0.85317779
0.032483131 0.11272245 0.85336667
0.037036862 0.11285604 0.85287499
0.042180058 0.11296433 0.85177135
0.04769906 0.11258028 0.85120589
0.053073369 0.11251111 0.85176659
0.056448333 0.11131596 0.85476691
0.02295237 0.1163882 0.85406673
0.037695363 0.11641756 0.85428339
0.041840322 0.11712992 0.85409528
0.046827316 0.11708148 0.85373819
0.052081637 0.1166784 0.85411435
0.039123621 0.033585489 0.85940009
0.042509407 0.032170329 0.85899162
0.047077604 0.031943813 0.85830384
0.05180449 0.031897876 0.85705531
0.055599313 0.031936556 0.85806674
-0.00094455935 0.037516776 0.85792863
0.0022541862 0.038308993 0.85777783
0.0070563727 0.03831793 0.85797769
0.012169281 0.037657779 0.85750675
0.017324511 0.036908664 0.85704762
0.023045558 0.035744697 0.85753345
0.027526179 0.036067009 0.85761344
0.032639742 0.036701005 0.85748881
0.037433375 0.035899702 0.85742229
0.041842304 0.035681378 0.85600024
0.045319308 0.035017658 0.85533357
0.058071908 0.035012204 0.85520017
-0.0025362056 0.098652437 0.85525882
-0.0017454455 0.1013948 0.85826039
0.0017201373 0.10261003 0.8573001
0.0054374319 0.10340206 0.85506684
0.0038618965 0.10711616 0.85933346
0.0068474594 0.10702922 0.85704172
0.010765359 0.10935915 0.85604477
0.059690122 0.10982433 0.85553366
0.061289486 0.10983112 0.85558653
0.0081230523 0.11067311 0.85799986
0.012043933 0.11302251 0.85715002
0.015549931 0.11409813 0.85575581
0.058372941 0.11335685 0.85667098
0.061490625 0.11258769 0.85839391
0.012940685 0.11721518 0.85915548
0.017436938 0.11799434 0.85706663
0.023002913 0.11879234 0.85593355
0.027802639 0.11788489 0.85627431
0.032597002 0.11789577 0.85635573
0.037038304 0.11875518 0.85566682
0.042928517 0.11934982 0.85536683
0.046914633 0.11934517 0.85533357
0.053002279 0.11908656 0.85576028
0.058285713 0.11816655 0.85832596
0.061563898 0.11751761 0.85941672
0.018282795 0.12148612 0.85922223
0.023066632 0.12215764 0.85832214
0.027891787 0.12225752 0.8590222
0.032692578 0.1220773 0.85887992
0.037459306 0.12291136 0.85800743
0.042241819 0.1228552 0.85761493
0.047063347 0.12291709 0.85804445
0.051886011 0.12296908 0.85840738
0.055728931 0.12264995 0.8584134
0.061600912 0.12158666 0.85993356
0.039141834 0.126366 0.8598001
0.041547257 0.12636602 0.8598001
0.055185776 0.12638561 0.8599335
0.029668244 0.028947003 0.86410022
0.032812025 0.028075645 0.86202067
0.037557606 0.02881784 0.86024457
0.042363007 0.02881263 0.860089
0.046458077 0.028865479 0.86166668
-0.0009521246 0.033796534 0.8648001
0.00066073018 0.030578764 0.86478955
0.017567754 0.032941099 0.86347926
0.02317372 0.032895599 0.8623001
0.028202254 0.032296736 0.86237913
0.032798506 0.032071009 0.86167407
0.037347253 0.031809792 0.86001688
0.04075484 0.030409407 0.86000019
-0.00094977586 0.035317887 0.86266667
0.0019462444 0.036288098 0.86286724
0.0074948804 0.036505774 0.86232507
0.011513816 0.035701022 0.86225009
0.016708167 0.035236001 0.86066675
0.029527472 0.035208706 0.86000019
0.032735288 0.035208706 0.86000019
-0.0025579219 0.10377071 0.86253518
-0.00095103774 0.10767335 0.8638131
0.0014610918 0.10738033 0.86145544
-0.0017577445 0.1117509 0.86428034
0.0022658629 0.11229379 0.86226672
0.0065401965 0.11257473 0.86033344
0.0032377448 0.11700765 0.86391354
0.0070878137 0.11706518 0.86197037
0.011242883 0.11775662 0.86000025
0.0076371185 0.12155194 0.86347228
0.011706041 0.12203251 0.86166668
0.017505644 0.12365232 0.8603918
0.023113018 0.12480208 0.86004466
0.027926443 0.12480852 0.86008906
0.032735288 0.12439568 0.86000019
0.05802393 0.12365374 0.86040014
0.060685664 0.12360261 0.86060017
0.012161763 0.126449 0.86348587
0.017537721 0.12748624 0.86196661
0.023138238 0.12814392 0.86099267
0.027949294 0.12811416 0.86079264
0.032760933 0.12809666 0.86067414
0.037379965 0.12831056 0.86076677
0.042632032 0.12858698 0.86089534
0.047202006 0.1280821 0.86057788
0.052010819 0.12806648 0.86047429
0.056887064 0.12793639 0.86140007
0.061755653 0.12696961 0.86208886
0.017573973 0.13096191 0.86373901
0.023197444 0.13248588 0.86319447
0.028024236 0.13247137 0.86310005
0.032433935 0.13200487 0.86267501
0.037642986 0.13153027 0.86219996
0.042829551 0.13229844 0.86302006
0.047557507 0.13277937 0.8628667
0.052141827 0.1327441 0.86263806
0.057016388 0.13143994 0.8633613
0.061571408 0.13084379 0.86402017
0.04419782 0.13511305 0.86460018
0.047411814 0.13561778 0.86440015
0.051839773 0.13587148 0.86430848
0.0038978485 0.029055316 0.86733335
0.0071302908 0.029044522 0.86701125
0.016853651 0.029081367 0.86811113
0.022877159 0.028403092 0.86853331
0.027804771 0.028054606 0.86633015
0.0024804552 0.032452866 0.8665098
0.0071276673 0.032260567 0.86675197
0.011971989 0.032243203 0.86629635
0.016814442 0.030626284 0.86613345
0.022477103 0.030637775 0.86645848
0.026497142 0.030614497 0.86580008
0.0038896101 0.035433885 0.86550021
0.0063137906 0.035450943 0.86591679
-0.0041809636 0.10465702 0.86544442
-0.0032158711 0.10763223 0.86606693
-0.0032177051 0.11350693 0.86664331
-0.0017642709 0.11780431 0.86741394
0.0010660351 0.11809827 0.86660838
-0.000957557 0.12216356 0.86973411
0.0025140829 0.12234154 0.86853331
0.0060550068 0.12372466 0.86744452
0.0073421281 0.12741008 0.86827499
0.01115589 0.12885088 0.86575013
0.0079606436 0.13101645 0.86943328
0.012195101 0.13219921 0.86790001
0.016424458 0.13344064 0.86679184
0.020056758 0.13381359 0.86660016
0.033750005 0.133636 0.86545014
0.037827898 0.13378784 0.86643344
0.041058127 0.1337827 0.86640006
0.058028288 0.13379042 0.86645013
0.062534519 0.13352227 0.86732239
0.013630563 0.13581103 0.8690666
0.016869703 0.13660018 0.86894441
0.022522012 0.13729483 0.86821669
0.028177036 0.13722938 0.86780375
0.033036016 0.13724448 0.86790001
0.037892926 0.13724855 0.867926
0.042507514 0.13732517 0.86713761
0.047203403 0.13798831 0.8664934
0.052788477 0.13825646 0.86665845
0.057306699 0.13722044 0.86774814
0.06248356 0.13695863 0.86902046
0.024997378 0.14077966 0.86980015
0.02984792 0.14151284 0.86933333
0.033085994 0.14230224 0.86921477
0.03794745 0.14229491 0.86917031
0.042797107 0.1422511 0.8689037
0.047633756 0.14217769 0.86845183
0.052504107 0.14220664 0.86862963
0.055767622 0.14226671 0.8689999
0.063912749 0.14155033 0.86956656
0.042810593 0.14552946 0.86917776
0.047358703 0.14620492 0.86934662
0.051733874 0.14554992 0.86930001
0.063900493 0.14718315 0.86940002
-0.0042029712 0.11006304 0.87000006
-0.0021769111 0.12354827 0.87093735
0.0014775132 0.12476204 0.87093353
-0.0058322283 0.12801203 0.87100005
-0.0023843115 0.12756993 0.87213802
0.0022909937 0.12811384 0.8716889
0.0055374806 0.12960248 0.8708002
-0.0015041338 0.13207977 0.87289959
0.0022950517 0.13239837 0.87321234
0.006932355 0.13337405 0.87124777
0.010412035 0.13449292 0.87100023
0.0039294572 0.13501282 0.8743667
0.0077268309 0.1375967 0.87355542
0.011844496 0.13807809 0.8718918
0.016903112 0.13930389 0.87068909
0.061548389 0.13927901 0.87053347
0.012611267 0.14244173 0.87337756
0.016912375 0.14261861 0.87114835
0.021783074 0.14259559 0.87100762
0.02718842 0.14290592 0.87070394
0.05831581 0.1425525 0.87074453
0.061924394 0.14281462 0.87093353
0.017189024 0.14740074 0.87341887
0.021837568 0.14782566 0.87318498
0.027513945 0.1477042 0.87246656
0.033153065 0.14745125 0.87097806
0.038015533 0.14741029 0.8707335
0.042881902 0.14820094 0.8706224
0.048163958 0.14862192 0.87071687
0.052867595 0.14788567 0.87080973
0.057584658 0.14761658 0.87195325
0.061981089 0.1475807 0.8717429
0.028393282 0.15129499 0.87446672
0.032649234 0.15219513 0.87379158
0.038152833 0.15200683 0.8738777
0.043017682 0.15191963 0.87337762
0.047858391 0.15177451 0.87254429
0.052784044 0.15189819 0.87325531
0.057721559 0.15162691 0.87403321
0.062006462 0.15161397 0.87318248
-0.0042271265 0.12859993 0.87500006
-0.0025962293 0.13353378 0.87533337
0.002101233 0.13729724 0.87726229
0.0055686408 0.13847665 0.87570006
0.0034049146 0.14123236 0.8793332
0.0070127547 0.14227484 0.87777084
0.011276383 0.14407101 0.87505007
0.0084567554 0.14674464 0.87887496
0.011882367 0.14727937 0.87684298
0.016171442 0.14975961 0.87500006
0.012346987 0.15182304 0.87869591
0.017032919 0.15261626 0.87738347
0.02191258 0.15240787 0.87618345
0.026809528 0.15291907 0.87600011
0.032098781 0.1543193 0.87547505
0.03822089 0.15471919 0.87543339
0.043114424 0.15470152 0.87533337
0.048002485 0.15467204 0.87516671
0.052929789 0.15476042 0.87566668
0.057846729 0.15317526 0.87591672
0.061152946 0.15327726 0.87650013
0.013140326 0.15677685 0.87966651
0.01705908 0.15693413 0.87871122
0.021957802 0.1568041 0.87798905
0.026658671 0.15697011 0.87777519
0.032522701 0.15724602 0.87590015
0.038292952 0.15745553 0.87706679
0.04323579 0.15758698 0.87780023
0.04815777 0.15762268 0.8780002
0.053071562 0.15762669 0.87802243
0.057816237 0.15670535 0.87857503
0.061305296 0.15611191 0.87868333
0.017905064 0.16043715 0.87999976
0.022328857 0.16103849 0.8797065
0.026912928 0.16114628 0.87939984
0.032055061 0.1614318 0.8790428
0.036908682 0.16148216 0.87875187
0.042487651 0.16112189 0.87926656
0.04825158 0.16038448 0.87971085
0.053176839 0.16203092 0.87976265
0.057288665 0.16124044 0.87991643
0.0017688143 0.14325289 0.88169628
0.0033094622 0.14754911 0.88320005
0.0062609911 0.14787568 0.88122666
0.0039736493 0.15133423 0.8842001
0.0074634142 0.15249664 0.88259166
0.010520417 0.153901 0.88006634
0.0089238072 0.15632161 0.88450015
0.010942766 0.15776391 0.88106644
0.05982383 0.15898065 0.88099998
0.062316373 0.15905112 0.88139045
0.013187515 0.16226825 0.88282669
0.016890727 0.16293739 0.88213331
0.021626055 0.1635157 0.88114995
0.026949838 0.16382273 0.8805998
0.031045176 0.16376692 0.88029975
0.038434759 0.16377312 0.88033307
0.042528734 0.16332355 0.88011634
0.047808297 0.16304316 0.88018066
0.058836181 0.16290623 0.88095987
0.06316784 0.16240744 0.88180554
0.01717329 0.16620931 0.88458347
0.022415999 0.16659962 0.88316
0.027023492 0.16673197 0.88298893
0.032287244 0.16653724 0.88282663
0.036580283 0.16658989 0.88310671
0.042162433 0.16652317 0.88275325
0.04700141 0.16701962 0.88264763
0.052573651 0.16679652 0.88188142
0.057461336 0.16692805 0.88257784
0.062666163 0.16676041 0.88401383
-0.0009768178 0.14690167 0.88722849
0.0010895681 0.14871332 0.88573325
-0.0016384779 0.1515184 0.88720322
0.0019989037 0.15269788 0.88638651
0.0056311716 0.15485695 0.88553333
-0.00097859406 0.15626289 0.88884199
0.0025397858 0.15669276 0.88776654
0.0072855987 0.1579486 0.88593334
0.0031659435 0.16043934 0.88908339
0.0069732829 0.16128407 0.88826656
0.011147946 0.1632697 0.88648874
0.012270349 0.16713662 0.8880555
0.017535297 0.16815965 0.88618642
0.021743609 0.16934896 0.88594151
0.027097449 0.1696568 0.88540006
0.031635284 0.16922925 0.88531685
0.037421264 0.16926117 0.88548344
0.041545495 0.16924521 0.88540012
0.046072859 0.16960567 0.8851335
0.051019415 0.16958651 0.88503349
0.057619676 0.16958013 0.88500017
0.061835431 0.1694143 0.88628322
0.065103509 0.16890407 0.88576776
0.013942674 0.17116727 0.88896668
0.017040411 0.17209502 0.88841659
0.022187173 0.17247319 0.88717753
0.02714473 0.17325491 0.88695532
0.032110639 0.17306712 0.88704967
0.037281934 0.1730736 0.88708299
0.042040415 0.17308162 0.88712466
0.047201879 0.17305085 0.88696635
0.05194534 0.1732161 0.88675535
0.056915302 0.17324042 0.88688111
0.061987851 0.17272383 0.8884666
0.066314019 0.1722732 0.88869989
0.018257709 0.17666796 0.88918674
0.022224767 0.17689715 0.88867402
0.027207172 0.17778827 0.889
0.032170329 0.17737548 0.88870472
0.036891941 0.17730726 0.88836181
0.042103261 0.17732428 0.88844746
0.046846788 0.17736201 0.88863802
0.052029535 0.17762677 0.88818884
0.057010937 0.17766435 0.88837767
0.060401041 0.17623399 0.8895002
0.023071719 0.18034315 0.88936675
0.027628131 0.18072315 0.88920003
0.032604448 0.18072994 0.88923335
0.036834948 0.18098757 0.88928002
0.042141668 0.18098488 0.88926679
0.047116015 0.18114573 0.88924456
0.051764004 0.18099582 0.88932008
0.057052482 0.18027331 0.88902217
-0.00098064903 0.15907569 0.89070839
0.00068017637 0.15899229 0.8902415
0.002348637 0.1628681 0.89332789
0.0073336028 0.16428839 0.89202243
0.0080129486 0.16720167 0.89340031
0.010648722 0.16903439 0.89080024
0.012052719 0.17263472 0.89227247
0.014023967 0.17715515 0.89415026
0.016061228 0.17788279 0.8915419
0.062641226 0.17760073 0.89101928
0.066449508 0.17687896 0.89275032
0.018170616 0.18275845 0.89307803
0.022056846 0.18289423 0.89142883
0.026939198 0.18334714 0.89110023
0.031925641 0.18335159 0.89112014
0.037668239 0.18364573 0.89134187
0.042214088 0.18353391 0.89080018
0.04720211 0.18396169 0.89086694
0.052600134 0.18354253 0.8908419
0.057182495 0.18317114 0.89105016
0.062353227 0.18288365 0.89369285
0.019030683 0.18634118 0.89433366
0.022028895 0.186975 0.8941803
0.027354367 0.18706538 0.89381695
0.032705169 0.18699166 0.89426041
0.037351184 0.18704098 0.8937003
0.042551011 0.18722753 0.89288604
0.047320731 0.18774757 0.89310032
0.052361142 0.18707015 0.89383918
0.057799239 0.18672082 0.89415866
0.06742613 0.19140343 0.89466691
-0.00098669552 0.16505779 0.8962
0.0021467134 0.16694146 0.89624166
0.0065300912 0.16827932 0.89559996
0.0028371278 0.1717145 0.89738113
0.0071610953 0.17194298 0.89624166
0.01070132 0.17486508 0.89520007
0.0040379139 0.17550971 0.89850026
0.0075924154 0.17684402 0.89784592
0.011546561 0.17752837 0.89603335
0.065845795 0.17999481 0.89586663
0.0082340641 0.1815114 0.89925021
0.012400927 0.18198524 0.89745945
0.015722279 0.18250141 0.89590001
0.066735737 0.18264104 0.89659023
0.013675226 0.18681841 0.89862525
0.016846877 0.18735115 0.89651114
0.02405601 0.1881731 0.89513344
0.030745191 0.18824315 0.89546674
0.042429272 0.18988058 0.89533347
0.050793413 0.18993714 0.89560002
0.056647878 0.18829924 0.89573336
0.062523089 0.18755014 0.89613336
0.066438295 0.18731672 0.89634699
0.017624469 0.19171539 0.89709592
0.022420995 0.19179741 0.89650375
0.027440282 0.1918214 0.89661491
0.032458682 0.19183259 0.89666677
0.037477192 0.19184132 0.89670753
0.042254806 0.19231495 0.89669526
0.047478642 0.19254136 0.8960889
0.052727509 0.19201215 0.89653331
0.057537273 0.19181335 0.89657784
0.062642485 0.1920843 0.89784837
0.066265807 0.19208351 0.89590007
0.019129276 0.19650489 0.89896697
0.022458257 0.19545747 0.8980003
0.027482608 0.19545747 0.8980003
0.032542873 0.19566785 0.89896685
0.038381405 0.19552276 0.89830023
0.043125298 0.19662364 0.89823914
0.047570676 0.19709003 0.89782619
0.05262775 0.19700763 0.89840025
0.057643875 0.19634388 0.89823359
0.064327806 0.19545747 0.8980003
0.066839471 0.19628912 0.89798343
0.004050049 0.17771357 0.90120023
0.0057248622 0.17920409 0.90026689
0.0067414241 0.18349342 0.90159351
0.0077616302 0.18712316 0.90292007
0.011451374 0.18821371 0.90170687
0.013304393 0.19212288 0.90195012
0.015836349 0.19473659 0.90240008
0.016964776 0.19705492 0.9027667
0.022536948 0.19866061 0.90116137
0.027584305 0.19869487 0.90131694
0.032656819 0.19887514 0.90213341
0.03742405 0.19830701 0.90118593
0.041556116 0.1988011 0.90053368
0.052768331 0.19941817 0.90080035
0.057825502 0.19947724 0.90106702
0.062661856 0.19802816 0.90114194
0.067054518 0.19943663 0.90088362
0.019224321 0.20000128 0.90343326
0.022595963 0.20170404 0.90353328
0.027650526 0.20168914 0.90346664
0.038303174 0.20271726 0.90305549
0.04275893 0.20310828 0.90230012
0.047564581 0.20275831 0.90167511
0.052877143 0.20235102 0.90266675
0.057651877 0.20239644 0.90361995
0.064731322 0.20172638 0.9036333
0.038635772 0.20606937 0.90425003
0.044570267 0.20705901 0.90490001
0.047922615 0.20639908 0.90446669
0.054696161 0.20537584 0.90490001
0.0057687401 0.18901522 0.90716672
0.0079328017 0.19189499 0.90596676
0.010823453 0.19286144 0.90541673
0.0083150407 0.1976537 0.90808934
0.012538586 0.19751167 0.90743363
0.015894268 0.19881819 0.90570003
0.014255311 0.20205745 0.90890014
0.017400825 0.20274299 0.90723777
0.022661934 0.20397508 0.90615565
0.027725523 0.20392506 0.90593338
0.032794762 0.20308626 0.90595007
0.036171962 0.20391755 0.90590006
0.059765708 0.20371498 0.90500003
0.062853277 0.20320177 0.90571344
0.066608921 0.20315447 0.90625012
0.018913306 0.20751409 0.90873361
0.022698123 0.20767921 0.90760779
0.02776511 0.20759328 0.90722984
0.032838553 0.20757799 0.9071632
0.037314583 0.20794302 0.90630573
0.042585593 0.20826706 0.90576011
0.048424967 0.20856902 0.9059751
0.052872665 0.20756488 0.90618759
0.058170259 0.20741248 0.90644085
0.062348552 0.20747714 0.90820026
0.065125339 0.20718297 0.90913349
0.023305701 0.2125793 0.90931123
0.027560595 0.21246278 0.90846699
0.032890443 0.21213131 0.90860033
0.038190354 0.21234958 0.90798128
0.043005597 0.21272056 0.90750396
0.048083246 0.21271853 0.90749657
0.053197116 0.21286364 0.9081189
0.058074038 0.2126815 0.90824205
0.060891166 0.21311638 0.90920007
0.044805042 0.21661057 0.90966672
0.048206244 0.21664762 0.90982217
0.052451015 0.21665819 0.90986657
0.0083490647 0.20270468 0.91180837
0.01174996 0.20270786 0.911825
0.013299143 0.20657417 0.9131735
0.016548378 0.20782928 0.91073322
0.063497238 0.20994192 0.91009992
0.066954374 0.20759697 0.91094995
0.014339483 0.21090309 0.91426688
0.017509311 0.21250238 0.91291267
0.021065833 0.21335129 0.91019994
0.063087247 0.21328823 0.91234452
0.066149965 0.21218228 0.91391355
0.018600954 0.21599729 0.91423357
0.028121738 0.21736476 0.91193753
0.0086828563 0.20702292 0.91716665
0.01179783 0.20864475 0.91555023
0.0092752408 0.21121722 0.91933334
0.012666007 0.21287771 0.91666675
0.0075664315 0.20881039 0.9200334
0.0080142245 0.21317105 0.9222334
