# .PCD v0.7 - Point Cloud Data file format
VERSION 0.7
FIELDS x y z
SIZE 4 4 4
TYPE F F F
COUNT 1 1 1
WIDTH 916
HEIGHT 1
VIEWPOINT 0 0 0 1 0 0 0
POINTS 916
DATA ascii
0.034477532 0.053722009 0.82493347
0.037894506 0.053277202 0.82398343
0.041805767 0.05303558 0.82381344
0.022681668 0.057812542 0.8249113
0.027238673 0.057234824 0.8246935
0.033054102 0.057032973 0.82399338
0.037459914 0.057415009 0.82287222
0.042002141 0.057327952 0.82163876
0.045227606 0.05830057 0.82457799
0.034474745 0.061389748 0.82486689
0.038538232 0.061839718 0.82404453
0.042079177 0.062028218 0.82315558
0.034675349 0.049400248 0.82966673
0.037740652 0.049361873 0.82902259
0.042073321 0.048748679 0.82909346
0.0021799658 0.053623732 0.82935023
0.0078489706 0.053988319 0.82902247
0.013314244 0.053381879 0.82918704
0.017851867 0.052857012 0.82857162
0.022058014 0.052571692 0.82798326
0.027639452 0.052655447 0.82748669
0.032511782 0.051983889 0.8271482
0.037283134 0.05131676 0.82574672
0.042601146 0.051091969 0.82583326
0.046988346 0.052411675 0.82848912
0.050122537 0.053230572 0.82923353
-0.0055536744 0.058641449 0.82940024
-0.0024595223 0.057855908 0.82920033
0.0021763998 0.05700542 0.82805938
0.0075797867 0.05698745 0.82780004
0.012978245 0.056966621 0.82749623
0.017585868 0.057455491 0.82647264
0.022013213 0.057511434 0.82549638
0.028072948 0.058081508 0.82510018
0.032174904 0.059869837 0.8250668
0.047349472 0.056719881 0.82708567
0.050108436 0.057071071 0.82900029
-0.0059428662 0.061365981 0.82973349
-0.0023046772 0.062018491 0.82916701
0.0021763218 0.062395051 0.82801127
0.0075788866 0.062376421 0.82775831
0.012978964 0.062358845 0.8275277
0.017598953 0.06278348 0.82705319
0.022219798 0.063072488 0.82680726
0.027598575 0.0630311 0.8262555
0.032795586 0.063217267 0.82618332
0.037069235 0.063489117 0.82555562
0.042177025 0.064474188 0.8250668
0.046967316 0.062401645 0.82811356
0.050136641 0.060189128 0.82946688
-0.014312203 0.067351721 0.82900006
0.0021798317 0.066334307 0.82913363
0.0087548075 0.066742882 0.82941687
0.013004165 0.067106515 0.82914478
0.017635444 0.067848116 0.82877803
0.022259476 0.067808606 0.82828909
0.027450079 0.067655846 0.82813352
0.032745291 0.067925848 0.82784003
0.037628248 0.067667268 0.82657021
0.042243682 0.06765157 0.82637036
0.045450646 0.067836843 0.82864475
0.019186532 0.070949942 0.82900035
0.022794088 0.071978003 0.82900041
0.026917515 0.072493352 0.8290152
0.032118663 0.072354548 0.82903075
0.037902042 0.072242573 0.82834184
0.042321172 0.072396055 0.82788885
0.045490272 0.071752988 0.82936686
0.023847805 0.075649187 0.82980019
0.025387229 0.075624891 0.82953352
0.039330006 0.075661354 0.82993346
0.042392436 0.075602621 0.82928914
0.013869107 0.04969795 0.83466649
0.017746974 0.049659569 0.8340221
0.022388568 0.049603999 0.83308905
0.027383888 0.049024258 0.83378661
0.032183904 0.048761923 0.83384752
0.038206488 0.047396403 0.83244002
0.043165453 0.046457075 0.83226663
0.047235321 0.048232697 0.83285832
0.051620573 0.049004067 0.83344001
0.055852126 0.049656276 0.83396661
-0.0065119988 0.053019512 0.83319998
-0.0022759461 0.052878175 0.83281666
0.0021894581 0.051758908 0.8328799
0.007533099 0.052128155 0.83217776
0.012650594 0.051431186 0.83131659
0.01689744 0.050994769 0.83049995
0.023872709 0.051005002 0.8306666
0.025409674 0.050980441 0.83026671
0.053019267 0.052416682 0.83099997
0.057080079 0.05290978 0.83145332
-0.0073158424 0.057064768 0.83173388
-0.0024650339 0.05566588 0.83104438
0.053322051 0.05720124 0.83088875
0.058029156 0.057258561 0.83171546
-0.016413165 0.064937845 0.83100003
-0.0076984558 0.063216753 0.83124363
-0.0032379401 0.064909182 0.83063328
0.048679482 0.064937837 0.83099991
0.052041911 0.062121779 0.83209169
0.057063948 0.061170619 0.83381903
-0.016413167 0.066483662 0.83100003
-0.010261014 0.066014156 0.8348363
-0.0071312538 0.067418344 0.83299255
-0.0022754062 0.067953885 0.832425
0.0021860229 0.068265259 0.83150005
0.0070299059 0.068630353 0.83125001
0.013030581 0.069562279 0.8308444
0.047909323 0.068036094 0.83107775
0.051212128 0.06675411 0.83437759
-0.0015422156 0.072704934 0.83498639
0.0021931322 0.072943829 0.83415532
0.0076329443 0.072898731 0.83363885
0.013059323 0.072816253 0.83269632
0.017497519 0.07289695 0.83140826
0.021286018 0.073652357 0.83048892
0.034725502 0.074200876 0.83086663
0.036272153 0.074194916 0.83079994
0.04759232 0.072916768 0.83133328
0.050448257 0.072983064 0.83462209
0.0037525424 0.076123245 0.83499974
0.0084241983 0.076510042 0.83498311
0.01361036 0.077132426 0.8347109
0.017970191 0.0771458 0.8340475
0.022196027 0.077701814 0.83317488
0.027225865 0.077642515 0.8325333
0.032264646 0.077329285 0.83276361
0.037947308 0.077544272 0.8335619
0.042561546 0.078229435 0.83261114
0.047048829 0.077296741 0.83298331
0.050442878 0.07608071 0.83453327
0.023218606 0.080783039 0.83499974
0.027111826 0.080783039 0.83499974
0.030226398 0.080783039 0.83499974
0.042678952 0.080772288 0.8348887
0.039784923 0.043740965 0.83953327
0.042884242 0.043708548 0.83891124
-0.010287611 0.049836896 0.83700001
-0.008726595 0.049058404 0.83700001
-0.0017061796 0.049953982 0.83896673
0.0027280052 0.04945381 0.83931118
0.0071162605 0.048791431 0.838162
0.01204689 0.048014246 0.83782005
0.017828412 0.047548339 0.83784455
0.022507325 0.047529295 0.83751124
0.027190104 0.04674229 0.83737338
0.03265398 0.046742469 0.83735007
0.037182942 0.045497496 0.83738673
0.041919298 0.045072403 0.83526671
0.04747159 0.045555387 0.8370167
0.052573293 0.04713833 0.83748341
0.055350054 0.046783447 0.83813578
-0.010802853 0.051889893 0.83661908
-0.0079359524 0.052490741 0.83587044
-0.0040338859 0.051271077 0.83499998
0.0022082254 0.050011542 0.8399334
-0.010288429 0.057623785 0.83706671
-0.016531672 0.063849725 0.83700001
-0.011524059 0.062852457 0.83616102
0.056788906 0.063797154 0.83631104
-0.012226899 0.067092605 0.83617228
-0.0071538803 0.069959208 0.83558536
-0.0040338864 0.069910206 0.83499998
0.052910488 0.067712784 0.83663321
0.05688693 0.067024708 0.83774823
-0.010287611 0.073191613 0.83700007
-0.007161214 0.073142618 0.83643097
-0.0036480059 0.073482223 0.83586657
0.052954029 0.072441019 0.83731675
0.056485694 0.071330182 0.8395223
-0.0063854768 0.077868484 0.83706039
-0.0024834771 0.077884443 0.83722961
0.0020045775 0.07801985 0.8365916
0.007265016 0.07835336 0.83599991
0.012066606 0.078768879 0.83559984
0.016991533 0.079239294 0.83509982
0.034901049 0.079236135 0.83506638
0.036458436 0.079236135 0.83506638
0.048988029 0.079349965 0.83626664
0.051146071 0.07791502 0.83755559
-0.005619416 0.081972077 0.83921802
-0.002488333 0.081165709 0.8389557
0.002428679 0.082273327 0.83887631
0.0068916255 0.082435958 0.83797503
0.01235088 0.082562827 0.83728886
0.017812992 0.082546815 0.8371259
0.022267865 0.082966663 0.83687609
0.02718775 0.083345473 0.83733338
0.032843813 0.082652636 0.83676356
0.038090684 0.082506329 0.83671844
0.042778399 0.083295621 0.8368333
0.047536001 0.082648128 0.83814824
0.050745126 0.081221603 0.83953339
0.0084728245 0.085933976 0.8398
0.012376493 0.085852131 0.83900011
0.01786145 0.085893065 0.83940011
0.022549296 0.085858963 0.8390668
0.026934901 0.086497501 0.83920002
0.031945042 0.086501643 0.83924007
0.037712045 0.087071136 0.83870679
0.042335693 0.086827777 0.83836675
0.007339499 0.043612845 0.84461665
0.012187977 0.043450307 0.84401113
0.017970791 0.044000313 0.84451109
0.022704823 0.044017676 0.84484434
0.027776584 0.043546855 0.84335011
0.032433841 0.043334521 0.84380019
0.036814388 0.043147415 0.84322214
0.042851418 0.041849717 0.8434
0.047781039 0.043109123 0.84246683
0.052267086 0.043339107 0.8438881
0.055697694 0.043156862 0.8434
-0.010735506 0.046973202 0.84150004
-0.0076075378 0.047439221 0.84280682
-0.0021069755 0.048204608 0.84250009
0.0022150248 0.047027506 0.84248579
0.0066081607 0.046046134 0.84171999
0.012426386 0.045451935 0.84230012
0.017924229 0.04545613 0.8423779
0.02263 0.045439344 0.84206676
0.026507873 0.045356616 0.84053314
0.03200208 0.045367405 0.84073305
0.052381139 0.045363378 0.84065866
-0.011131071 0.054811746 0.8416667
-0.0064106965 0.05003988 0.84040904
-0.0040618731 0.050062738 0.84079319
-0.016650179 0.059603006 0.84300005
-0.011952437 0.059697274 0.84433341
-0.016112944 0.062166959 0.84233332
-0.012967873 0.063194603 0.84211117
0.058143158 0.073007323 0.84085065
0.053206876 0.0782649 0.8413167
0.056980435 0.076353289 0.84241909
-0.0068186242 0.083440401 0.842242
-0.0024944448 0.083720751 0.84109998
0.0014270071 0.084512457 0.84119976
0.0069098789 0.084411986 0.84019989
0.052252609 0.082840957 0.84277791
0.05580334 0.080178641 0.84499991
-0.0065895901 0.08753299 0.84315145
-0.0025027387 0.087920412 0.84385937
0.0022153924 0.087829165 0.84298539
0.0067289793 0.087931067 0.84208345
0.012408969 0.088421687 0.84116656
0.017900785 0.08843074 0.84125543
0.022596741 0.088387221 0.84084421
0.02768982 0.088766523 0.84073311
0.032004327 0.088773496 0.84079975
0.035907738 0.089121997 0.84039986
0.044010419 0.088610567 0.84048873
0.047738258 0.087698095 0.84172601
0.051619254 0.087575831 0.84357327
-0.00093032554 0.091181673 0.84499991
0.0025357741 0.091787383 0.84478652
0.0074687372 0.092156418 0.84432226
0.012455586 0.092683367 0.84435004
0.017955795 0.092627048 0.84383714
0.022650808 0.092520006 0.8428669
0.02734917 0.092459425 0.84231114
0.032062255 0.092460252 0.84231865
0.037538674 0.092407167 0.84183335
0.043049932 0.09243995 0.84213334
0.047693662 0.092492744 0.84440821
0.051071536 0.091174483 0.84493321
0.018768873 0.09589722 0.84499991
0.022706157 0.095887132 0.84491104
0.027639957 0.096945383 0.84434283
0.032121055 0.097340204 0.84387416
0.037590627 0.097237848 0.84299475
0.043108478 0.097271279 0.84328169
0.046325799 0.095851824 0.84459984
0.03321318 0.10113153 0.84495544
0.037368689 0.10170432 0.84390378
0.041602354 0.10188026 0.84464431
0.054385964 0.034695756 0.84747064
0.055935435 0.034676488 0.84700006
0.044116974 0.039429605 0.8475669
0.04808886 0.039445627 0.84791136
0.052984618 0.038032189 0.84718353
0.056237899 0.037372053 0.84561431
-0.011173907 0.043239854 0.84500003
-0.0072597507 0.042604644 0.84800005
0.0025438545 0.043537382 0.84774685
0.0066566141 0.041653313 0.84792012
0.012755916 0.041497577 0.84688884
0.018039545 0.041800719 0.84771127
0.022798978 0.041831959 0.84834474
0.027204728 0.041637529 0.84760016
0.031860746 0.041390512 0.84738338
0.037007358 0.041008908 0.84762239
0.040989503 0.0410401 0.84826684
0.047966432 0.040917534 0.84573323
0.053077448 0.041300017 0.84551668
0.055809647 0.040886663 0.8450954
-0.011961875 0.045597646 0.84500003
-0.0064609274 0.046494074 0.84703338
-0.0028306576 0.046365775 0.84756011
0.00064576312 0.045608453 0.84519988
-0.01353781 0.061316274 0.84500003
0.058241617 0.078705989 0.84606659
0.054248825 0.08256916 0.84533322
0.057205468 0.082401551 0.84629995
-0.0056581325 0.089609817 0.84500003
0.053943373 0.087428153 0.84671676
0.057581052 0.086768575 0.84794825
-0.0027084851 0.093135811 0.84667504
0.00183019 0.094075516 0.84628332
0.0059001255 0.093823709 0.84519982
0.049507439 0.09434028 0.84513324
0.052510817 0.092702799 0.84694457
0.056111522 0.090104707 0.84966683
-0.0056840107 0.097125687 0.84886473
-0.0022017288 0.096989051 0.84905368
0.0022290119 0.097825915 0.84808171
0.0069644367 0.097688831 0.84689641
0.012484184 0.097617619 0.84627771
0.017791433 0.098115206 0.8466953
0.02275298 0.098449372 0.84666675
0.02667723 0.09915036 0.84593332
0.048214074 0.097854674 0.84663343
0.052020073 0.097763129 0.84754467
0.0069836881 0.1011129 0.84920031
0.012187017 0.10178567 0.84916216
0.018069418 0.10189911 0.84916693
0.023215404 0.10149807 0.84911704
0.027766356 0.10212307 0.84820968
0.031708151 0.10293552 0.84685564
0.035318974 0.10376478 0.84506661
0.043856926 0.10288528 0.84558666
0.047893666 0.10234417 0.84794194
0.052113235 0.10188688 0.84906703
0.033362407 0.1063233 0.84875584
0.037009146 0.1072436 0.84770387
0.042543724 0.10724229 0.84769469
0.046574466 0.10584366 0.84913355
0.038653195 0.11057362 0.84906697
0.041025318 0.11056495 0.84900033
0.045008473 0.11062571 0.84946698
0.05185426 0.034272768 0.85264671
-0.0088690845 0.037991408 0.8506667
0.0070140772 0.039685469 0.85306668
0.013099386 0.039107863 0.85203332
0.018369097 0.03852779 0.85256666
0.022719299 0.038282514 0.85277909
0.027658978 0.038495872 0.85185236
0.03242458 0.038835514 0.85184437
0.03717047 0.038813177 0.85135555
0.041646518 0.038683873 0.85200006
0.047571562 0.037293181 0.85282087
0.051381804 0.036383327 0.8500666
-0.0066639581 0.043476593 0.85274667
-0.0023289763 0.043013461 0.85222888
0.0018412124 0.041599948 0.85165823
0.054602504 0.093395017 0.85084432
0.058035843 0.092105672 0.85173333
0.061189167 0.09296678 0.85418576
-0.006496707 0.099828884 0.85172224
-0.002920198 0.099330381 0.85084158
0.05459537 0.098130442 0.85073322
0.057659589 0.097182676 0.85124838
0.061080355 0.09676794 0.85266668
-0.0061112675 0.10279225 0.85329998
-0.0025296195 0.10314105 0.8528949
0.0022395803 0.10302509 0.85193324
0.0070005562 0.10373729 0.8512888
0.013027018 0.10415734 0.85083997
0.018108062 0.10449059 0.85097766
0.022547303 0.10383592 0.85079992
0.026824776 0.1044442 0.8506
0.049843259 0.10447694 0.85086656
0.053671755 0.10356577 0.8511799
0.057956994 0.10268329 0.85349631
-0.0025353581 0.10707548 0.85476357
0.0024734356 0.10761531 0.85423815
0.0070233941 0.10804088 0.85401481
0.012588372 0.10796093 0.85337502
0.018139198 0.10784527 0.8524555
0.022891544 0.1077634 0.85181105
0.027643727 0.10770926 0.85138875
0.031854484 0.10815623 0.85075545
0.048045468 0.10776202 0.85180551
0.052401524 0.10800973 0.8537634
0.056446131 0.10654169 0.85473353
-0.005718396 0.1128047 0.85400003
0.0078230808 0.11126818 0.85440016
0.013078491 0.1115549 0.85416001
0.018174613 0.11202504 0.85411119
0.022951756 0.11281125 0.85404819
0.027728491 0.11280385 0.8539927
0.032472115 0.11268552 0.85308522
0.037013173 0.11278384 0.85232913
0.042154916 0.1128962 0.85126179
0.046987634 0.11287152 0.85300684
0.022963127 0.11604526 0.85446674
0.032539878 0.1160996 0.85486686
0.037517909 0.11713368 0.85412389
0.042050991 0.11753634 0.85374814
0.046021596 0.1175108 0.8535586
0.038343094 0.03360372 0.8598668
0.043157369 0.033606328 0.8599335
0.047149431 0.033594172 0.8596223
0.050746989 0.032435425 0.85719496
-0.0068841418 0.038522474 0.85745066
-0.0025425504 0.039069306 0.85697204
0.0026528963 0.039467294 0.85696679
0.0070578777 0.038330831 0.85826659
0.011530893 0.037344027 0.85762674
0.017596683 0.036040712 0.85697347
0.023421856 0.035470132 0.8566668
0.027822305 0.035717327 0.85688007
0.032636676 0.035898913 0.85741132
0.037402228 0.035869036 0.85668898
0.042195965 0.035869226 0.85668904
0.046950575 0.035044953 0.85600024
-0.0073567759 0.041575518 0.85933334
-0.00413134 0.041374207 0.85517251
0.061307203 0.090758651 0.85583335
-0.0073282393 0.10351492 0.85600007
0.061312631 0.10111578 0.85590911
-0.0057304241 0.10826609 0.85579634
-0.0025377886 0.10877816 0.85564595
0.001451587 0.10983717 0.85563362
0.054933321 0.10988425 0.8560003
0.058497429 0.10711364 0.8567602
-0.0057250923 0.11134632 0.85500002
-0.0025402538 0.11235589 0.8566305
0.0022520693 0.11316131 0.8566891
0.0068148929 0.11357657 0.85639066
0.011828281 0.11385504 0.85592246
0.017410209 0.11462101 0.85570025
0.051755596 0.11310177 0.85624474
0.055868439 0.11175063 0.8581
-0.00094573916 0.11506306 0.85900003
0.0022575106 0.1166881 0.85920012
0.0070613041 0.11741338 0.85865545
0.011860996 0.11736476 0.85829991
0.017446788 0.11805692 0.85752231
0.023004306 0.11804666 0.85600853
0.027811736 0.11792351 0.8565557
0.032581341 0.11803856 0.85595036
0.036567051 0.11941491 0.85583365
0.048549142 0.11785007 0.85602885
0.0514329 0.11795785 0.85846663
0.055172931 0.11516128 0.8597334
0.019899368 0.12156781 0.8598001
0.023301553 0.12253324 0.85855234
0.027880996 0.12280978 0.85869163
0.03267077 0.12295593 0.85831851
0.037423808 0.12279356 0.85718524
0.042163625 0.12262891 0.85603732
0.047000758 0.12275098 0.85688901
0.050293695 0.12298983 0.8585555
0.033125043 0.12675366 0.85971683
0.037923425 0.12671445 0.8594501
0.042310048 0.12704976 0.85901117
0.046817183 0.12694699 0.85940009
0.033677984 0.028127421 0.8636167
0.037690479 0.028116276 0.8632834
0.042519953 0.028116399 0.8632834
0.047374155 0.028130481 0.86371684
0.05060675 0.028940303 0.86390018
-0.0073838858 0.033706646 0.86250007
0.013558933 0.033784803 0.86450011
0.017548623 0.032905512 0.86255431
0.022926709 0.032527503 0.86167628
0.028229475 0.032551493 0.86230963
0.032829721 0.032100309 0.86249632
0.037383169 0.031606171 0.86149532
0.042212196 0.031612903 0.86167616
0.04728505 0.031284302 0.86207777
0.05131641 0.030490737 0.86230016
-0.006581719 0.035330683 0.86297917
-0.0025572723 0.036891226 0.86193341
0.001944581 0.037519887 0.86166668
0.0074160085 0.036277499 0.86261338
0.011905645 0.035274219 0.86159998
0.015894223 0.035208706 0.86000019
0.060159922 0.1090847 0.8622666
0.05769847 0.11219738 0.8615334
0.060340267 0.11102051 0.86485189
-0.0057585724 0.11679676 0.86000001
-0.0027581763 0.11724463 0.86181587
0.0022610072 0.11800117 0.86003351
0.0070727132 0.1199963 0.86000019
0.011884447 0.1199963 0.86000019
0.053598586 0.11842406 0.86020011
0.056339808 0.11750648 0.86286008
-0.0015945 0.12169713 0.86298168
0.0022656445 0.12187472 0.86196291
0.007083606 0.12258788 0.86134452
0.011906174 0.12262245 0.86158895
0.017161019 0.12256205 0.86036199
0.022310764 0.12480046 0.86003351
0.027923563 0.12479562 0.86000019
0.053053904 0.12216787 0.86177337
0.055822898 0.12170174 0.86358345
-0.00095155294 0.12702458 0.86428094
0.0022716306 0.12604442 0.86417353
0.0069013555 0.12673628 0.86367935
0.012164243 0.12646697 0.86360496
0.017551957 0.12679233 0.86269456
0.023146544 0.1281932 0.86132604
0.027929446 0.12802301 0.86018533
0.032419436 0.12897503 0.86013353
0.037257187 0.12906143 0.86070693
0.042383511 0.12967187 0.8605113
0.047606282 0.12928754 0.86061668
0.052131083 0.12728803 0.86243701
0.055485245 0.12546307 0.86460012
-0.00095207314 0.13111529 0.86475337
0.019993493 0.1301775 0.86386681
0.023192689 0.13165911 0.86304444
0.028330475 0.13223727 0.86262006
0.032844 0.13243382 0.86285561
0.037668232 0.13242161 0.86277789
0.042680979 0.13297558 0.86246669
0.047284167 0.1331134 0.86205935
0.051933348 0.13174738 0.86362243
0.038556278 0.13512087 0.86465025
0.042556215 0.13609244 0.86401129
0.047046021 0.13720733 0.86360681
0.051179469 0.13563353 0.86450022
0.0039080353 0.029131243 0.86960012
0.0071500111 0.029122313 0.86933327
0.012014878 0.029126033 0.86944437
0.016865075 0.02845419 0.86869335
0.022249468 0.028004233 0.86811852
0.028143264 0.028230341 0.86678344
0.031339519 0.028196996 0.86575013
-0.0058071185 0.033892278 0.86725003
-0.0023433145 0.032759253 0.86775672
0.0022847424 0.032343559 0.86898512
0.0071408451 0.032319352 0.86834806
0.011788345 0.032094505 0.86774164
0.016817184 0.030629426 0.86622238
0.022750637 0.030642787 0.8666001
0.02729773 0.030607423 0.86560017
-0.0025708028 0.03547319 0.86646026
0.0022782634 0.035488468 0.86683345
0.0055122566 0.035488468 0.86683339
0.058858465 0.11368781 0.8667835
0.06055351 0.11383497 0.86790812
-0.0058020963 0.11929138 0.86650002
0.058856577 0.11771408 0.86675566
0.061206438 0.11820283 0.86797345
-0.0058188364 0.12125207 0.86900002
-0.0037836246 0.12294863 0.86671782
0.058202416 0.12285648 0.86663353
0.061393563 0.12277484 0.8683334
-0.0032204241 0.12714824 0.86731833
0.002276737 0.12848186 0.86597514
0.0087311072 0.12879877 0.8654002
0.011160502 0.12889552 0.86605018
0.057479873 0.12767096 0.86730421
0.060604118 0.12685648 0.86863339
-0.002169006 0.13279073 0.86780953
0.0022812756 0.13236943 0.86769331
0.0071374062 0.13239257 0.86784446
0.011996748 0.13243997 0.86815566
0.016838199 0.132314 0.86732602
0.021990901 0.13346489 0.86642677
0.026497137 0.13369006 0.86580014
0.053997383 0.13300791 0.86660016
0.056157436 0.13212773 0.86875832
-0.00095711573 0.13585271 0.86933333
0.0022848714 0.13583881 0.8692444
0.0071485131 0.13623901 0.86921656
0.012417709 0.13624667 0.86926663
0.016873563 0.1372377 0.86914158
0.02252713 0.1373266 0.86842221
0.028153658 0.13712072 0.8671149
0.033002686 0.13710596 0.86702228
0.037615772 0.13754213 0.86687148
0.042247523 0.13814336 0.86595017
0.049074996 0.13844165 0.86530024
0.05296585 0.1376937 0.86734456
0.055795431 0.13667721 0.86943328
0.024170499 0.14068796 0.86923325
0.02822304 0.14149658 0.86923337
0.033081695 0.14228392 0.86910367
0.037938315 0.14226072 0.86896294
0.042764753 0.14214568 0.86825556
0.047584578 0.14202914 0.86754072
0.051447213 0.14119272 0.86902213
0.038278367 0.1462004 0.86931992
0.042815283 0.14635308 0.86926657
0.046862766 0.14633615 0.86916661
0.013654607 0.027545253 0.8706001
0.017446892 0.026470726 0.8707779
0.063356675 0.11729668 0.87083799
0.064016409 0.12314841 0.87097746
-0.0042078025 0.12963226 0.87100005
0.062369432 0.12755695 0.87065846
0.058554161 0.13333252 0.87188005
0.061455581 0.13210392 0.87305552
-0.0015046628 0.13909757 0.87277776
0.0022911038 0.13864316 0.87162256
0.0071616741 0.13868247 0.87085354
0.011709778 0.1386845 0.87086689
0.016905844 0.13932167 0.8708002
0.05811739 0.13827822 0.87298077
0.06266591 0.13670753 0.87480557
-0.00096269388 0.14152417 0.87440002
0.0022975884 0.14146972 0.87406349
0.0076437616 0.14267819 0.87292373
0.012047691 0.14273222 0.87183708
0.016909664 0.1425942 0.87100023
0.021582268 0.14281195 0.8710919
0.026975399 0.14386176 0.8708269
0.053190991 0.14314003 0.87103349
0.057471249 0.1427718 0.87332487
0.063014254 0.14267546 0.8739785
0.0088239219 0.14643738 0.87460005
0.012078228 0.14715599 0.87403321
0.016960457 0.14769575 0.87361646
0.021519255 0.14690027 0.87347984
0.027884442 0.14689326 0.87316185
0.033180062 0.1475752 0.8717038
0.037614897 0.14864455 0.87085021
0.042895157 0.149056 0.87088913
0.048437186 0.14814429 0.87124002
0.052567262 0.14759685 0.87303323
0.056673009 0.14698543 0.87463325
0.062540121 0.14780079 0.87304431
0.034074903 0.15117964 0.87379986
0.038127527 0.15190642 0.8732999
0.043014448 0.15272152 0.8733111
0.047694687 0.15250871 0.87325835
0.051249195 0.15136419 0.87486666
0.062740386 0.13361107 0.87584007
0.062110484 0.13724642 0.87617081
-0.002057971 0.14316428 0.87780374
0.0023044215 0.14352526 0.87668777
0.0055641886 0.14324899 0.87500006
0.059429999 0.14490977 0.87520003
0.06209866 0.14113185 0.87600547
-0.0017885738 0.14724189 0.87940341
0.0023079668 0.14701618 0.87805569
0.0066620163 0.14729083 0.87645012
0.012092925 0.14977671 0.87510008
0.016989328 0.14977673 0.87510002
0.021888107 0.14925121 0.87520003
0.025178432 0.14831814 0.8761
0.030047052 0.14978243 0.8751334
0.054533217 0.14979385 0.87520003
0.058269624 0.14832664 0.87615013
0.061159927 0.14677286 0.87660009
0.0025157365 0.15190573 0.87917495
0.0072201509 0.151903 0.87797797
0.012123468 0.15260427 0.87731677
0.017034082 0.15261917 0.87740022
0.02219017 0.15235995 0.87792397
0.026866259 0.15188423 0.8778705
0.032011684 0.15279192 0.87683344
0.03741058 0.15474863 0.87560004
0.05332629 0.15267889 0.87680686
0.057697497 0.15169364 0.87865335
0.061327387 0.15126255 0.87899995
0.0034065053 0.15602481 0.87973309
0.0074626277 0.15651305 0.87897146
0.012134013 0.15682118 0.87808162
0.017058846 0.15692756 0.87867409
0.021985222 0.15699621 0.87905914
0.026920537 0.1571001 0.87964422
0.031786248 0.15682347 0.8780964
0.037474357 0.15745954 0.87708759
0.043162897 0.15732449 0.87633342
0.04835666 0.15715501 0.87733811
0.052600175 0.15648673 0.87926102
0.012981435 0.16043715 0.87999976
0.015443257 0.16043715 0.87999976
0.027752329 0.16043715 0.87999976
0.03207086 0.16151269 0.87948555
0.037060142 0.16170804 0.87889326
0.04270421 0.16206317 0.87912726
0.04775257 0.16168532 0.8791523
0.043343838 0.16534807 0.87999982
0.046626251 0.16534807 0.87999976
-0.0009708479 0.15256259 0.88180619
0.00067298388 0.15403409 0.88082749
0.059258591 0.15347189 0.88073319
0.062310342 0.15411669 0.88129985
0.001769221 0.15798753 0.88155085
0.0064186659 0.15885732 0.88031638
0.054323975 0.15836672 0.88062197
0.057814505 0.15738742 0.88256198
0.062381398 0.15593463 0.88231039
0.0031505642 0.16127893 0.88461679
0.0076750424 0.16141699 0.88311672
0.012192268 0.1627524 0.88218886
0.017337071 0.16272587 0.88241243
0.022058502 0.16244826 0.88201845
0.026740575 0.16280754 0.88143331
0.031053249 0.16381031 0.8805331
0.049993761 0.16317034 0.88150001
0.052820675 0.16214219 0.88163805
0.055655625 0.16288273 0.8843891
0.022129035 0.16625629 0.88483351
0.02744811 0.16640316 0.88342506
0.032161407 0.16730911 0.88277918
0.036844555 0.16728407 0.88156658
0.041965149 0.16762671 0.88121653
0.047622602 0.16742685 0.88109046
0.051734447 0.16730881 0.88314444
0.036966037 0.17112541 0.88447791
0.041924477 0.17116411 0.88467789
0.046820618 0.17097491 0.88370007
0.061835457 0.15828246 0.88626665
0.065297544 0.15866478 0.88840711
0.0019172777 0.16283852 0.8863861
0.0069572008 0.16419196 0.88612652
0.010579786 0.16464755 0.88503349
0.057717618 0.16327164 0.88649994
0.061784085 0.16198772 0.88849986
0.067015223 0.16377123 0.88921422
0.0023354285 0.16693142 0.88842213
0.0073005953 0.16762941 0.88774425
0.012456941 0.16801061 0.88648731
0.017206857 0.16818151 0.88629973
0.02217038 0.1690414 0.88648862
0.026782071 0.16909529 0.88590658
0.030390413 0.16960569 0.88513345
0.052724171 0.16975898 0.88593328
0.057192955 0.16722795 0.8874951
0.060416892 0.16717695 0.88973331
0.0033332356 0.17173174 0.88932008
0.0073111015 0.17200051 0.88899994
0.012040627 0.17236269 0.88842851
0.017238818 0.17262261 0.88794428
0.022201471 0.17257945 0.88772207
0.027148625 0.17245573 0.88708854
0.032322414 0.17267217 0.88638073
0.03704574 0.17396896 0.88638872
0.042017475 0.1740178 0.8866387
0.046961371 0.17360505 0.88633317
0.052001413 0.17257404 0.8876943
0.056043081 0.17162894 0.88878667
0.0089786286 0.17549178 0.88993353
0.012701804 0.17575087 0.88915002
0.017500525 0.17653283 0.88921916
0.02223419 0.17696908 0.88903701
0.027202677 0.17693222 0.88885182
0.031953562 0.17705759 0.8884415
0.037101474 0.17753337 0.88772202
0.04205076 0.17745745 0.88734418
0.047031641 0.17751978 0.88765532
0.051842254 0.17649485 0.88902861
0.027631484 0.18074679 0.88931668
0.032186747 0.18112755 0.88915557
0.037162695 0.18113208 0.8891778
0.042369984 0.18146768 0.88908565
0.047109336 0.18194628 0.8891148
0.043823242 0.18538275 0.88973343
0.046306875 0.18536191 0.88963342
0.063759468 0.16227251 0.89006674
0.065926678 0.1624992 0.89131486
0.062649898 0.16744108 0.89113826
0.066311143 0.16739641 0.8908999
0.05841836 0.17277923 0.89088351
0.062072184 0.17249826 0.89264178
0.066460826 0.17192723 0.8929103
0.0040105004 0.17597818 0.89240015
0.0073407399 0.17767508 0.8925764
0.011992753 0.17854044 0.89192694
0.016463134 0.17897348 0.89078355
0.053003527 0.17894334 0.89063358
0.057251617 0.17757881 0.89209652
0.061310489 0.17698668 0.89470023
0.014025274 0.18216202 0.89423364
0.017543109 0.18251851 0.89292115
0.022293644 0.18242039 0.89142609
0.026939714 0.18335161 0.89112014
0.032258321 0.18401675 0.89113355
0.037242044 0.18400528 0.891078
0.041367263 0.18387565 0.89045012
0.052232262 0.18246181 0.89162987
0.056271333 0.18187098 0.89416695
0.018200003 0.18637592 0.89450026
0.022700533 0.18700846 0.89434034
0.027346099 0.18701093 0.89355588
0.03235219 0.18704659 0.8937282
0.037331607 0.18694353 0.8932336
0.042276062 0.18753767 0.89210504
0.047465175 0.18785253 0.89135259
0.051368356 0.18759729 0.89397365
0.044049822 0.19133212 0.89433366
0.047354922 0.19120853 0.89375585
0.064122453 0.17485204 0.89513332
0.065826192 0.17494321 0.89560014
0.0056939134 0.17990106 0.89539999
0.063694417 0.17798454 0.8969335
0.066825375 0.17704561 0.89780855
0.0073725902 0.18265295 0.89664453
0.011541194 0.18244036 0.89559996
0.015707655 0.18482909 0.89506686
0.057925642 0.18337505 0.89610004
0.062169529 0.18183832 0.89791453
0.0073890844 0.18722488 0.89857048
0.012394818 0.18689466 0.89698529
0.016975615 0.18792106 0.8959167
0.020717135 0.18817309 0.89513361
0.029088115 0.18999369 0.89586663
0.032425616 0.18997012 0.89575559
0.038259175 0.18990175 0.89543349
0.040744282 0.18980984 0.89500034
0.05358113 0.18828569 0.89566678
0.057604853 0.18702517 0.89761448
0.061922636 0.18575484 0.8995502
0.0090751443 0.19243751 0.89950025
0.012410368 0.19129555 0.89806694
0.01741348 0.19189915 0.89697784
0.022424771 0.19183095 0.89665931
0.027234975 0.19205534 0.8967334
0.032470345 0.19273549 0.89698905
0.037242763 0.19233964 0.89680958
0.042135704 0.19273216 0.8962
0.047471743 0.1933459 0.89595556
0.052561063 0.19223471 0.89725018
0.05656096 0.19116585 0.89876693
0.019108705 0.19545747 0.8980003
0.022462239 0.19549374 0.89816689
0.027487583 0.19549374 0.89816689
0.03252542 0.1955663 0.89850026
0.037986696 0.19606626 0.8988753
0.042552486 0.19711731 0.8979485
0.047521058 0.19688508 0.89688903
0.050973017 0.19646123 0.89876699
0.043724921 0.20126967 0.8990891
0.047274552 0.20126283 0.89856023
0.067885853 0.17930362 0.90076691
0.064531937 0.18350977 0.9008503
0.067093439 0.18278356 0.90140176
0.059475139 0.18932226 0.90060031
0.063152835 0.18835792 0.90170968
0.066301614 0.18711472 0.90206885
0.0076958183 0.19265606 0.90182805
0.012456697 0.1945256 0.9014225
0.054448348 0.19439133 0.90080035
0.058198757 0.19323128 0.90164012
0.062684596 0.19223545 0.90326673
0.0074304133 0.1975231 0.90362769
0.01247701 0.19736172 0.90288883
0.017505208 0.1976542 0.90166682
0.022553278 0.1988017 0.90180016
0.027600938 0.19881636 0.90186685
0.032652613 0.19885075 0.90202236
0.037334315 0.19886889 0.90134686
0.053287111 0.19812369 0.90144306
0.056293488 0.19748449 0.90345001
0.017560106 0.20023744 0.90450007
0.023448521 0.20178592 0.90390003
0.027654298 0.20171893 0.90359998
0.032742828 0.2019273 0.90453339
0.037741914 0.2024402 0.90306664
0.042153444 0.20345055 0.90133905
0.048192959 0.20421341 0.90162522
0.051804543 0.20226248 0.90352219
0.039447654 0.20506564 0.90353328
0.042833056 0.20682263 0.90386659
0.04702282 0.20671205 0.90338331
0.0057572937 0.19369262 0.9053669
0.064841174 0.1936498 0.90516675
0.06655816 0.19205002 0.90555936
0.0057632271 0.19557817 0.90629995
0.059201073 0.19768658 0.9066869
0.06282258 0.1972554 0.90736228
0.066214524 0.19719459 0.90856695
0.0074548777 0.20237859 0.90655202
0.012527287 0.20237011 0.90651131
0.017346196 0.20271863 0.90591913
0.022230031 0.20346288 0.9057501
0.027720487 0.20388754 0.90576673
0.032781627 0.20385002 0.90560007
0.054252822 0.20357829 0.90688914
0.057263207 0.2023944 0.90813363
0.060908906 0.20133689 0.90946674
0.0078990078 0.2067256 0.90898359
0.012551675 0.20784003 0.90831143
0.017621409 0.20769244 0.90766704
0.022678422 0.20750129 0.90682983
0.027753687 0.20750675 0.90685207
0.032820422 0.20746432 0.90666687
0.037657648 0.20754214 0.90608764
0.042907283 0.2088654 0.90543342
0.04839614 0.20844446 0.90543342
0.052975036 0.20754087 0.90792537
0.055846844 0.20820326 0.90989995
0.013835464 0.21269025 0.9091835
0.017631778 0.2128828 0.9082005
0.022713678 0.21288811 0.90822262
0.027798543 0.21291088 0.90831882
0.032877486 0.21289165 0.90823746
0.037750933 0.21270257 0.90832943
0.043021634 0.21280061 0.90784478
0.048092246 0.21275878 0.90766692
0.052017868 0.212813 0.9097082
0.024445685 0.21660262 0.9096334
0.065196969 0.19979146 0.9101333
0.058400892 0.20484804 0.91003329
0.062288962 0.20295504 0.91103321
0.065473936 0.20234042 0.91400015
0.0074850121 0.20825659 0.9101333
0.057869267 0.20779137 0.91056657
0.061465535 0.2068191 0.91232383
0.0087820645 0.21180469 0.91265011
0.011448495 0.21282852 0.91037774
0.053371716 0.21356222 0.91109997
0.057076626 0.21242744 0.9125917
0.060385391 0.21178091 0.91438347
0.0092268167 0.21606818 0.91453362
0.012611946 0.21733728 0.91271436
0.017695656 0.21789189 0.91148335
0.02245276 0.21804094 0.91140002
0.063968167 0.20894136 0.91685009
0.0075332648 0.21385892 0.91600031
