# .PCD v0.7 - Point Cloud Data file format
VERSION 0.7
FIELDS x y z
SIZE 4 4 4
TYPE F F F
COUNT 1 1 1
WIDTH 1019
HEIGHT 1
VIEWPOINT 0 0 0 1 0 0 0
POINTS 1019
DATA ascii
0.034474745 0.053717669 0.82486689
0.037548237 0.053713329 0.82480013
0.013496489 0.05805416 0.82381672
0.017657381 0.057850599 0.82256663
0.022130635 0.058221459 0.82346672
0.026015712 0.057558358 0.82493347
0.033934649 0.056997374 0.82421112
0.037269231 0.056490947 0.8242889
0.01384137 0.062533312 0.82374668
0.017515365 0.062790245 0.82309628
0.022138836 0.062841006 0.82377052
0.025757847 0.063437276 0.824889
0.016015396 0.065998316 0.82493347
0.037750643 0.049375106 0.82924467
0.042379141 0.049361873 0.82902259
0.0088698911 0.052903239 0.82814449
0.013205947 0.052814092 0.82790476
0.017610211 0.052354112 0.82760739
0.022047386 0.052545048 0.82757503
0.027448814 0.052525725 0.82809085
0.032514106 0.051987782 0.82720745
0.03760409 0.051817026 0.82602853
0.042248622 0.052283589 0.82645911
0.046961565 0.05238251 0.8280223
0.050501473 0.052451208 0.82910013
0.0085000675 0.05726565 0.82736671
0.011799722 0.056479499 0.82599998
0.016786005 0.05526102 0.82500017
0.022173136 0.055265486 0.82506686
0.027782282 0.057575043 0.8251763
0.031936556 0.058113053 0.82553339
0.037576862 0.058361214 0.8254267
0.042247403 0.056894977 0.82643694
0.046987318 0.057035524 0.82847422
0.050124556 0.056318186 0.82926685
0.0085216714 0.062290378 0.82777035
0.01179379 0.063364655 0.82560003
0.028165214 0.062785879 0.82528901
0.033010732 0.06306687 0.82673317
0.037802 0.062777743 0.82697976
0.042351678 0.062430277 0.82847792
0.04548661 0.060948644 0.82930028
0.0099043809 0.067057356 0.82853353
0.012982176 0.067764066 0.82774079
0.017775543 0.067839339 0.8263166
0.022199148 0.067624405 0.82603699
0.027613239 0.067676641 0.8266831
0.033032015 0.06772311 0.82725167
0.037722781 0.067834653 0.82861507
0.041618295 0.067116529 0.82926691
0.014037392 0.071487136 0.82926685
0.017639842 0.072491035 0.82898551
0.022246253 0.072389379 0.82781482
0.027627617 0.072328575 0.82712752
0.033067327 0.072415747 0.82811856
0.037435345 0.071576081 0.82910699
0.019203503 0.075643137 0.82973349
0.022283528 0.075978793 0.82918358
0.026533928 0.07597287 0.82911694
0.031556349 0.07557831 0.82902259
0.0099808853 0.049713828 0.8349331
0.013388986 0.049026638 0.83382666
0.017347058 0.049240172 0.83350003
0.022386344 0.049598705 0.83300012
0.027075283 0.048874464 0.83387774
0.032496776 0.048842516 0.83334154
0.038313471 0.047664724 0.83306664
0.042541523 0.047227919 0.83219999
0.04721475 0.048018232 0.83250362
0.051879544 0.048799727 0.83259994
0.057121437 0.049031142 0.83464736
0.003750145 0.053566232 0.83446658
0.0063282051 0.052143425 0.8324222
0.012247602 0.050980426 0.83026677
0.023872713 0.051004991 0.83066672
0.053490125 0.052538507 0.83048332
0.058148179 0.052724518 0.83341491
0.062919348 0.051262893 0.83486646
0.067183927 0.053361855 0.83369005
0.0037485471 0.057422668 0.83411098
0.0052821282 0.057184506 0.83064431
0.052540421 0.057193663 0.83077502
0.056372758 0.057414901 0.8339889
0.067574263 0.05590852 0.83466673
0.0037486469 0.060527742 0.83413315
0.0059092417 0.062830433 0.8317467
0.047316059 0.062416479 0.83086663
0.051904105 0.061995957 0.83299255
0.055921607 0.060590629 0.83499974
0.007737475 0.067759633 0.83312374
0.043114975 0.068671405 0.83127993
0.047091052 0.067363173 0.83336294
0.050459005 0.065234773 0.83479989
0.0091903321 0.072924085 0.83393317
0.012517708 0.073188297 0.83106661
0.038253855 0.073894873 0.83176661
0.042590667 0.072855696 0.83314067
0.046836216 0.071979322 0.83497757
0.0094612604 0.076630883 0.83488864
0.01306593 0.077504605 0.83313328
0.017509487 0.077588588 0.83195841
0.022348706 0.078290209 0.83161324
0.02731885 0.078310676 0.83182669
0.032738101 0.077993095 0.83283693
0.0375783 0.076418705 0.83398324
0.042684674 0.076123245 0.83499974
0.014026645 0.082003713 0.83477318
0.017758809 0.082295328 0.83457756
0.022407971 0.082219772 0.83380741
0.026788717 0.081368193 0.83462656
0.031005042 0.080783039 0.83499974
0.018546753 0.085442789 0.83499974
0.021661317 0.085442789 0.83499974
0.057772353 0.04372707 0.83926672
0.06167388 0.043328185 0.83910704
0.0037708157 0.049959939 0.8390668
0.0068888324 0.048322763 0.83777034
0.011827267 0.047244135 0.83704442
0.018118624 0.047335736 0.83683997
0.022471018 0.047452495 0.83615541
0.027209109 0.045998324 0.83800006
0.032197323 0.046448581 0.83767998
0.038100269 0.04619832 0.83691114
0.042786878 0.045165945 0.83699989
0.047484029 0.04517914 0.83724445
0.052181929 0.046123661 0.83745325
0.057891183 0.046215586 0.83722961
0.062982529 0.047427263 0.83570546
0.066161267 0.0474713 0.83648312
0.0025926842 0.052605774 0.83771724
0.062960349 0.053044677 0.83540815
0.066928878 0.051352125 0.83631992
0.0022058415 0.057761759 0.83902663
0.059154082 0.057599172 0.83666658
0.062804371 0.057812501 0.83749616
0.066520944 0.057560708 0.83610117
0.0037570358 0.062996127 0.83599997
0.057082795 0.062762924 0.83733338
0.062644772 0.062283803 0.83877587
0.066251114 0.062339962 0.83761913
0.0037699176 0.067114182 0.83886671
0.0058371671 0.068458445 0.8362444
0.048923593 0.069147408 0.83516645
0.052108828 0.067424275 0.83627415
0.056033932 0.06681262 0.83901346
0.0037741128 0.07031209 0.83979994
0.0059950538 0.072796226 0.83756196
0.047648177 0.073583663 0.83555537
0.052222867 0.07250917 0.83810681
0.055433549 0.070278592 0.83940005
0.007557027 0.078147642 0.83767617
0.038375746 0.078712985 0.83610648
0.04278465 0.078636892 0.83695549
0.047481343 0.077881508 0.8371926
0.051206585 0.076965533 0.83853334
0.0084694615 0.081996322 0.83946681
0.011117944 0.082743511 0.83686668
0.027513968 0.083539657 0.83538306
0.032935761 0.082801804 0.83655989
0.038125489 0.082579285 0.83745921
0.042346764 0.082171232 0.83858895
0.046836134 0.081231274 0.83963335
0.013335873 0.087102629 0.83788335
0.017587367 0.087649822 0.83700001
0.022692416 0.087557532 0.83611411
0.027153073 0.087128215 0.83625913
0.03218184 0.087075606 0.83725327
0.037004672 0.087177396 0.83860844
0.014737774 0.090620525 0.83979994
0.018242268 0.09091562 0.83891678
0.022516757 0.091191955 0.83786678
0.027021194 0.091816224 0.83822507
0.031623084 0.091158673 0.83900023
0.035073776 0.090555795 0.83920014
0.0069369921 0.04395169 0.84357792
0.012601569 0.043635719 0.84354687
0.017962808 0.043981787 0.84415561
0.022675322 0.043962106 0.84377784
0.027381243 0.043152064 0.84331101
0.032100532 0.043545149 0.84331685
0.037136264 0.043628052 0.84340018
0.043407269 0.043293085 0.84298676
0.047602467 0.042537801 0.84280831
0.052545082 0.042562701 0.84329164
0.056977715 0.041874241 0.84239995
0.060301945 0.041509319 0.84179991
0.0027371722 0.047550347 0.84246665
0.0069190003 0.045403372 0.84139985
0.012401022 0.045362007 0.84063315
0.017890045 0.045368601 0.8407554
0.022594189 0.045368601 0.84075546
0.032793764 0.04537819 0.84093308
0.036703784 0.045365002 0.84068871
0.05236901 0.045353007 0.84046662
-0.0019759412 0.053580191 0.84282327
0.00095675944 0.051982295 0.84150469
-0.0013231004 0.057724476 0.84418452
0.00064483908 0.058104392 0.84399056
0.0015837752 0.06298244 0.84204894
0.060177784 0.064083658 0.84006667
-0.00092944456 0.069110096 0.84420013
0.0014284757 0.067410611 0.8425951
0.058254257 0.067640021 0.84056646
0.061902303 0.067380756 0.84219998
0.065741606 0.067140177 0.84310675
-0.00092895847 0.070643522 0.84375876
0.0020182761 0.072314605 0.84264171
0.057363477 0.072247609 0.84186661
0.061525624 0.071729779 0.84422225
0.0037902906 0.075320162 0.84339994
0.0053428938 0.078160241 0.84020007
0.052962113 0.078029819 0.8415888
0.057104621 0.076734066 0.84384167
0.060531147 0.075463049 0.84499991
0.0074479785 0.083028644 0.84202224
0.044052351 0.084000021 0.84128875
0.047990493 0.083496727 0.84221917
0.052347355 0.082298696 0.8437143
0.0085111624 0.087893337 0.84360009
0.010449113 0.088044852 0.84129989
0.039331745 0.088664152 0.84099978
0.043103404 0.087848604 0.84317046
0.047433604 0.087741211 0.8442952
0.012691285 0.09249258 0.84261501
0.017583061 0.093260966 0.84106654
0.022582615 0.093801998 0.84031099
0.028856803 0.093819357 0.84046656
0.032398257 0.093471482 0.84084988
0.037774697 0.092599295 0.84229106
0.04263936 0.092160672 0.84436661
0.013771114 0.096895963 0.84456658
0.017954472 0.097328559 0.84377044
0.022645978 0.097202174 0.8426742
0.027337043 0.097116753 0.84193349
0.032073364 0.097192995 0.84260017
0.036840986 0.097332336 0.84380752
0.040560886 0.096401006 0.84482211
0.018768873 0.10061287 0.84499991
0.023100302 0.10099591 0.84491658
0.027421938 0.10134587 0.84455544
0.032131463 0.10129558 0.84413338
0.036486998 0.10097408 0.84473324
0.054488409 0.034761094 0.84906679
0.056574732 0.034219529 0.84869713
0.044934288 0.039452866 0.84806687
0.048494063 0.039057605 0.84806681
0.05299883 0.038041446 0.84740859
0.057483122 0.037805561 0.84653765
0.060559817 0.039328799 0.84540015
0.0025438115 0.043542914 0.84785348
0.0069677327 0.041778851 0.84727782
0.012383464 0.041656036 0.84706676
0.018030988 0.041781742 0.84733343
0.022774778 0.041787963 0.84745574
0.027507221 0.04098741 0.84717792
0.032229125 0.041592777 0.8466934
0.037295382 0.041607812 0.84700012
0.041975576 0.04149932 0.84691119
0.049515244 0.040894959 0.84526658
0.052680559 0.040904623 0.84546673
-0.00093344494 0.048115149 0.84783345
0.0011717862 0.04617681 0.84602219
-0.0019865213 0.050956156 0.84697658
-0.0025143963 0.059150282 0.84774292
0.00064582872 0.058192212 0.84528589
-0.0009319298 0.062995665 0.84645748
0.00064574322 0.061328888 0.84517395
-0.0017233579 0.067775592 0.84714788
0.067948043 0.068715304 0.84577781
-0.0018805737 0.072787069 0.84677392
0.063207872 0.07342542 0.84566659
0.066977799 0.072473735 0.84679645
-0.00093455298 0.076596498 0.84884
0.0022293166 0.076996729 0.84802663
0.05906222 0.078749411 0.84653348
0.062477123 0.077446386 0.84734184
0.066770576 0.076377727 0.8481735
0.0057814219 0.082750931 0.84720016
0.054253083 0.083361775 0.84540004
0.057498183 0.081919439 0.8467409
0.061889086 0.081631325 0.84921139
0.0063328808 0.087936297 0.84705341
0.049509391 0.088841438 0.84516656
0.05288082 0.087608464 0.84636378
0.057406548 0.086607292 0.84830022
0.0081455931 0.092528641 0.84653342
0.010103617 0.093561709 0.84519982
0.04428627 0.093885653 0.84575552
0.048002068 0.092905261 0.8463704
0.052660741 0.092715822 0.84876209
0.056102719 0.090090565 0.84953362
0.0085599301 0.097076401 0.84843355
0.011170798 0.098171242 0.84653336
0.043113194 0.098024294 0.84677786
0.04762103 0.097400874 0.8489669
0.051373739 0.096457094 0.84993345
0.01349216 0.10231604 0.8477084
0.017777776 0.10276205 0.84604758
0.022424262 0.10326854 0.84614658
0.027488669 0.10395306 0.84660006
0.032182481 0.10381663 0.84548873
0.037252959 0.10325372 0.8460266
0.041951843 0.10192052 0.84770018
0.045012005 0.10273294 0.84953362
0.014906246 0.10587692 0.84940034
0.018255962 0.10716461 0.84864199
0.022794291 0.10730438 0.84818542
0.027347485 0.10712789 0.84835029
0.03228958 0.10731798 0.84828919
0.037058633 0.10643431 0.8488003
0.019666381 0.11066044 0.84973359
0.022822769 0.11059678 0.84924477
0.025995232 0.11061703 0.84940034
0.048468146 0.03498764 0.85460007
0.052150473 0.033729564 0.85295033
0.0038421219 0.039772294 0.85493356
0.0054342519 0.03975524 0.85456681
0.012581165 0.039681196 0.85297501
0.018467501 0.039044656 0.85294664
0.022911223 0.038526028 0.85252857
0.02763438 0.03880224 0.85111111
0.032416757 0.038825173 0.85161662
0.037218478 0.038863409 0.85246664
0.04198401 0.038860153 0.8524
0.047522668 0.037254464 0.85193324
0.051407993 0.036401872 0.85049999
-0.0015771233 0.043202486 0.85359335
0.0018406293 0.041586641 0.85138321
-0.0021293825 0.047146566 0.85169989
-0.0041161235 0.051521961 0.85202277
-0.0033157023 0.06210795 0.85045838
-0.0033250405 0.066634998 0.85271788
-0.0041104918 0.072029084 0.85085714
-0.0025271324 0.076091483 0.85203713
0.0022374955 0.07758797 0.85106665
0.067739658 0.078806832 0.85140622
0.0038240952 0.082324207 0.85092217
0.063589796 0.083364457 0.8507778
0.066533446 0.082352854 0.85122132
0.003830387 0.087214768 0.85232216
0.005405636 0.085403226 0.85006678
0.059364546 0.088649184 0.85086662
0.062690936 0.087278888 0.85292959
0.067542113 0.087381065 0.85394073
0.070696704 0.08813706 0.85357141
0.0062045255 0.092617646 0.85097504
0.053791672 0.094946802 0.85056663
0.058128364 0.092252426 0.8530792
0.062006328 0.09061373 0.8544668
0.069139473 0.091358542 0.85400003
0.0075368527 0.098290958 0.85213327
0.049319718 0.099211328 0.85095549
0.053116001 0.098326944 0.85243809
0.056950834 0.095897175 0.8543334
0.0080826096 0.10165769 0.85377789
0.010578766 0.10339916 0.85175824
0.042684395 0.10443192 0.85049999
0.047519952 0.10301782 0.85187912
0.051849965 0.10282373 0.85403824
0.012838494 0.10784906 0.85250002
0.016520159 0.10923383 0.85093325
0.029186405 0.10912257 0.85006684
0.037130956 0.10877833 0.85046673
0.041941576 0.10772428 0.85150737
0.046375368 0.10778584 0.85379058
0.013916691 0.11221427 0.85353333
0.017914653 0.11263902 0.85124159
0.022859367 0.11314712 0.85060006
0.027831277 0.1126117 0.85103738
0.03242819 0.11253056 0.8519147
0.03725367 0.11271012 0.85327035
0.041663833 0.11160901 0.85396677
0.014997499 0.11606336 0.85460007
0.018400719 0.11712234 0.85403818
0.022914363 0.11738697 0.85265553
0.027708959 0.1174842 0.85336667
0.032509562 0.11757978 0.85406673
0.035699766 0.11759517 0.85417777
0.023275115 0.12141551 0.85422677
0.027742395 0.12160078 0.85441118
0.019900912 0.03360372 0.8598668
0.022301221 0.033595905 0.85966682
0.047149841 0.033594165 0.8596223
0.051109746 0.031965755 0.85883337
-0.0023463902 0.038526118 0.85819179
0.0017214078 0.038566507 0.85763341
0.0073730126 0.038940661 0.85766679
0.012384783 0.037237275 0.85763341
0.017125374 0.036376841 0.85742009
0.02303255 0.035724226 0.85704011
0.027838605 0.035897281 0.85737801
0.032644734 0.035907615 0.85762239
0.037422497 0.035888657 0.85715562
0.042211723 0.035882708 0.85701114
0.045868728 0.035561707 0.85566694
-0.0057558925 0.043187197 0.85960007
-0.0037414343 0.042660564 0.85703337
-0.0057545481 0.04717445 0.85939884
-0.0041414797 0.04785556 0.85727161
0.0014526974 0.079712227 0.85688341
0.0014539905 0.082937278 0.85726047
0.001855863 0.087436527 0.85839117
0.0032160184 0.092299201 0.85830748
0.0054476061 0.094034173 0.8566668
0.063140981 0.092819594 0.85596222
0.067239955 0.092584148 0.85588598
0.0054536122 0.097329073 0.85761112
0.05869475 0.097736381 0.85652238
0.062536664 0.096852981 0.85809994
0.067505725 0.096237831 0.85855001
0.0022609816 0.10399864 0.85999995
0.0060887849 0.10237481 0.85712242
0.054347564 0.10288259 0.85515594
0.058065146 0.10196592 0.85803336
0.061591361 0.10077565 0.85980022
0.0075144493 0.10675568 0.85827559
0.010229133 0.10905049 0.85570025
0.048536178 0.10906276 0.85580027
0.052003261 0.10722543 0.85656208
0.055617351 0.10592604 0.85833341
0.0086692236 0.11110331 0.8592667
0.011521803 0.11351422 0.85696012
0.042482771 0.1140279 0.85602695
0.046800788 0.11298947 0.8569001
0.05144291 0.11159254 0.85863811
0.012062081 0.1175866 0.85846668
0.016221883 0.11906563 0.85618353
0.038176093 0.11786294 0.85612255
0.042249568 0.1180895 0.85776299
0.047113609 0.11692166 0.85895562
0.013486264 0.12157723 0.8598668
0.01777471 0.12258086 0.85792673
0.022616148 0.12388003 0.85643351
0.027802387 0.12425383 0.85626698
0.032592427 0.12265871 0.85624474
0.037453305 0.12288547 0.85782957
0.041124921 0.12270329 0.85935009
0.019902457 0.12638561 0.8599335
0.023054816 0.12768763 0.85792607
0.02782823 0.12755851 0.85705948
0.032473631 0.12755594 0.8583833
0.037124261 0.12671933 0.85948342
0.024692742 0.13107263 0.85919994
0.027895024 0.13105905 0.85911113
0.031128969 0.13118444 0.8599335
0.0070946366 0.028896756 0.86260003
0.011935877 0.028930079 0.86359483
0.018375508 0.02852704 0.86355007
0.023197323 0.028113248 0.8631556
0.028043428 0.028130217 0.86369258
0.032541029 0.028279191 0.86334676
0.037730664 0.028949982 0.86418909
0.042574912 0.028957054 0.86440021
0.047405973 0.028953331 0.8642891
0.051125214 0.028394019 0.86360264
-0.0057639284 0.033640213 0.86080009
-0.0025535056 0.033650517 0.86106378
0.0022658377 0.032877699 0.86180001
0.007093044 0.032099996 0.86244065
0.011915479 0.032091774 0.86222959
0.017319795 0.031938106 0.86202723
0.02338483 0.031610314 0.86160946
0.027979739 0.032072123 0.86171854
0.032827944 0.032097951 0.8624298
0.037612274 0.032063052 0.86148894
0.042459004 0.032082662 0.86203718
0.047321241 0.031308275 0.86273891
0.051325276 0.030495711 0.86244059
-0.010617235 0.038578764 0.86381817
-0.0071804547 0.037097372 0.86205333
-0.0029529389 0.035625584 0.86041355
0.0025838497 0.035876609 0.86067998
0.0070833098 0.036060665 0.86125559
0.010822655 0.035767447 0.86062235
-0.010613106 0.041775942 0.86348248
-0.007916769 0.042242099 0.86207932
-0.010628655 0.045859084 0.86474746
-0.0076534934 0.048149068 0.86254501
-0.0068487008 0.051890414 0.86248571
-0.0009480014 0.08330474 0.86105514
-0.0009508034 0.087565571 0.86360002
0.00065762718 0.088876225 0.86072832
0.0010600293 0.093389452 0.86173809
0.0022647781 0.097829252 0.8620187
0.064342082 0.098763503 0.86084443
0.068435974 0.098696329 0.86118668
0.0024929973 0.10210542 0.86138433
0.062912613 0.1027666 0.86140829
0.067872472 0.10282101 0.86219329
0.07145001 0.10432112 0.86266667
0.0030733927 0.10755215 0.8628338
0.0054766499 0.10815334 0.86123401
0.057418797 0.10790039 0.8613444
0.061634768 0.10739765 0.86320424
0.067562535 0.10613869 0.86440015
0.0070904731 0.11228704 0.8622179
0.053650498 0.11293291 0.8610332
0.056805417 0.11221455 0.86320436
0.060280833 0.11091115 0.8640002
0.0078988736 0.11716908 0.86273891
0.010280537 0.11919641 0.86000019
0.047176152 0.11921018 0.86010015
0.052087661 0.11703074 0.8617149
0.055426419 0.11649431 0.86368358
0.0080636004 0.12171972 0.86314666
0.011893224 0.12302466 0.86066675
0.015894223 0.12479562 0.86000019
0.043341547 0.12357342 0.86040008
0.047447283 0.12199125 0.86137497
0.051335346 0.12196431 0.86260003
0.0087094158 0.12607032 0.86325002
0.011714767 0.12693191 0.86228335
0.017294545 0.12826048 0.86080003
0.034339193 0.12959486 0.86000019
0.037912007 0.12910554 0.86100006
0.042222943 0.12781844 0.86188573
0.047351152 0.12687957 0.8632853
0.051168282 0.12595738 0.8643114
0.013009253 0.13068986 0.86371118
0.017898094 0.13230237 0.86274767
0.022951586 0.13322948 0.8615126
0.027971916 0.13382603 0.86148888
0.032801498 0.13279742 0.86174446
0.037350196 0.13227478 0.86286676
0.041765459 0.13104919 0.86431682
0.019998897 0.13503493 0.86410016
0.023525562 0.13717976 0.86343348
0.028026756 0.13764361 0.86317158
0.032892525 0.13584399 0.8641336
0.017620994 0.028208811 0.86608344
0.034657296 0.027461937 0.86796665
0.038214613 0.026811892 0.86786002
0.042757198 0.026657732 0.86809444
0.047255524 0.026799465 0.86746007
-0.012678729 0.042353071 0.86708337
-0.012291904 0.046447806 0.86825168
-0.0090198256 0.049902219 0.865125
-0.01067396 0.05170894 0.86843348
-0.0090379063 0.052421473 0.86685896
0.063635878 0.10953169 0.86580008
0.06697493 0.10890643 0.86723346
0.071243256 0.10749218 0.86666673
0.0038907996 0.11113773 0.8657648
0.0055135353 0.11291356 0.86703455
0.058757737 0.11429731 0.86530018
0.062367268 0.1132139 0.86778754
0.067603953 0.11298645 0.86936843
0.057743873 0.11802854 0.86736673
0.06103861 0.11762252 0.86904997
0.067184553 0.11652756 0.86993343
0.0071226056 0.12406487 0.86606681
0.053931374 0.12237961 0.8655408
0.056858234 0.12249007 0.86795241
0.0076660416 0.12737603 0.86667794
0.052954063 0.12798554 0.86715835
0.05572056 0.12680307 0.86826658
0.0087714624 0.13101143 0.86940002
0.011665331 0.1326727 0.8675667
0.015190541 0.13365917 0.86560017
0.039396763 0.13362829 0.86540014
0.043244835 0.13280767 0.86704445
0.047613993 0.13242805 0.86807781
0.052535087 0.13178129 0.86914438
0.013226936 0.13704194 0.8691833
0.016842548 0.1371935 0.86757785
0.020584837 0.13804196 0.86615568
0.033395402 0.13826543 0.8667168
0.037889481 0.13723339 0.86782962
0.042799234 0.13740784 0.86894065
0.04670972 0.13714674 0.86933339
0.017074272 0.14207163 0.86904162
0.022514949 0.14209521 0.86794442
0.028137483 0.14207561 0.86659598
0.03305193 0.14215203 0.86829633
0.037402596 0.14173883 0.86906654
0.04201784 0.14073649 0.8695333
0.018510042 0.14564477 0.86986667
0.022892816 0.14620696 0.86908561
0.0282207 0.14714301 0.86915559
0.032761894 0.14618237 0.86921322
0.036347114 0.1456113 0.8696667
-0.012320495 0.048583664 0.87033343
-0.012326787 0.05022829 0.87077779
0.065612361 0.11418761 0.87060016
0.063356593 0.11859328 0.87084019
0.067265943 0.11849155 0.87098777
0.059113134 0.12389541 0.87053359
0.062199645 0.12296686 0.87112522
0.067324363 0.12244466 0.87173343
0.071069911 0.12219089 0.8728165
0.05801307 0.12830582 0.87141913
0.062531859 0.12775414 0.87292564
0.067274228 0.12658572 0.87372899
0.071296744 0.12573409 0.87393332
0.0079904422 0.13314065 0.87275839
0.010413628 0.13451353 0.87113357
0.052650079 0.13449979 0.87104464
0.05739728 0.13265781 0.87262851
0.062620573 0.1309166 0.87416661
0.0084086834 0.13737507 0.8738749
0.011066851 0.13812563 0.87142676
0.048990261 0.1381333 0.87096691
0.052692402 0.13784999 0.87173343
0.056648567 0.1366217 0.87425566
0.0088272868 0.14161049 0.8749333
0.012044403 0.1427049 0.87167412
0.01527946 0.14415914 0.87066686
0.039101209 0.14364143 0.8708002
0.043120675 0.14301828 0.87076205
0.047775909 0.14260022 0.87103724
0.052571766 0.14273481 0.87309581
0.012610554 0.14730501 0.87331104
0.016706895 0.14766026 0.87101686
0.02137203 0.14863594 0.8708002
0.025006959 0.14892668 0.8701334
0.033552133 0.14863291 0.87078351
0.038261186 0.14777701 0.87170011
0.04274752 0.14742538 0.87201667
0.047868356 0.14693324 0.872711
0.051190607 0.14631453 0.8738665
0.016951887 0.15270644 0.87322956
0.021808632 0.15249799 0.87203711
0.027493507 0.15245265 0.87177795
0.033032391 0.15248689 0.8731333
0.036508724 0.15113351 0.87353319
0.018616438 0.1562465 0.87486666
0.021857789 0.1560917 0.87399989
0.025939394 0.15612739 0.87419999
0.069302671 0.12877627 0.87620008
0.072044581 0.1282651 0.87641668
0.06310086 0.13302991 0.87630016
0.067713007 0.13212439 0.87677419
0.071403489 0.13255247 0.87690842
0.0072023794 0.13767311 0.87576663
0.058904432 0.13738941 0.87708014
0.063024379 0.13748871 0.87979972
0.0681573 0.13729569 0.87987477
0.071818903 0.13703723 0.87899989
0.0088279592 0.14324899 0.87500006
0.054539446 0.14492632 0.87530011
0.057973947 0.14208078 0.87783706
0.061397176 0.14243053 0.87999982
0.0088528488 0.14610232 0.8774668
0.01129286 0.14917526 0.8763501
0.044744797 0.14981095 0.87530005
0.048037913 0.14989652 0.87580007
0.053348243 0.14784613 0.87716675
0.05707103 0.14686319 0.87909317
0.011898151 0.15238619 0.8780762
0.034954112 0.1547133 0.87540013
0.038252432 0.15294528 0.87615007
0.043201428 0.15256536 0.87708902
0.048168305 0.15275428 0.87817788
0.052491903 0.15147273 0.8792733
0.012345976 0.1567191 0.87865412
0.016699875 0.15761442 0.87704021
0.021902859 0.1580403 0.87578893
0.027470317 0.15812129 0.8762334
0.031724334 0.15814433 0.8763631
0.03783631 0.15710887 0.87786686
0.043307099 0.15702771 0.87923694
0.047592614 0.1564472 0.87965316
0.012980914 0.16043109 0.87996638
0.017070368 0.16112602 0.87928873
0.022183891 0.16165762 0.8788417
0.026674621 0.16196513 0.87829596
0.031784188 0.16252868 0.87803358
0.036511175 0.16158918 0.87847507
0.042521715 0.16043107 0.8799665
0.023102241 0.16589373 0.87999982
0.026923949 0.16612063 0.87975526
0.031512376 0.1659252 0.87958652
0.035137776 0.16534807 0.87999976
0.0012237435 0.11778054 0.88337183
0.0039740987 0.12091937 0.88430011
0.0056227376 0.12666349 0.88420689
0.003971979 0.13811727 0.88382846
0.0056016366 0.13765837 0.88088876
0.066335864 0.13918824 0.88019979
0.07288564 0.13915659 0.88000005
0.0068582073 0.14266819 0.8840028
0.063983262 0.14270814 0.88171118
0.068089969 0.1427007 0.88166291
0.071359485 0.14184126 0.88142109
0.0072780428 0.14652683 0.88496667
0.059417978 0.14793035 0.88106656
0.062232636 0.14743812 0.88253337
0.069089524 0.14635573 0.88393342
0.0089212852 0.1538095 0.88425004
0.054067425 0.15322804 0.88089991
0.057459302 0.15187107 0.88253337
0.0080776131 0.15756689 0.88226146
0.010522011 0.15883628 0.88019973
0.048282105 0.15802971 0.88026643
0.051893562 0.15778694 0.88233757
0.055069085 0.15619792 0.88379997
0.0088997064 0.16082211 0.88211107
0.012182463 0.16264276 0.8815999
0.017098673 0.16385168 0.88075536
0.020368429 0.16372351 0.88006634
0.038423114 0.16372351 0.88006645
0.041747317 0.16306596 0.88093311
0.046988964 0.16282466 0.88295001
0.050951749 0.16113915 0.8838501
0.013861117 0.16605584 0.88376677
0.017373467 0.16704193 0.88276672
0.021488281 0.16774426 0.88111645
0.026956456 0.16877536 0.88079983
0.032310795 0.16844733 0.88122493
0.036890276 0.16748992 0.8826524
0.041566081 0.1667719 0.88407344
0.018831359 0.17122002 0.88496685
0.0220745 0.17078145 0.88270015
0.027019627 0.17122345 0.8828584
0.0319652 0.17083949 0.88300008
-0.009264579 0.094233468 0.88860005
-0.0076088202 0.09672413 0.88870054
-0.003184458 0.097428143 0.8875742
-0.010926746 0.10089073 0.88900006
0.00067769986 0.11386368 0.88700002
-0.0059393649 0.11881365 0.88700002
-0.0021611885 0.11747234 0.88755524
0.00067617174 0.11525321 0.88500005
-0.0020834762 0.1217409 0.88828975
0.0018588036 0.12235071 0.8870002
-0.0009783851 0.12564723 0.88865221
0.0026658294 0.12624809 0.88822395
0.0056466381 0.13380906 0.8879658
0.0031555798 0.13685367 0.88627625
0.0031609808 0.14243278 0.88766074
0.0056304885 0.14413217 0.88542593
0.071649224 0.14488608 0.88500005
0.0034364176 0.14585634 0.88756514
0.0068771453 0.14844111 0.88656801
0.063429989 0.14990391 0.88546675
0.066404469 0.14760156 0.88548678
0.070030347 0.14824556 0.8854
0.007625246 0.15246943 0.88698655
0.056826506 0.15485111 0.88549978
0.061877351 0.15261625 0.88686651
0.066939622 0.15202147 0.88820732
0.070905432 0.15233083 0.88808739
0.057481322 0.15733053 0.88709444
0.061792176 0.15665485 0.88905716
0.067032404 0.15554093 0.88944441
0.070336185 0.15550984 0.88926667
0.0089406213 0.16320993 0.88616663
0.010598914 0.16494516 0.88663334
0.051901922 0.16345559 0.88600546
0.056784377 0.16169845 0.88805002
0.012806415 0.16774255 0.88688898
0.016367691 0.16970149 0.88563329
0.038638484 0.16958013 0.88500017
0.042425677 0.16946192 0.88653314
0.046768293 0.16802722 0.88657475
0.052228272 0.16723576 0.88753313
0.055370945 0.16697325 0.8886444
0.013935531 0.17190711 0.888511
0.017220706 0.17327107 0.88703781
0.022146568 0.17380299 0.8855446
0.027102772 0.17397341 0.88557339
0.032068536 0.17386879 0.88587779
0.037039347 0.17311397 0.88622952
0.042079657 0.17262013 0.88793308
0.04733235 0.17244771 0.8888666
0.051754069 0.17103639 0.88914669
0.05543879 0.17048708 0.88973343
0.017006656 0.17728379 0.88824749
0.022389529 0.17800373 0.88698298
0.027144846 0.17820594 0.88696265
0.03187317 0.17774568 0.88701868
0.037098829 0.1775177 0.88764423
0.041914787 0.17672363 0.88884157
0.047134954 0.17542607 0.88959998
0.018364517 0.18082006 0.889
0.021993237 0.18236801 0.8888666
0.027192766 0.18265392 0.88853329
0.032378938 0.18207492 0.88873327
0.036687601 0.18171775 0.88915241
0.040495411 0.18037698 0.88953334
0.023068383 0.18527856 0.88923341
0.027212908 0.18609655 0.88918883
0.032194525 0.18530403 0.8893556
-0.0076249018 0.099421501 0.89065284
-0.0026450693 0.099549577 0.89180011
-0.010951327 0.10277513 0.89100003
-0.0076400852 0.10293172 0.89234662
-0.0032014276 0.10242707 0.89278746
-0.0076611671 0.10655305 0.89488888
-0.0043205265 0.10648689 0.8943333
-0.0026514775 0.11325144 0.89356405
-0.0059761927 0.11789015 0.89250004
-0.0043038465 0.11684712 0.8908807
-0.0026520889 0.12476361 0.89416671
-0.0009825431 0.12784125 0.89242846
0.0019285529 0.12909816 0.89250916
0.0033468474 0.1325932 0.89312851
0.0015119361 0.13728891 0.89179933
0.0015099226 0.14156571 0.88999999
0.062967576 0.15905631 0.8906002
0.06714426 0.15828545 0.89092249
0.071316898 0.1583277 0.89116001
0.058779556 0.16392826 0.89006698
0.062212273 0.16256526 0.89166683
0.066762947 0.16229713 0.89323372
0.071417622 0.16104172 0.89242148
0.05797122 0.16730177 0.89039475
0.061787978 0.16734044 0.8935504
0.012327579 0.1725961 0.8920669
0.052603327 0.17360768 0.89088345
0.057309538 0.17277765 0.89301449
0.013581702 0.17725363 0.89255011
0.043839667 0.17882945 0.89006674
0.047205597 0.17817517 0.89093351
0.052090861 0.17750351 0.89276272
0.055739947 0.17723775 0.89456695
0.016982347 0.18285453 0.89193356
0.038881537 0.18307187 0.89056683
0.042291101 0.18262136 0.89240986
0.047370475 0.18129182 0.89404482
0.050732933 0.18139096 0.89453369
0.018340457 0.18744354 0.89324033
0.0220623 0.18791763 0.89165741
0.027275577 0.18901102 0.89123362
0.032271679 0.1882333 0.89147234
0.037082043 0.18735404 0.89221692
0.041529443 0.18625782 0.89393365
0.01903352 0.19136068 0.89446706
0.022343686 0.19113959 0.89343375
0.027284762 0.19073312 0.89153361
0.03233004 0.19106352 0.89307803
-0.0015427558 0.10440158 0.89547223
-0.0073883398 0.10802305 0.89557332
-0.0026568929 0.1080754 0.8960104
0.00068457617 0.10835207 0.89600003
-0.0065596327 0.11173808 0.89641953
-0.0021007538 0.11060105 0.89622229
0.0006853402 0.11014159 0.89700007
-0.0065575466 0.11558101 0.89605498
-0.00322017 0.12745178 0.89747787
-0.002185971 0.13221572 0.89797795
0.0011017547 0.13371615 0.89564204
-0.0021832949 0.13685884 0.89713198
0.00068387581 0.13821173 0.89508337
-0.0018220008 0.14001998 0.89600003
0.068306126 0.16405329 0.89526665
0.071680017 0.16329813 0.89569217
0.063306585 0.16907451 0.89540005
0.06779559 0.16723725 0.8963905
0.071645752 0.16660604 0.89735234
0.059140529 0.17493019 0.89553338
0.062808529 0.17231658 0.89679062
0.067492202 0.17192283 0.89831275
0.071109965 0.17143673 0.89905024
0.011150427 0.17747089 0.8978585
0.058379125 0.17765227 0.89665854
0.062341888 0.17614728 0.89834023
0.066061378 0.17556831 0.89880008
0.013069538 0.18229973 0.89736682
0.044112206 0.18493922 0.89560002
0.04744865 0.18325497 0.89551115
0.053052902 0.1822734 0.89614445
0.057437737 0.1819399 0.89826691
0.014087486 0.18547609 0.89820027
0.01573983 0.1868773 0.89690012
0.039110027 0.18997955 0.89579999
0.042863201 0.18786851 0.89566666
0.047489401 0.18674761 0.89628148
0.052376892 0.18683034 0.89767939
0.055972561 0.18549675 0.89830029
0.017135719 0.1919176 0.89707232
0.022401245 0.19329798 0.89573336
0.027406001 0.19324522 0.89548892
0.032434713 0.19335552 0.89599997
0.037472188 0.19264595 0.89657235
0.042503897 0.19188337 0.89690375
0.04736983 0.19190563 0.89798772
0.051524654 0.19113748 0.89863354
0.018694989 0.19677094 0.89827514
0.022442712 0.19699827 0.89740396
0.027450966 0.19690138 0.896963
0.03250419 0.19710948 0.89791131
0.037076477 0.19701664 0.89857656
0.042611852 0.19571139 0.89916688
0.024154538 0.20064741 0.89880013
0.027499676 0.20058791 0.89853358
-0.0043503176 0.1289975 0.9005
-0.0043549668 0.13165103 0.90146261
-0.0043479018 0.13562255 0.90000004
0.073784754 0.16929391 0.90100014
0.0091252523 0.17499277 0.90446669
0.069529757 0.17418665 0.9003002
0.073464803 0.17297764 0.90148103
0.0085617146 0.17721617 0.90436673
0.063275695 0.17891122 0.90090036
0.067965508 0.17783639 0.90181923
0.072004341 0.17699963 0.9032557
0.0091236411 0.18169077 0.90430695
0.010772246 0.18272991 0.9011336
0.05943552 0.18417354 0.90000027
0.062755316 0.18279132 0.90247089
0.066379838 0.18145475 0.90313327
0.012467594 0.18800415 0.90231431
0.054446332 0.18935733 0.90076703
0.057899017 0.18770134 0.90220004
0.06140602 0.18673566 0.90430003
0.012819178 0.19191916 0.90336674
0.015821723 0.19455674 0.9015668
0.049419295 0.19443448 0.90100032
0.053167444 0.19327983 0.90186691
0.056885201 0.19170177 0.90392226
0.014184211 0.19516096 0.90436667
0.016685648 0.19819295 0.90285003
0.03931085 0.19849257 0.90040028
0.042699646 0.19863193 0.90103364
0.047566108 0.19772893 0.90169191
0.051224478 0.19658928 0.90319991
0.019207299 0.20150311 0.90263337
0.022551844 0.20270248 0.90173894
0.027592083 0.20378274 0.90157241
0.032643396 0.20298831 0.9017669
0.037699211 0.20304418 0.90201497
0.04277882 0.20235829 0.90270001
0.04787378 0.20114343 0.90353328
0.022615822 0.20523964 0.90430003
0.027684471 0.20699038 0.90460008
0.032743882 0.20697515 0.90453339
0.037776243 0.20682263 0.90386671
0.041158561 0.20519425 0.90410006
0.0074654273 0.17400713 0.90810364
0.0026310228 0.17802045 0.9088816
0.0064418381 0.17711136 0.90670717
0.073379055 0.17873235 0.90636677
0.0030644394 0.18210822 0.90806472
0.0066080615 0.1821072 0.90637463
0.068604209 0.18233034 0.9058134
0.072263852 0.18257855 0.90752417
0.0084697409 0.18687204 0.90659058
0.063532166 0.18737462 0.90576011
0.067172766 0.18760617 0.90734321
0.071815506 0.18749364 0.90797073
0.0091512492 0.19236399 0.90704328
0.010831024 0.19299588 0.90605021
0.05916832 0.19252019 0.90618694
0.062514 0.19259797 0.90814477
0.06680204 0.19275345 0.90887427
0.071862906 0.19269027 0.90857804
0.013665832 0.19748394 0.90731126
0.05364212 0.19777997 0.90608901
0.057773601 0.19734716 0.90778595
0.061775845 0.19773026 0.90973878
0.065187424 0.19637665 0.90999991
0.014272044 0.20144756 0.90996671
0.017043693 0.20304652 0.90702796
0.04840894 0.20344368 0.90566677
0.053170819 0.2026245 0.90765214
0.057071514 0.20253223 0.90913343
0.018474413 0.20777194 0.90801138
0.022418365 0.20780909 0.90607154
0.02772744 0.20899613 0.90600008
0.032796543 0.20899613 0.90600008
0.037841406 0.20886542 0.90543342
0.043149315 0.20753616 0.9060626
0.048070334 0.2075966 0.90724468
0.052123886 0.20689057 0.90908903
0.019349867 0.21230268 0.90933335
0.022706887 0.21283132 0.90797806
0.027748754 0.21253277 0.90670395
0.032816704 0.21249798 0.90655571
0.037905127 0.21258861 0.906941
0.042828407 0.21267848 0.90822524
0.048161935 0.2113713 0.90896684
0.024436278 0.21736547 0.9092834
0.027801944 0.21752541 0.90843838
0.032895137 0.21759303 0.90871924
0.037161931 0.21655899 0.90945005
0.004091992 0.17447278 0.91053337
0.0066561271 0.17325939 0.91306525
0.0023990944 0.17570344 0.9125334
0.0023929609 0.18295142 0.91058755
0.0066428063 0.18811961 0.91100001
0.011731729 0.19730942 0.91040015
0.061833832 0.19989391 0.91059989
0.067338966 0.19773011 0.91155338
0.071751811 0.19735382 0.91255844
0.013454095 0.2019181 0.91210008
0.058480036 0.20343046 0.91126662
0.062205262 0.20248957 0.91248101
0.066620611 0.20180516 0.91413909
0.014315262 0.20715255 0.91272235
0.0159785 0.2074939 0.91049993
0.05248506 0.20917542 0.91044998
0.057091512 0.20755097 0.91234297
0.061623573 0.20611338 0.91376686
0.014347847 0.21102615 0.91480029
0.016695114 0.21255632 0.91260016
0.048269589 0.21353877 0.91099995
0.052781951 0.21256895 0.91265345
0.056091923 0.21081465 0.91388351
0.019001305 0.21697325 0.91296685
0.021951992 0.2179614 0.91177505
0.07243479 0.19933181 0.91580015
0.012096002 0.20349126 0.91663343
0.06847991 0.20396423 0.91620016
0.07171119 0.20225346 0.91745824
0.011834152 0.20673105 0.91839993
0.062189955 0.20842475 0.91583365
0.067121513 0.20729609 0.91787326
0.071854979 0.20522383 0.91929996
0.013369945 0.21279237 0.91801995
0.057305731 0.21343935 0.91576672
0.062356163 0.21182831 0.91827601
0.066742502 0.21045323 0.91973329
0.074493609 0.20369823 0.92013341
0.0093320813 0.20820951 0.92496657
0.011016112 0.20915082 0.92153335
0.069342904 0.20882553 0.92010003
0.07325685 0.20827214 0.92306191
0.0076409974 0.20827621 0.92910004
