# .PCD v0.7 - Point Cloud Data file format
VERSION 0.7
FIELDS x y z
SIZE 4 4 4
TYPE F F F
COUNT 1 1 1
WIDTH 1088
HEIGHT 1
VIEWPOINT 0 0 0 1 0 0 0
POINTS 1088
DATA ascii
0.017432703 0.059065253 0.81923342
0.022022268 0.059463497 0.81946683
0.025093436 0.059497349 0.81993347
0.013766797 0.062195987 0.81932008
0.017406717 0.06240258 0.81802964
0.02201475 0.062489349 0.81917048
0.025842709 0.063273169 0.81945008
0.014385627 0.065582283 0.81973344
0.017618366 0.066856354 0.81899184
0.021797093 0.066628352 0.81920016
0.025087316 0.065582283 0.81973338
0.033686291 0.053687301 0.82439995
0.037892152 0.053272307 0.82391655
0.041372407 0.053685129 0.82436657
0.009859751 0.059850499 0.82480007
0.013084787 0.058315631 0.82210827
0.01747955 0.057162095 0.82145309
0.02209097 0.056588966 0.82202959
0.027595883 0.05717108 0.82160437
0.032804709 0.057322506 0.82157207
0.037409052 0.057334784 0.82173866
0.042096201 0.057456687 0.8234722
0.04520689 0.056740616 0.82419991
0.0098515153 0.062866598 0.82411104
0.01172786 0.063010372 0.8209998
0.028175358 0.062217459 0.82059991
0.032798529 0.062660813 0.8214072
0.037477743 0.06280034 0.82322955
0.041372605 0.061352529 0.82436675
0.0098537728 0.066714212 0.82430005
0.012690737 0.067435727 0.82140821
0.015932554 0.068710171 0.82066649
0.022822862 0.068718538 0.82076645
0.027645467 0.067380674 0.82136971
0.032674201 0.067002125 0.82379067
0.036007311 0.065982312 0.82473356
0.013102108 0.071795218 0.82321668
0.017616516 0.072378039 0.82133311
0.021921206 0.072133221 0.82139319
0.027287317 0.071841352 0.82314551
0.013690636 0.075114325 0.82393348
0.015973976 0.075011037 0.82279998
0.022135034 0.075603485 0.82368898
0.025199527 0.075065725 0.82340014
0.0099119507 0.053226352 0.82916701
0.012990641 0.053169489 0.82828903
0.017806843 0.052557141 0.82775837
0.022216477 0.053065848 0.82667786
0.02728744 0.053187519 0.82686675
0.032534856 0.052362982 0.82772231
0.03733176 0.051382817 0.82681352
0.042482514 0.05186129 0.82674295
0.047251903 0.052515388 0.82770669
0.052220635 0.052622866 0.82877505
0.0085195368 0.057484098 0.82756305
0.012570844 0.055717446 0.82608342
0.017557563 0.055268466 0.82511133
0.047630474 0.057135973 0.82622218
0.052984115 0.056852549 0.82862514
0.056326762 0.056334004 0.82950026
0.0079570487 0.062316857 0.82701677
0.042442609 0.063446656 0.82595241
0.047093436 0.062595129 0.82787889
0.051049232 0.06109501 0.82920027
0.008860033 0.067726716 0.8273111
0.033737339 0.069125995 0.82563329
0.037802059 0.067823984 0.82613337
0.042323619 0.067778714 0.8279261
0.046854883 0.067718804 0.82955849
0.009884459 0.072305836 0.82686657
0.011402621 0.073688842 0.8251335
0.02987165 0.073694795 0.82520008
0.033008266 0.072286218 0.82663697
0.03747914 0.071976341 0.82812393
0.042084225 0.071593501 0.82930696
0.009902521 0.077061631 0.82837796
0.01296311 0.077659011 0.8265416
0.017386867 0.078197949 0.8261416
0.022505794 0.077760532 0.82598656
0.027621424 0.076927356 0.82693326
0.032319162 0.07658238 0.82875568
0.0099155363 0.081019506 0.82946682
0.012990965 0.082449391 0.82832688
0.017778046 0.082900882 0.82821357
0.022123137 0.082249828 0.82842439
0.026532216 0.080591381 0.82903361
0.014555263 0.086412624 0.82940024
0.01842422 0.086419567 0.82946688
0.013867665 0.049691994 0.83456659
0.017762335 0.049700592 0.83471102
0.022439362 0.049716473 0.83497757
0.027093107 0.049683392 0.83442217
0.032530997 0.049672145 0.83423328
0.03823363 0.04897856 0.83301318
0.04255968 0.048796687 0.83255571
0.047275186 0.048856288 0.83356649
0.051550005 0.049244236 0.83356661
0.05920833 0.049128026 0.83377773
0.062615223 0.048266124 0.83341146
0.065792561 0.048755176 0.83182144
0.0077317529 0.05288038 0.83239985
0.01303079 0.051015925 0.83084434
0.016118923 0.050980423 0.83026683
0.022329882 0.051017266 0.83086681
0.027001679 0.051062312 0.83160001
0.031658668 0.0510705 0.83173341
0.053821895 0.051517289 0.8306222
0.057970423 0.052563462 0.83088148
0.062632665 0.052575141 0.83106178
0.067057736 0.053014312 0.83102125
0.0056764465 0.056872517 0.83173335
0.054865614 0.058740426 0.83079994
0.058418144 0.057426434 0.83095229
0.062684156 0.057260308 0.83174074
0.06735386 0.057274122 0.8319453
0.0063262307 0.06193519 0.83220005
0.052727215 0.062787101 0.83066672
0.057774495 0.062115647 0.83252001
0.062608108 0.061603963 0.8336857
0.067457348 0.062013865 0.83323371
0.0073687234 0.067167595 0.83311111
0.048671674 0.069564149 0.83086663
0.052019753 0.067831352 0.83235323
0.055874571 0.065195702 0.83429992
0.0083981687 0.072788991 0.83240014
0.038584143 0.074171096 0.83053333
0.042875744 0.073841535 0.83116663
0.047159214 0.072712414 0.83151108
0.051503278 0.072680295 0.83368582
0.008406912 0.077516399 0.83326668
0.033589184 0.078509517 0.8314833
0.037943766 0.077534884 0.83345914
0.04262428 0.076792523 0.83382219
0.047299951 0.076808669 0.83399993
0.050424762 0.076829992 0.83423328
0.0099314721 0.083467625 0.83079994
0.027292484 0.082869522 0.83100003
0.032296713 0.082056642 0.83358169
0.036438063 0.080744319 0.83459991
0.012828243 0.087576084 0.83206666
0.017468406 0.08860226 0.83132374
0.022518715 0.087936357 0.83212662
0.02706141 0.086832926 0.83342218
0.030207086 0.085388236 0.8344667
0.013605788 0.091075279 0.83442211
0.017742142 0.092300393 0.83380002
0.022106195 0.092183366 0.83414662
0.026067512 0.090598784 0.83479977
0.060867563 0.043702316 0.83879173
0.0072887545 0.049554851 0.83881682
0.012047816 0.04801809 0.83789337
0.017442968 0.047953777 0.83811671
0.022531088 0.047735836 0.83840001
0.027433362 0.047224194 0.83802861
0.0323149 0.047625899 0.83724773
0.037625261 0.046773095 0.83792228
0.042809661 0.045968149 0.83745557
0.047498848 0.045971368 0.83751106
0.052485935 0.047363296 0.83733332
0.057149511 0.047656789 0.83702648
0.061554004 0.045192052 0.8374837
0.0031423443 0.053365208 0.83862668
0.0058374987 0.051865485 0.8362444
0.0037608303 0.057610691 0.83684444
0.003767621 0.062393587 0.8383556
0.0053113103 0.062938131 0.83523339
0.063736029 0.063725106 0.83536655
0.0037730639 0.066388488 0.83956659
0.0059426595 0.067856506 0.83649331
0.05784753 0.067180276 0.83581316
0.063099697 0.066984616 0.8372519
0.067802273 0.067004398 0.83748651
0.0059961057 0.072815962 0.83780003
0.053647712 0.073878884 0.83596641
0.056875203 0.072463453 0.83756667
0.061317403 0.071978442 0.83898532
0.0068948008 0.07721103 0.83836675
0.042721238 0.079297252 0.83571082
0.047420684 0.079337321 0.83613306
0.052624144 0.078122742 0.83739036
0.056575187 0.076870523 0.8389169
0.0084492853 0.081021659 0.83746666
0.034901049 0.083896257 0.83506638
0.038267504 0.082658321 0.83629149
0.042827342 0.082611278 0.83777785
0.047534429 0.082452647 0.83814168
0.051226944 0.081677444 0.83886677
0.010019139 0.08576344 0.83813339
0.032820735 0.08725819 0.83615136
0.038143046 0.087292463 0.8378371
0.042123824 0.08588624 0.83933336
0.012907913 0.093246229 0.83733326
0.017791117 0.094885923 0.83608884
0.022858001 0.094493106 0.83604991
0.027347596 0.092962891 0.83626658
0.031885047 0.091947891 0.83765191
0.036102861 0.091559179 0.83885568
0.014084731 0.097935043 0.83821332
0.017825255 0.09818422 0.83768147
0.022304649 0.097807311 0.83826679
0.027234115 0.096231855 0.83877784
0.031161111 0.095238999 0.83920014
0.0178669 0.10153705 0.83964461
0.006941902 0.043984104 0.84420007
0.012450798 0.04397282 0.84398353
0.016403668 0.044022311 0.84493339
0.024284655 0.044025782 0.84499985
0.027386665 0.043947056 0.84348911
0.032081556 0.043912321 0.84282237
0.037597045 0.043928534 0.84313363
0.043417763 0.043303233 0.84318686
0.047802899 0.043129802 0.84286684
0.052183725 0.043570671 0.84380019
0.057262573 0.043151859 0.8433001
0.060435653 0.04238693 0.84366673
0.0027404951 0.047599841 0.84334451
0.0067227073 0.046769563 0.8413583
0.012422018 0.045437552 0.84203327
0.018230993 0.046061747 0.84201336
0.022631988 0.045834545 0.84215015
0.026531961 0.045397975 0.84129989
0.03198896 0.045348216 0.84037757
0.036725502 0.045391381 0.84117764
0.05243383 0.045408178 0.84148884
0.056329377 0.045387194 0.84110004
-0.0017157937 0.05336836 0.84360081
0.0015402097 0.051717635 0.84227616
-0.0009294445 0.058117632 0.84420007
0.0014278967 0.058000851 0.84250003
-0.00092981162 0.062067967 0.84453326
0.0014295675 0.062755823 0.8432222
0.0017654604 0.067671396 0.84305716
-0.00093025225 0.070741877 0.84493315
0.0027377922 0.071591541 0.84260005
0.064537443 0.07234554 0.84073317
0.067911267 0.071804389 0.84126103
0.0037905904 0.075326115 0.84346676
0.006139237 0.078324527 0.84196675
0.057412665 0.079161063 0.84086645
0.061906729 0.077309608 0.84226674
0.066517107 0.076700419 0.84346676
0.0079806847 0.083132118 0.84307784
0.047655225 0.084418684 0.84026664
0.052962482 0.0835087 0.84158891
0.057253376 0.083139569 0.84313351
0.061696202 0.081335112 0.84476656
0.066309601 0.080702595 0.84499997
0.0085158702 0.087940663 0.84406668
0.010046234 0.088340528 0.84039998
0.043236908 0.088110454 0.84139985
0.047764838 0.087747432 0.84220004
0.052376181 0.087709174 0.84372526
0.056584649 0.086455852 0.84489995
0.00852226 0.0927203 0.84469998
0.010068816 0.092456423 0.84228897
0.038807478 0.092832781 0.84096646
0.043087743 0.092520624 0.84287429
0.047866121 0.092642218 0.84397781
0.051065497 0.091949612 0.8448332
0.0085192332 0.095829129 0.84439987
0.010854305 0.097165473 0.84235567
0.027693596 0.098161682 0.84083319
0.032253601 0.097507291 0.84144765
0.037562963 0.097163118 0.84233904
0.042524792 0.096747801 0.84418678
0.046347741 0.09589722 0.84499991
0.013490153 0.10199682 0.84344459
0.017902406 0.10330365 0.84131098
0.022804713 0.10192893 0.84125829
0.027355529 0.10188098 0.84248155
0.032096937 0.10197127 0.84322971
0.03660392 0.10155936 0.8435334
0.04003768 0.10138285 0.84486657
0.014829034 0.1053284 0.84499991
0.017943757 0.10746637 0.84326679
0.022521414 0.10726166 0.84333956
0.026884442 0.1062691 0.8441444
0.032162596 0.10532286 0.84495544
0.01850231 0.11211637 0.84482211
0.022705687 0.11160004 0.84487993
0.053438354 0.034238335 0.84916645
0.056731269 0.03468021 0.84709096
0.043378662 0.039477676 0.84860015
0.048104841 0.039458036 0.84817791
0.052840408 0.037872713 0.84804076
0.056707252 0.037815437 0.84673524
0.002755193 0.043119181 0.8478002
0.0069617443 0.04174589 0.8466
0.0124881 0.041741379 0.84650826
0.018223414 0.042361636 0.84712535
0.022571858 0.042367112 0.8472333
0.027510926 0.041780334 0.84729987
0.032258898 0.041789513 0.84748888
0.036959857 0.041743532 0.84655547
0.041941803 0.041464791 0.84621102
0.047965974 0.040917542 0.84573317
0.053015798 0.04154906 0.84578669
0.057425912 0.040915605 0.84569329
-0.0020658053 0.047598261 0.84865803
0.0011719615 0.046180695 0.84608883
-0.0056674853 0.051970158 0.84639686
-0.0031399846 0.051305544 0.84582347
-0.0060786372 0.057239961 0.84863001
-0.0034114555 0.057794966 0.84603804
-0.0060836961 0.061241243 0.84940302
-0.0029654421 0.063268155 0.84708029
-0.0017226468 0.067743175 0.84674722
-0.0017253591 0.072608791 0.84837365
0.0011714298 0.073415749 0.84555548
0.0030200486 0.076516628 0.84796679
0.0053802002 0.078706004 0.84606665
0.0692285 0.077854946 0.84536672
0.070088699 0.078721255 0.8462308
0.0061781383 0.081981197 0.84739995
0.062470544 0.083072677 0.84565324
0.067201264 0.082401611 0.84630007
0.070099324 0.08188235 0.84635907
0.0069664177 0.087466143 0.84707505
0.054295886 0.089722946 0.84606647
0.057490487 0.088471346 0.84663343
0.062517792 0.08696112 0.84790027
0.067062825 0.086762048 0.84788173
0.070178822 0.087492518 0.84731877
0.0074948012 0.093020976 0.84743339
0.053197049 0.093144 0.84650463
0.057424683 0.09228953 0.84899074
0.068788663 0.090104707 0.84966677
0.008017078 0.097685359 0.84687781
0.044057727 0.098418228 0.8463999
0.048086196 0.097802818 0.84787637
0.05224248 0.097252533 0.84858686
0.008572204 0.10195685 0.84965003
0.010760556 0.10278589 0.84736001
0.037689082 0.10378115 0.84519994
0.042786531 0.10245959 0.84726673
0.045796957 0.10271691 0.8494004
0.013079843 0.10730731 0.84665841
0.02850456 0.10801348 0.84551114
0.03221412 0.10785234 0.84630018
0.036997635 0.10720609 0.84740758
0.041374404 0.10720528 0.84919071
0.013817354 0.11141533 0.84745568
0.018001597 0.11363511 0.84598666
0.022734659 0.11383704 0.84593338
0.027307231 0.11169294 0.84706688
0.031988978 0.1111588 0.84870702
0.037087638 0.11062571 0.84946686
0.014899225 0.11530282 0.84900033
0.018049879 0.11704189 0.84824467
0.022987934 0.11694483 0.84801698
0.025972791 0.11525755 0.84866703
0.022028087 0.12005959 0.84913361
0.049985807 0.034934409 0.85330003
0.051479697 0.034075245 0.8516863
-0.0068920003 0.03921682 0.85150003
-0.0028517195 0.039098993 0.85412169
0.0022444555 0.039724749 0.85391116
0.0070089363 0.039648764 0.85227776
0.012919711 0.038985737 0.8526715
0.018149737 0.038886327 0.85296112
0.022923706 0.038887236 0.85297775
0.027694419 0.038885515 0.85293895
0.032459907 0.03887821 0.85277772
0.037179824 0.038823735 0.85159451
0.041569419 0.038447898 0.85203338
0.047644205 0.037016124 0.85254449
-0.0061126961 0.043278649 0.85352504
-0.0025274665 0.042801302 0.85194021
0.001179247 0.041705932 0.85112214
-0.006102738 0.047162496 0.85200298
-0.0041094478 0.046693064 0.85064077
-0.0073111169 0.057203535 0.85400003
-0.0057172053 0.06672243 0.85382223
-0.0041099223 0.068062909 0.850739
-0.0035858981 0.072921485 0.85201532
-0.00093776628 0.076066606 0.85175872
0.0022376508 0.077598937 0.85118896
0.0038347319 0.082553662 0.85328895
0.0054119951 0.083129495 0.85106671
0.0038403247 0.087441586 0.85453343
0.0054165176 0.087158412 0.85177773
0.0062143449 0.091989085 0.85251677
0.058565259 0.094179779 0.85078323
0.062563799 0.09185224 0.85120732
0.067130946 0.092054866 0.85124999
0.07111349 0.093015812 0.85219342
0.0070288526 0.098584145 0.85466677
0.049796406 0.099634841 0.85006678
0.053869121 0.09904553 0.8517918
0.058147397 0.097255461 0.85296196
0.062338009 0.095677048 0.85355014
0.067511871 0.095280759 0.85355872
0.070769012 0.095379665 0.8544445
0.0075587905 0.10333485 0.8545112
0.048452653 0.1030871 0.85082495
0.05290072 0.10285382 0.85217077
0.05720526 0.10011536 0.85416675
0.0086251693 0.10815274 0.85490006
0.010177203 0.10770509 0.85135549
0.043493215 0.1084277 0.85081673
0.047065079 0.10766023 0.85225332
0.050976656 0.10834537 0.85390675
0.011773719 0.11294626 0.85207498
0.029184116 0.11385751 0.84999996
0.032789372 0.11359473 0.85099155
0.037186727 0.11329954 0.85174441
0.042006232 0.11265078 0.85282224
0.046394441 0.11259709 0.85414296
0.013690544 0.11707391 0.85269994
0.016521452 0.11874054 0.85099989
0.027831333 0.11735939 0.85102487
0.032468013 0.11742718 0.85295188
0.037285835 0.11757284 0.85401481
0.041018546 0.11655989 0.85435557
0.01498931 0.1207666 0.85413343
0.018334627 0.12190024 0.85232913
0.0230958 0.12235469 0.85096657
0.027702624 0.12221711 0.85315925
0.03211806 0.12117921 0.85424173
0.035717409 0.12083258 0.85460013
0.018974483 0.12634739 0.85426676
0.02292333 0.12695104 0.85297775
0.027506275 0.12667026 0.85414773
0.022955274 0.13030644 0.85417789
0.019902455 0.033606328 0.8599335
0.022293467 0.033584185 0.85936654
0.047146186 0.033591568 0.85955554
0.050239667 0.032716759 0.85763341
-0.00094249705 0.037434984 0.85605562
0.00225603 0.037520487 0.85802108
0.0066556479 0.037918426 0.85798341
0.011859356 0.036463942 0.85818893
0.017442351 0.035894994 0.85730839
0.023038579 0.035892177 0.85724455
0.027867764 0.035935413 0.8582778
0.032645714 0.035909217 0.8576557
0.03740491 0.035871662 0.85675555
0.042193696 0.035867359 0.85664457
0.046152722 0.035044953 0.8560003
-0.002543296 0.0765348 0.85701674
0.0011871298 0.079201534 0.85710007
0.0014560058 0.083074048 0.85867786
0.0028914136 0.087708764 0.85714686
0.003859 0.09265995 0.85868889
0.0054437909 0.093172759 0.85606682
0.0054521635 0.096504994 0.85738337
0.063248262 0.098121509 0.85617352
0.06770692 0.097945653 0.85602659
0.0059888535 0.10216246 0.85800624
0.054873455 0.10499267 0.85506666
0.058332551 0.10233911 0.85567653
0.063068539 0.10216885 0.85805929
0.068158902 0.10180587 0.85884559
0.0076867221 0.10747085 0.85708153
0.053947739 0.10791856 0.85556
0.058010299 0.10665381 0.85722512
0.061535638 0.10707737 0.8590222
0.0086651901 0.11184991 0.85886693
0.010232321 0.11386134 0.85596681
0.048526734 0.11381659 0.8556335
0.051612206 0.11302564 0.85717517
0.056092642 0.11123921 0.85908002
0.011306089 0.11848461 0.85677791
0.04268682 0.11835559 0.85584468
0.047033917 0.11805243 0.85748899
0.050870869 0.11723336 0.85928887
0.01282452 0.12266888 0.85854661
0.015556313 0.12370392 0.85613352
0.032894649 0.12354957 0.85580027
0.037594099 0.12289425 0.85650021
0.042281821 0.12296966 0.85841483
0.046084639 0.12208527 0.859689
0.013485219 0.126366 0.8598001
0.016635954 0.12794843 0.85700846
0.028584462 0.12895694 0.85576695
0.032425243 0.12736419 0.85709172
0.037496287 0.12702169 0.85882217
0.040726408 0.12630722 0.85940003
0.018081861 0.13215707 0.85816306
0.023034096 0.13314436 0.85710001
0.027315022 0.13190769 0.85768908
0.031075867 0.13096076 0.85846657
0.019902457 0.13598342 0.85993344
0.023098601 0.13591665 0.85951132
0.0070897513 0.02887905 0.86207145
0.017541485 0.028881902 0.86215669
0.02156293 0.028883351 0.86220002
0.028068539 0.028155353 0.86446559
0.032855686 0.02811371 0.86319447
0.037661429 0.028094523 0.86260557
0.04254033 0.028129438 0.86368895
0.047699042 0.028292662 0.86376065
0.050547995 0.02890669 0.86289656
0.0026673614 0.033273116 0.86166036
0.0070906673 0.03209031 0.86217773
0.011903942 0.032062009 0.86142969
0.017301135 0.031902995 0.86108494
0.023384238 0.031608939 0.86157638
0.027986147 0.032079127 0.86191869
0.032805324 0.032076422 0.86184448
0.037603695 0.032056078 0.86129642
0.04243426 0.032064635 0.86153334
0.047298759 0.031293545 0.86233336
0.051562015 0.031011485 0.86191124
0.0022627711 0.035233524 0.86060637
0.0074001388 0.035881173 0.86078691
0.010286117 0.035227817 0.8604669
-0.0057719643 0.073774263 0.86200005
-0.0065759043 0.076181322 0.86201787
-0.0036242679 0.077961348 0.86101151
-0.0023989258 0.082150154 0.86239862
-0.0021592823 0.086346865 0.86346132
0.00065749534 0.088058017 0.86055547
-0.00095109682 0.090003602 0.86386687
0.0016222193 0.092697732 0.86201638
0.0038753997 0.097865798 0.86233807
0.0054726186 0.099268563 0.86060005
0.0038704583 0.10254549 0.86123872
0.0054700747 0.10082254 0.86019999
0.067232549 0.10401881 0.86016691
0.07133612 0.1033531 0.86129171
0.0054825176 0.10746802 0.86215687
0.063307196 0.10736164 0.86131114
0.067850426 0.10759737 0.86191332
0.072005078 0.10707889 0.86161339
0.0076357187 0.11241523 0.86320019
0.057697706 0.11299665 0.86151665
0.061800584 0.11235162 0.86271119
0.067507707 0.11248001 0.86370301
0.071510747 0.11163738 0.86339998
0.0086972499 0.1170735 0.86204463
0.053249478 0.1173381 0.8610335
0.056791391 0.11700317 0.86299175
0.060287811 0.11574624 0.86410022
0.069189318 0.11581002 0.86457664
0.008716085 0.12214953 0.86391121
0.010686727 0.12365802 0.86043346
0.047585268 0.12323175 0.86025012
0.05210419 0.12187889 0.86199641
0.055823363 0.12170248 0.86359161
0.0087169828 0.12617975 0.86400014
0.011905149 0.12822908 0.86157149
0.034339193 0.12959486 0.86000019
0.037565064 0.12965514 0.86040014
0.042410742 0.12815166 0.86104769
0.047490485 0.1269148 0.8621667
0.051390301 0.12691547 0.86352795
0.012333233 0.13171908 0.86344177
0.015641274 0.13398568 0.86079997
0.028996652 0.13387829 0.86011124
0.032984294 0.13319008 0.86125845
0.037427086 0.13272455 0.86250961
0.042521164 0.13169767 0.86329347
0.046315651 0.13073374 0.86400026
0.013565207 0.13515992 0.86490005
0.017323159 0.13810349 0.86226976
0.023130389 0.13850321 0.86067772
0.027991751 0.13792664 0.86207414
0.032330379 0.13761313 0.8634612
0.036941417 0.1359174 0.86460018
0.018833119 0.142736 0.86345249
0.023183506 0.14283302 0.86265182
0.027509207 0.14248057 0.86376125
0.021618159 0.14674099 0.86440855
0.024083897 0.028208273 0.86610019
0.028105587 0.028191585 0.86558348
0.045831498 0.027368072 0.86500013
-0.0057937261 0.078881003 0.86525005
-0.0058089662 0.082315572 0.86752605
-0.0066226739 0.086416706 0.86818445
-0.0033773831 0.08782196 0.86611944
-0.0023037214 0.091967583 0.8672325
-0.00095745671 0.095458522 0.86964291
0.0014709001 0.096841656 0.86754024
0.0019568796 0.10267186 0.86773503
0.0038909139 0.10792053 0.86579019
0.0060563362 0.11298928 0.86761117
0.0071407906 0.11792266 0.86827785
0.058737364 0.1190849 0.86500031
0.062275749 0.11788622 0.86652917
0.066755243 0.11794931 0.86699158
0.07028567 0.11871269 0.86815763
0.058201075 0.12285527 0.86662018
0.062205248 0.12277912 0.86835927
0.067120448 0.12207466 0.86909992
0.0087553207 0.12915602 0.8678
0.053971961 0.12730639 0.8661921
0.056773644 0.12701063 0.8678444
0.060694814 0.12623705 0.86993343
0.01116707 0.13300002 0.86655009
0.043486532 0.13379556 0.86648345
0.048097853 0.13281576 0.86708897
0.052276015 0.1322464 0.86820835
0.055801857 0.13103151 0.8695333
0.012803251 0.13725598 0.86798334
0.034550827 0.13844165 0.86530012
0.038392171 0.13764037 0.86700565
0.042752013 0.13725588 0.86797404
0.047125157 0.13688187 0.86902213
0.013630912 0.14228195 0.86908883
0.015753787 0.14301445 0.8670001
0.029733475 0.14338645 0.86600018
0.033213601 0.14217971 0.86723351
0.037738506 0.1420677 0.86901665
0.042409025 0.1410951 0.86924994
0.01664513 0.14712495 0.86785835
0.023286216 0.14790076 0.86649179
0.028367881 0.14705499 0.86744171
0.032849014 0.14666586 0.86906666
0.036327615 0.14553317 0.86919993
0.017844442 0.15165423 0.8690666
0.022531619 0.15188523 0.868536
0.027576411 0.15136831 0.86927998
0.022551281 0.15525231 0.86930001
-0.0058314847 0.08911521 0.87088895
-0.0058426447 0.090908863 0.87255561
-0.0042128041 0.093288004 0.87203538
-0.0017746058 0.097390436 0.87245333
0.00066526694 0.098816998 0.87072748
-0.00096135912 0.10072049 0.8731876
0.00066606706 0.10136824 0.87177455
0.0022882812 0.10768275 0.87038398
0.0033789948 0.11202105 0.87264365
0.0039278092 0.11544652 0.87399989
0.005544052 0.1167838 0.8718335
0.0071719522 0.12249185 0.87206668
0.067236252 0.12471429 0.87060022
0.070488565 0.1231041 0.87066388
0.007185522 0.12678656 0.87371659
0.05859429 0.12907261 0.87086695
0.062650412 0.12832472 0.87174177
0.067195691 0.12806107 0.8727082
0.071785994 0.12753452 0.87327498
0.0088000456 0.13306206 0.87223333
0.01041044 0.13447234 0.87086678
0.05425493 0.13445173 0.8707335
0.057614405 0.13308811 0.8724094
0.062257461 0.13230184 0.87364644
0.068332568 0.13092971 0.87424994
0.070720904 0.13000932 0.87353307
0.01083707 0.13839087 0.87259161
0.048818294 0.13870399 0.87031132
0.052667495 0.13778576 0.87132609
0.056618419 0.13709098 0.87378865
0.01124148 0.14282894 0.87243342
0.039645631 0.14419225 0.87086689
0.043210968 0.14351813 0.87070674
0.047796644 0.14266148 0.87140751
0.052613508 0.14284997 0.87379992
0.012862287 0.14762406 0.8719945
0.033952191 0.14901225 0.87063354
0.03825479 0.1477516 0.87155008
0.042958207 0.14765204 0.87215561
0.04767707 0.14740901 0.87346661
0.051249195 0.14648202 0.87486672
0.013687373 0.15261124 0.87268871
0.015687227 0.15267998 0.87076688
0.029081255 0.15306437 0.87065017
0.032992788 0.15230246 0.87207913
0.038164582 0.15123539 0.87412214
0.041464102 0.15138151 0.87496668
0.013709502 0.15692312 0.87409985
0.016928077 0.15735935 0.87200743
0.021778032 0.15795015 0.87080026
0.027722407 0.15750276 0.87198788
0.032048769 0.15732658 0.8740834
0.018606508 0.16104278 0.87439996
0.022053497 0.16233167 0.8736707
0.026352305 0.16144495 0.87437481
-0.0038264324 0.098257527 0.87656856
-0.0017856988 0.10206261 0.87775218
0.00066984165 0.10765121 0.87671489
0.0013253781 0.11303856 0.87802184
0.0026348596 0.11729272 0.87808669
0.0055841142 0.12089298 0.87813348
0.0071963505 0.12697709 0.8750332
0.0072141676 0.13055502 0.87720001
0.064319447 0.13349819 0.87510008
0.067645669 0.13297014 0.87590677
0.071441166 0.13304847 0.8757112
0.0088345166 0.1376549 0.87565005
0.05910407 0.13736632 0.87640834
0.062955707 0.13733894 0.87883693
0.067912057 0.13742042 0.87935913
0.071900651 0.13720863 0.87799883
0.0088730268 0.14398022 0.87946683
0.057966813 0.14206505 0.8777371
0.061392516 0.14241987 0.87993306
0.010475587 0.14754105 0.87631679
0.048070025 0.14999923 0.87640011
0.053558107 0.1473911 0.87704462
0.057601154 0.14699344 0.8793143
0.011709889 0.15255058 0.87701678
0.034944788 0.15467207 0.87516677
0.037858993 0.15368362 0.87649173
0.043534372 0.1527511 0.87722015
0.04837897 0.15233138 0.87775737
0.052579153 0.15151826 0.87890548
0.012667701 0.15830605 0.87726682
0.033877593 0.1580269 0.8757112
0.037829839 0.1574073 0.87771004
0.043286059 0.15695161 0.87881106
0.047128335 0.15592261 0.87915546
0.012970158 0.1611152 0.87923318
0.017035166 0.16297548 0.8775056
0.020258101 0.16446503 0.87530005
0.027129263 0.16390243 0.87577343
0.031547852 0.16297475 0.87713349
0.03693499 0.16205931 0.87880826
0.040597323 0.16093825 0.87975532
0.017068211 0.16655686 0.87917763
0.022156319 0.1679877 0.8777501
0.026875919 0.16745318 0.87816125
0.031828169 0.16711485 0.87924427
0.035105832 0.16519777 0.87919986
0.021456912 0.1718616 0.87982208
0.026927806 0.17023323 0.87986642
-0.0059131389 0.098576553 0.8830834
-0.0059134001 0.10104598 0.88312244
-0.0030265423 0.10335405 0.88179171
-0.0021500506 0.10729615 0.88339293
-0.0016328584 0.11244533 0.88364726
-0.00097237132 0.11748205 0.88318968
0.0012205597 0.11907742 0.88081104
-0.00097322563 0.12005154 0.88396561
0.0027326408 0.1219912 0.88312507
0.0055994811 0.12368312 0.88054979
0.0039752969 0.1250696 0.88456684
0.0056185601 0.12739216 0.88355005
0.0064354469 0.13220552 0.88279164
0.006605743 0.13838878 0.88345337
0.0088854702 0.14172456 0.88070017
0.063921995 0.14257173 0.88086671
0.068042323 0.14260052 0.88104433
0.07196676 0.142234 0.88080728
0.0089046378 0.14613496 0.88260013
0.059854392 0.14840442 0.88144994
0.062982187 0.14748442 0.88207501
0.068042092 0.14791459 0.88341463
0.071544655 0.14714131 0.88370836
0.010524601 0.15314347 0.88041639
0.05431566 0.15342914 0.88048869
0.057416759 0.15175872 0.88188314
0.060851105 0.15129714 0.88398349
0.0089275064 0.15967844 0.88486654
0.010527589 0.15728277 0.88066655
0.048629411 0.15759946 0.88060647
0.051955175 0.15756334 0.88223332
0.055058692 0.15616846 0.88363343
0.0089264978 0.16130628 0.88476658
0.011854423 0.1627233 0.88174659
0.042292923 0.16278474 0.88088864
0.046224725 0.16204005 0.88277787
0.050158218 0.16123942 0.88440019
0.013176395 0.16705193 0.88207328
0.016283486 0.16882965 0.88108325
0.033516869 0.16872424 0.8805331
0.037072841 0.16758424 0.88207084
0.041050524 0.16685013 0.88361681
0.017333621 0.1721448 0.8823207
0.022010215 0.17273085 0.88008308
0.026966328 0.17292963 0.8810944
0.031734113 0.17214409 0.88231254
0.036131438 0.17190111 0.88423342
0.018246247 0.17637263 0.88328904
0.022060744 0.17723128 0.88210368
0.026489846 0.17696317 0.8835001
0.030378969 0.17612533 0.88480014
0.022128968 0.18106994 0.88483346
-0.0075896801 0.10143636 0.88653851
-0.002628959 0.11378262 0.88636851
-0.0034569278 0.11709523 0.88648254
-0.0019688834 0.12240773 0.88673115
0.0015017071 0.12353341 0.88535005
-0.0015310977 0.12618917 0.88858622
0.0021239789 0.12726371 0.88694996
0.0033292547 0.13188303 0.88834
0.0056288401 0.13338731 0.88516653
0.0031629906 0.13717572 0.88837773
0.0056308536 0.13590559 0.88548326
0.0035774817 0.14170896 0.88829994
0.0064647603 0.14269048 0.88669986
0.0039955191 0.14637902 0.8890667
0.0070180427 0.14686887 0.88703328
0.066755407 0.14995466 0.88576657
0.0081350775 0.15207398 0.88852215
0.057635024 0.15480451 0.88523346
0.06223876 0.15290153 0.88613319
0.066852815 0.15264945 0.88706088
0.070984632 0.15264028 0.88700831
0.0081270533 0.15688014 0.88766098
0.053499389 0.15972055 0.88510013
0.057256002 0.15775719 0.88701981
0.06177919 0.15681244 0.88844156
0.066982895 0.15625322 0.88878888
0.071147978 0.15629901 0.88904804
0.0073147756 0.16050249 0.88943326
0.048037756 0.16425167 0.88585562
0.052255761 0.16259377 0.88639987
0.056802474 0.16175048 0.88833314
0.060394261 0.16049647 0.88940012
0.010619435 0.16609153 0.88834995
0.042650141 0.16879113 0.88604003
0.046992105 0.16746961 0.88689971
0.05202214 0.16686207 0.88805169
0.055391714 0.16703522 0.88897777
0.013374992 0.17181033 0.88802218
0.015543281 0.17465703 0.88570005
0.033702116 0.17459789 0.88540012
0.037688594 0.17372033 0.88595998
0.041824859 0.17289782 0.88754272
0.046871129 0.17154494 0.88908571
0.051265422 0.17040408 0.88929999
0.013949993 0.17622086 0.88943326
0.01687468 0.1783943 0.88625991
0.028197588 0.17898782 0.88538903
0.032297999 0.17832135 0.88650817
0.037071932 0.17738859 0.88699979
0.042127725 0.176954 0.88896185
0.045489427 0.17547864 0.88986671
0.017781666 0.18244968 0.88754421
0.022160906 0.18318598 0.88610822
0.027141076 0.18312722 0.88682199
0.032146182 0.1825491 0.88802212
0.036939707 0.18167531 0.88879991
0.040471125 0.18026881 0.889
0.017916786 0.18715833 0.88873327
0.022193085 0.1881953 0.88738495
0.027194975 0.18762177 0.8885777
0.031772692 0.18567833 0.88916665
0.018366409 0.19076176 0.88908893
0.022242842 0.1927564 0.88938904
0.026796844 0.1906334 0.88913333
-0.0026465515 0.12900352 0.89185441
-0.0015386323 0.1318097 0.89306808
0.0010961537 0.13305403 0.8912003
-0.00098371902 0.13796428 0.89349651
0.00068097009 0.13762338 0.89128047
-0.00098301482 0.14118972 0.89285707
0.0013461828 0.14304319 0.89198208
0.0023447394 0.14732361 0.8922897
0.0056642387 0.1491386 0.89073348
0.0040151444 0.15125264 0.89343351
0.005675402 0.152753 0.89248902
0.0056653689 0.15745457 0.89091128
0.063788123 0.15903252 0.89046675
0.067114554 0.15904443 0.89053345
0.071278378 0.15907076 0.89068091
0.0073442641 0.1628713 0.89336658
0.05878396 0.16394046 0.8901332
0.062407985 0.16274223 0.89150029
0.06727127 0.16273791 0.89260769
0.071249545 0.16236874 0.89240515
0.010682991 0.16957842 0.89366663
0.05800651 0.16740339 0.89093333
0.061818589 0.16742365 0.89399475
0.012359825 0.1730451 0.89440018
0.048009805 0.17393398 0.89043343
0.052484088 0.1730337 0.89188594
0.056759771 0.17224063 0.89310026
0.014032597 0.1797604 0.89469999
0.043872498 0.17896344 0.89073348
0.047460657 0.1777299 0.89181268
0.051811427 0.17739052 0.8939392
0.015629273 0.1830783 0.89060014
0.038897548 0.18397544 0.89093357
0.042303365 0.18267182 0.8926574
0.046558857 0.18137744 0.894467
0.015643118 0.18738623 0.89138907
0.032599598 0.18837233 0.89134693
0.037063517 0.18714496 0.89249074
0.041551247 0.18635507 0.89440036
0.017306026 0.19278127 0.89141679
0.027629014 0.19346067 0.89187354
0.031901442 0.19140747 0.89274192
0.018468423 0.19681449 0.89404458
0.022332 0.19685465 0.89296681
0.027028432 0.196923 0.89403343
-0.0018214686 0.13411358 0.89551675
-0.0021008425 0.1366788 0.89595526
-0.00098595698 0.14327815 0.89552927
0.0029143717 0.15179288 0.89662534
0.0040309858 0.15768822 0.89695847
0.0073816646 0.16363989 0.89756656
0.072480142 0.16488524 0.8952632
0.0090370476 0.16663636 0.895724
0.063318327 0.16910601 0.8955667
0.067542382 0.16755886 0.89620012
0.071507595 0.16743429 0.89702225
0.058320798 0.17414251 0.89576703
0.062834643 0.17238995 0.8971715
0.067485817 0.17190661 0.89822936
0.071125776 0.17147461 0.89925015
0.012398363 0.17692329 0.89718896
0.053304672 0.17912838 0.89569998
0.057779782 0.17728594 0.89661437
0.062345885 0.17615908 0.89840019
0.066933513 0.17565621 0.89925033
0.013079962 0.18244953 0.89810687
0.047881212 0.18289757 0.89580005
0.052753419 0.18225786 0.89645725
0.057452731 0.18198709 0.8985002
0.014098465 0.18562062 0.89890021
0.03742262 0.18989474 0.89539999
0.043124959 0.18733566 0.89590663
0.047504991 0.18680975 0.89657784
0.052388817 0.1868729 0.89788353
0.055997483 0.18557933 0.89870036
0.015769079 0.19390936 0.89856684
0.032423995 0.19412376 0.89569998
0.037721809 0.19234574 0.89683819
0.042550281 0.1920912 0.89787418
0.047595125 0.19170091 0.89828598
0.051545631 0.19121575 0.89900023
0.017427444 0.19872461 0.89766681
0.023233149 0.19993305 0.89559996
0.027419602 0.19917405 0.89593333
0.032718353 0.19743271 0.89721447
0.037000228 0.19671507 0.89865589
0.040949125 0.19578396 0.89950025
0.01911296 0.20218617 0.89820027
0.02220325 0.20247565 0.89737159
0.027678439 0.20224608 0.89754188
0.032196827 0.20128953 0.89868021
0.022885753 0.20597813 0.8983503
0.02638478 0.20618255 0.89863354
-0.0043590735 0.13429256 0.90231252
-0.0043578055 0.13593146 0.90205014
-0.0009918299 0.14664538 0.90086365
0.0006883617 0.14917399 0.90095466
0.0012493544 0.15275317 0.90230697
0.0023721026 0.1561048 0.90226674
0.0032127718 0.16199607 0.90236688
0.0057477537 0.16478847 0.90386659
0.073852398 0.16944659 0.90181267
0.010788583 0.17461227 0.90250003
0.069519453 0.17416081 0.90016693
0.073290788 0.17279766 0.90179658
0.01078513 0.17791279 0.90221113
0.063265927 0.17888308 0.90075862
0.067962341 0.17810768 0.90177792
0.072000392 0.17698951 0.90320486
0.0107877 0.18299161 0.90242606
0.059477337 0.18430318 0.90063351
0.062731087 0.1827212 0.90212506
0.066987641 0.1821406 0.90375549
0.013310304 0.18799874 0.90228307
0.054428197 0.18929426 0.90046692
0.057887256 0.187663 0.90201682
0.063070439 0.18610847 0.90397769
0.013617921 0.19174294 0.90411848
0.047736019 0.19442008 0.90093362
0.053256799 0.19296373 0.90195853
0.056896102 0.1917402 0.90409994
0.015825529 0.19712076 0.90178341
0.038757905 0.19880581 0.90055579
0.042926058 0.19808009 0.90137947
0.047605261 0.19789392 0.90244174
0.05209288 0.19584653 0.90365005
0.017516965 0.20310254 0.90227777
0.033028729 0.2040285 0.90080863
0.03769426 0.20301384 0.90188175
0.042484798 0.2023932 0.90360659
0.04624771 0.20196451 0.90470004
0.01864286 0.20707448 0.90252227
0.022189142 0.20877442 0.90068024
0.028148076 0.20849554 0.90140581
0.032339789 0.20722017 0.90266687
0.037782501 0.20685317 0.90399998
0.041181322 0.20530774 0.90460002
0.019234251 0.2101931 0.90389997
0.022555746 0.21224789 0.90191132
0.027279651 0.21217737 0.90232676
0.031057052 0.2111859 0.90455008
0.023030715 0.21568796 0.90402496
0.025989359 0.21617796 0.90431666
-0.0010007357 0.15303442 0.90895265
0.0012557154 0.15682946 0.9064557
0.0018194644 0.16191268 0.90658873
0.0091561675 0.17221017 0.90753078
0.010827238 0.17355299 0.90573353
0.0074642706 0.17733981 0.90787053
0.073457323 0.178923 0.90733337
0.00846559 0.18206303 0.90616351
0.069108322 0.18198776 0.90578359
0.071805671 0.18239994 0.90783846
0.0084780976 0.18739271 0.90747249
0.01082816 0.18789054 0.90581048
0.063197859 0.18817134 0.90581131
0.06714572 0.18753062 0.90697658
0.071019225 0.18762648 0.9086113
0.0086095212 0.19173414 0.90939051
0.01152354 0.19277741 0.90740025
0.05917697 0.1925485 0.9063201
0.062514864 0.1926008 0.90815574
0.066807576 0.19276881 0.90894818
0.071022332 0.19270582 0.9086557
0.014214697 0.19726799 0.9063105
0.053654447 0.19782631 0.90630013
0.057433933 0.19766803 0.90815037
0.060626414 0.19682552 0.9094668
0.014257408 0.20293207 0.90903395
0.015901094 0.20227496 0.90608901
0.044594899 0.203805 0.9054001
0.048563134 0.20279957 0.90592235
0.052621815 0.20212309 0.90792799
0.056662116 0.20131475 0.90936667
0.014270999 0.2065106 0.90989995
0.016338451 0.20795336 0.90696698
0.034451976 0.20878845 0.90510005
0.037854142 0.20893204 0.90572232
0.043182291 0.20769392 0.9067502
0.047906309 0.20759036 0.90814197
0.017610792 0.21265104 0.90721446
0.029407401 0.21398126 0.90570003
0.033291575 0.21268465 0.90632391
0.037721209 0.21253206 0.90760022
0.042724349 0.21198909 0.90871352
0.046503309 0.21154188 0.90969998
0.018895188 0.21745263 0.90788364
0.022321248 0.21844418 0.90604007
0.028034814 0.21761946 0.90681696
0.032036573 0.21630895 0.9084003
-0.001003375 0.15682952 0.91135007
0.00069588394 0.15927546 0.91080004
-0.0010066963 0.16160008 0.91436672
0.00069573097 0.16093434 0.91060007
0.0032516529 0.16650388 0.91327602
0.0075174244 0.16834976 0.91407406
0.0070831515 0.1732427 0.91299266
0.0041039763 0.17838119 0.91320026
0.0066515114 0.18242471 0.91218233
0.0074999738 0.1883159 0.91195261
0.0083369594 0.19394615 0.91051137
0.009218554 0.19717816 0.91371435
0.011746028 0.1975607 0.91155481
0.062300257 0.19833259 0.91120833
0.067105472 0.19787405 0.91300017
0.071078159 0.1975909 0.91300011
0.012628566 0.20230772 0.91384727
0.053342428 0.20497559 0.91059989
0.057259947 0.20319431 0.9121083
0.061705094 0.20194077 0.91372681
0.065512143 0.20075724 0.91453367
0.013465436 0.20718223 0.91286671
0.052573647 0.20783234 0.91198337
0.055904228 0.20701317 0.91360694
0.01430899 0.21215288 0.91232222
0.044846099 0.21342158 0.91049993
0.048336327 0.21256804 0.91228342
0.05208113 0.21254359 0.9140051
0.016432863 0.21764068 0.91220844
-0.0010081644 0.16183527 0.91570008
0.0019824756 0.16757983 0.91683805
0.005822367 0.16863081 0.91560006
0.0037002037 0.17218047 0.91863334
0.0062526646 0.17214173 0.91616046
0.0041158111 0.17633933 0.91583347
0.0041294429 0.18119735 0.91886687
0.0058315587 0.18766171 0.91704553
0.0058439882 0.19148071 0.91899997
0.074431531 0.19497757 0.91936672
0.0081166606 0.19800349 0.91753143
0.073414698 0.19796526 0.91736662
0.010956295 0.20204931 0.91652948
0.063355744 0.20397174 0.91623348
0.067408159 0.20303324 0.91712368
0.071484439 0.20213418 0.91821098
0.012663385 0.20797828 0.91636688
0.058366228 0.208354 0.91614187
0.062314596 0.20741785 0.91765565
0.067569301 0.20607826 0.91929996
0.012690101 0.21183383 0.91829985
0.00070377887 0.16964994 0.92113334
0.0024188994 0.17287645 0.9200666
0.0024264364 0.17684878 0.92293328
0.0041372324 0.18325168 0.92060024
0.0058537382 0.18495077 0.92053354
0.0093037421 0.20243105 0.922158
0.074085385 0.20299928 0.92215556
0.011029395 0.20768686 0.92264444
0.068021297 0.2082952 0.92078006
0.071957082 0.20738316 0.92281342
0.0084840059 0.20342471 0.92669702
0.0093512516 0.2077751 0.92686659
0.074949674 0.20666745 0.92576665
0.0076510329 0.20422281 0.93032014
0.007658483 0.20788653 0.93122643
