# .PCD v0.7 - Point Cloud Data file format
VERSION 0.7
FIELDS x y z
SIZE 4 4 4
TYPE F F F
COUNT 1 1 1
WIDTH 1057
HEIGHT 1
VIEWPOINT 0 0 0 1 0 0 0
POINTS 1057
DATA ascii
0.038609687 0.059120018 0.81473368
0.034028005 0.062108975 0.81417799
0.037012286 0.062020566 0.81302202
0.041407838 0.062262494 0.81371665
0.037562609 0.066134155 0.81401116
0.041467741 0.067179091 0.81387883
0.038840305 0.054899313 0.81960005
0.023537418 0.059429638 0.81900018
0.027638903 0.058164708 0.81836003
0.032626159 0.057770364 0.81710374
0.037007801 0.057579823 0.81710017
0.042132765 0.058000974 0.81820667
0.023549872 0.061747812 0.81943351
0.027322814 0.06240515 0.81806117
0.031791683 0.062190503 0.81524473
0.044438012 0.061953008 0.81711674
0.028629674 0.066541106 0.81902242
0.032786854 0.067215882 0.8173334
0.03664409 0.068833463 0.81608897
0.044433288 0.067645378 0.81703335
0.032700095 0.070851572 0.81895018
0.037770804 0.072590806 0.81851119
0.042591337 0.072691455 0.81821662
0.028735153 0.054553181 0.82206661
0.032850049 0.054339807 0.82270002
0.037130412 0.054164331 0.82234651
0.04174272 0.054178346 0.82255995
0.013846328 0.058569424 0.82405341
0.017661018 0.057865303 0.82277316
0.021947034 0.057133015 0.82185441
0.025918212 0.055813417 0.82184994
0.044247359 0.056496486 0.82066643
0.046880733 0.05737887 0.82357788
0.013952815 0.061858203 0.82428902
0.01769387 0.062555939 0.82253325
0.021627573 0.062851891 0.82105684
0.047428455 0.062760197 0.82272226
0.019086244 0.065976977 0.8246668
0.022296885 0.06714993 0.82258314
0.026141949 0.067707859 0.82085532
0.047042381 0.067731962 0.82268333
0.023680158 0.07128638 0.82396674
0.027617704 0.072078303 0.82157421
0.032562766 0.073755361 0.8209902
0.036344927 0.074317984 0.8207776
0.044980153 0.07476186 0.82006651
0.047337152 0.07240843 0.82304764
0.027671661 0.075720392 0.82385337
0.032864477 0.076566435 0.82306665
0.037898749 0.077862166 0.82287604
0.041990831 0.077942982 0.82142937
0.046699926 0.077363282 0.82340002
0.042130023 0.081266947 0.82415551
0.04524345 0.081337087 0.82486689
0.0083614169 0.053591564 0.82885027
0.013177644 0.052566573 0.82789999
0.017610535 0.052354634 0.82760006
0.022216612 0.053064998 0.82666677
0.027114289 0.05309793 0.82718915
0.032820392 0.051894818 0.82843351
0.037630618 0.051524252 0.8266111
0.042295922 0.051573236 0.82740003
0.046438884 0.05288643 0.82788891
0.050112467 0.053991213 0.82906699
0.0033391395 0.057458952 0.82903367
0.0077559846 0.057225451 0.82781035
0.012291566 0.056847554 0.82577151
0.016790535 0.055276651 0.82523358
0.04921253 0.056929044 0.82693315
0.051024258 0.056748681 0.8288002
0.0037255755 0.060155269 0.82900035
0.0077931131 0.061920356 0.82823032
0.012451359 0.063574247 0.82665545
0.01601669 0.064468972 0.82500017
0.050404865 0.061990619 0.82878685
0.0099099586 0.066323645 0.82900035
0.013187923 0.067637771 0.8285585
0.017397922 0.06787058 0.82669985
0.020632589 0.069072954 0.82500017
0.048365138 0.066822693 0.82563329
0.018148085 0.071949482 0.82866693
0.02177098 0.072497524 0.82654285
0.049931146 0.073772177 0.82606679
0.050112467 0.07249786 0.82906681
0.022566624 0.076123722 0.82824022
0.027115205 0.077977158 0.82719994
0.032943498 0.078285135 0.82504463
0.036021866 0.078287244 0.82506686
0.048351716 0.077550799 0.82540011
0.050019789 0.076981917 0.82753354
0.027698573 0.080229975 0.82928354
0.033214938 0.082240835 0.8283335
0.03749511 0.082782246 0.82703322
0.042227406 0.083759725 0.82605571
0.046654157 0.082575642 0.82805336
0.034678128 0.086447351 0.82973349
0.037927229 0.087708324 0.82888359
0.042331047 0.087816782 0.82808155
0.045503058 0.086433455 0.82960016
0.039292097 0.091011867 0.82913369
0.042002145 0.091406912 0.82921702
0.013858369 0.049660236 0.83403337
0.017748257 0.049659576 0.83402222
0.022429088 0.049693983 0.83459979
0.02745872 0.049252078 0.8337
0.032511186 0.048864305 0.83370823
0.037915099 0.048813436 0.83284444
0.042562079 0.048799176 0.83259994
0.047316831 0.049675453 0.8342886
-0.0055911704 0.053600959 0.83499974
-0.0024757374 0.053563565 0.83442211
0.0021890337 0.052686613 0.83285922
0.0072304569 0.052058101 0.83208323
0.011481852 0.051017281 0.83086663
0.022329206 0.051015913 0.83084446
0.026993573 0.051047307 0.83135551
0.030863862 0.051037751 0.83119988
0.048145961 0.051522423 0.83071113
0.052346807 0.052621529 0.83180737
0.055050518 0.05273575 0.8336001
-0.0059804926 0.057484113 0.83499974
-0.0024717988 0.057356101 0.83314818
0.0012547745 0.056897737 0.83097327
0.05395671 0.056906648 0.83110666
0.056593914 0.057375342 0.83342677
-0.0055911704 0.060590629 0.83499974
-0.0024755038 0.062089786 0.83426654
0.0019909432 0.062053226 0.83117497
0.0068326467 0.064410418 0.83084434
0.05256426 0.06263119 0.83115548
0.055837665 0.061275795 0.83375001
-0.0014384113 0.06576816 0.83499974
0.0023486398 0.067050919 0.83419323
0.0072389599 0.068079732 0.83317775
0.011488303 0.069603212 0.83133322
0.052027218 0.067838423 0.83246005
0.0088691097 0.072793201 0.83498067
0.013055619 0.072800256 0.83251113
0.016643735 0.07367029 0.83068877
0.052297343 0.072549343 0.83218098
0.0099816816 0.076123245 0.83499974
0.013603429 0.07709384 0.83428866
0.017723799 0.077489316 0.83296293
0.021950781 0.07848902 0.83126664
0.051864833 0.077433139 0.83237153
0.018804245 0.081292182 0.83491087
0.022414336 0.082246035 0.8340739
0.027023099 0.082844652 0.83230001
0.030085208 0.082725197 0.83109999
0.048708774 0.082765386 0.83150005
0.050416693 0.081471711 0.83409995
0.023217648 0.085439384 0.83496642
0.027088355 0.086923607 0.83429611
0.032158028 0.087369308 0.83263338
0.036277972 0.089663774 0.83093327
0.047379576 0.087578326 0.83233333
0.028150016 0.090620361 0.83499974
0.032812566 0.092148773 0.83477205
0.037657063 0.093007669 0.83145827
0.0427799 0.093667641 0.83079994
0.046759654 0.092275791 0.83358878
0.034898266 0.097092271 0.83499974
0.037936524 0.09767504 0.83334082
0.042564459 0.097593628 0.83264452
0.045751717 0.096215658 0.83413315
0.038312972 0.10156769 0.83475983
0.042673599 0.10094856 0.83477759
-0.012160698 0.049527735 0.83705008
-0.0071864733 0.049983192 0.83945709
-0.0017062641 0.049961925 0.83910012
0.0022065253 0.049982432 0.83944458
0.0072843991 0.049523123 0.83828342
0.011835911 0.048839286 0.83770007
0.018225973 0.047954679 0.83813334
0.022517271 0.047550779 0.8378889
0.027007041 0.046569366 0.83778328
0.032205191 0.046460308 0.83789337
0.038526822 0.046371676 0.83770001
0.042790081 0.045947447 0.8370778
0.047288917 0.046930023 0.83725005
0.051915817 0.048709996 0.83677137
0.055927288 0.049434412 0.83897799
-0.011391079 0.05267765 0.83619076
-0.0076084435 0.052705374 0.83664757
-0.0024810575 0.051339298 0.83611101
0.056405675 0.052523095 0.83639991
-0.011660101 0.057846528 0.83743024
-0.0080909813 0.057538398 0.83578646
0.058538936 0.058542818 0.83903337
-0.011614353 0.061907083 0.83879977
-0.007360464 0.062479522 0.83689159
0.057522248 0.062979355 0.83786666
-0.016551424 0.066263348 0.83800006
-0.011887636 0.065620616 0.83973753
-0.0067291819 0.066833563 0.83814287
-0.0030030666 0.067482434 0.83698893
0.0021970079 0.069966011 0.83566666
0.056878276 0.067011587 0.83759254
-0.0013143425 0.071375355 0.83851683
0.0020452607 0.072931156 0.83757335
0.0059458548 0.073491357 0.83686656
0.056046903 0.072212882 0.8385334
0.0037705158 0.076487914 0.83900017
0.007086738 0.077763475 0.83801675
0.011248549 0.078761317 0.83662665
0.053758465 0.077926956 0.8376925
0.012958876 0.082226977 0.83739996
0.017277298 0.082991287 0.8363778
0.05214148 0.083136037 0.83678657
0.01472023 0.085831672 0.83880019
0.018027559 0.087119065 0.83804172
0.022254789 0.087587938 0.83640945
0.052167628 0.0872254 0.83720005
0.055459965 0.087496176 0.83980018
0.019430315 0.090591758 0.83953339
0.02272349 0.091825038 0.83830839
0.026965942 0.092990041 0.8365165
0.030768864 0.094317459 0.83564419
0.048451547 0.093318395 0.83597773
0.052030437 0.09180703 0.83815008
0.027532667 0.097014025 0.83834678
0.032169878 0.098255999 0.83697331
0.047827482 0.097948261 0.83715564
0.051242601 0.095751882 0.8391335
0.033439945 0.10127908 0.83751112
0.036827732 0.10388821 0.83761102
0.042741727 0.10344348 0.83611101
0.046574734 0.10255321 0.83773345
0.039071184 0.1072185 0.83765334
0.04264864 0.10739488 0.83811671
0.046044245 0.10698153 0.83946657
0.0030095135 0.044025782 0.84499991
0.0069493516 0.044025782 0.84499997
0.012465128 0.044025782 0.84499991
0.017980903 0.044025782 0.84499997
0.022691844 0.043364387 0.84437335
0.027381087 0.04315294 0.84332228
0.032118119 0.043176178 0.84377784
0.037277486 0.043276228 0.84354287
0.042943034 0.042550631 0.84348887
0.047512494 0.043308567 0.84329337
0.052638065 0.044014204 0.84477758
0.05659131 0.044025782 0.84499991
-0.0070157899 0.047229942 0.84260094
-0.0025005902 0.047056794 0.84301686
0.0022152164 0.047040384 0.84271854
0.0067254994 0.04678335 0.84161675
0.012421219 0.046219323 0.84202498
0.017608091 0.04607375 0.84222668
0.022617603 0.04541536 0.84162211
0.032782346 0.045362011 0.84063327
0.036702216 0.045362607 0.8406443
0.049210615 0.04533143 0.84006661
0.052760698 0.04604549 0.84170663
0.057458568 0.046875119 0.84325844
0.062501073 0.047169514 0.84499991
-0.013505768 0.054898579 0.84300005
-0.0071946876 0.050039332 0.84040004
-0.0040609408 0.050051238 0.84059983
0.058716852 0.052457143 0.84158337
0.061450828 0.052177109 0.84463996
-0.015077974 0.056466721 0.84300005
-0.013473726 0.056332752 0.84100002
0.061052471 0.058382075 0.84347999
-0.01506605 0.064256579 0.84233338
-0.012418735 0.06358549 0.84036511
0.060823526 0.062389955 0.84358335
-0.015438739 0.067694992 0.84124708
-0.011907935 0.067747369 0.84120041
-0.0087627415 0.068022951 0.8404665
0.060421314 0.066696718 0.84346664
-0.015063664 0.070513025 0.84219998
-0.011719076 0.071765766 0.84376222
-0.0072131432 0.072101548 0.84244454
-0.003436039 0.072295174 0.84105319
0.058685459 0.071206175 0.84113342
-0.010381637 0.076217264 0.84464991
-0.007028013 0.076737732 0.84388334
-0.0025014104 0.076860107 0.84306675
0.0022141985 0.07834471 0.84217155
0.0053479816 0.079799078 0.84099972
0.053906549 0.079704203 0.83999997
0.055598646 0.077536926 0.84189993
-0.0021121851 0.080563694 0.84491658
0.0024452643 0.08238022 0.84454286
0.0069285836 0.083087981 0.8426075
0.010574474 0.08395765 0.84086651
0.053931471 0.082086064 0.8403883
0.0074714334 0.087480925 0.84467769
0.012207701 0.087886095 0.84216976
0.016327314 0.089185625 0.84099972
0.055603053 0.087722093 0.84196651
0.0085252859 0.091181673 0.84499991
0.013067655 0.092335306 0.84436297
0.017728096 0.092661977 0.8423751
0.021032745 0.093878902 0.84099972
0.053923655 0.093797036 0.84026653
0.05565808 0.09094426 0.84279996
0.014829034 0.09589722 0.84499991
0.01849485 0.096888296 0.84450001
0.022654163 0.097240731 0.84300756
0.025749393 0.097833678 0.84136677
0.052959785 0.097592242 0.84153873
0.055728514 0.095768608 0.84386659
0.023338705 0.10155439 0.84498656
0.027372306 0.10195257 0.84306675
0.032015562 0.1032802 0.84111989
0.04871567 0.10320804 0.84053326
0.05172411 0.10112564 0.84271663
0.02774941 0.10594884 0.84493321
0.031910561 0.10690948 0.84351683
0.036315095 0.10832208 0.84207618
0.044538677 0.109471 0.84059983
0.048056304 0.10765368 0.8427
0.033740267 0.11004401 0.84499991
0.038412958 0.11146033 0.84382224
0.042527482 0.11308107 0.84313339
0.046820398 0.112013 0.84404439
0.042785801 0.11727029 0.84468323
0.057714291 0.034796581 0.84993362
0.029181829 0.039539706 0.84993351
0.037088957 0.039520066 0.84951138
0.042562131 0.039455194 0.84811687
0.048140306 0.039486986 0.84880036
0.053302992 0.039105896 0.84910035
0.057214744 0.037701707 0.84923846
0.06347806 0.038983122 0.84928918
0.066014074 0.038921397 0.84796315
-0.0061834436 0.043501828 0.84500003
-0.0021956163 0.043499388 0.84701502
0.0022285555 0.042312954 0.84744853
0.006967382 0.041779339 0.84727794
0.012492663 0.041759238 0.84686679
0.018032251 0.041786026 0.84741133
0.022761114 0.041369542 0.84695011
0.027494667 0.04096913 0.84680003
0.032264244 0.041007835 0.84760016
0.036981434 0.04098095 0.84704447
0.040930189 0.040980414 0.84703338
0.048395943 0.041341349 0.84636676
0.052740589 0.041738067 0.84643334
0.057708152 0.042078976 0.84651428
0.062283363 0.042573638 0.84740019
0.066832222 0.042775016 0.84745848
0.061831217 0.047199801 0.8455466
0.067006946 0.047290042 0.84716302
0.062906243 0.051501416 0.84514987
0.066451184 0.051470995 0.84680557
0.0628426 0.056654152 0.84580469
0.065709047 0.057031643 0.84673703
-0.015113746 0.062888138 0.84500003
0.062934011 0.062927268 0.84552354
0.065326549 0.061379757 0.84587508
-0.015149518 0.072490484 0.84700006
-0.0127597 0.073946297 0.84563053
-0.011975648 0.07712736 0.84600228
-0.008820069 0.078696579 0.84596556
-0.010952272 0.081008941 0.84820265
-0.007060668 0.08182095 0.84774888
-0.0028276746 0.082858294 0.84668005
0.00064673106 0.083466962 0.84646678
0.055812143 0.081763387 0.84513313
-0.0056902743 0.085376419 0.84980005
-0.0019902883 0.086332798 0.84883356
0.0022262176 0.087208681 0.84711862
0.0059042475 0.089172967 0.84582216
0.0030236102 0.090820059 0.84896708
0.0069749616 0.09283898 0.84816676
0.010644748 0.093966775 0.84648895
0.0085703544 0.096404128 0.84946692
0.012764415 0.097761154 0.84752607
0.016951708 0.098644145 0.84608889
0.014109557 0.10110497 0.84913367
0.018231558 0.10229591 0.84754187
0.021942848 0.10307676 0.84586668
0.051287111 0.10418635 0.84850001
0.019649414 0.10661672 0.84900033
0.022771757 0.10720339 0.84738529
0.02708495 0.10824997 0.84633338
0.049569916 0.10862618 0.84619993
0.051877007 0.10641897 0.84952235
0.023873033 0.11109728 0.8490448
0.027774932 0.1116237 0.84846699
0.032063823 0.11215273 0.84755856
0.036943156 0.11334813 0.84620011
0.048525106 0.11310079 0.84631115
0.051327407 0.11137623 0.84916687
0.033918608 0.11536619 0.84946686
0.037216298 0.11712838 0.84792525
0.041667078 0.1192186 0.84596664
0.047614478 0.11780138 0.8474955
0.051337477 0.1153481 0.84933352
0.038637009 0.12315846 0.84871143
0.042530835 0.12297585 0.84745002
0.047338981 0.12156758 0.84863365
0.042642176 0.12645721 0.84966689
0.045001406 0.12640762 0.84933364
0.053989124 0.034156531 0.85370123
0.057861775 0.033932917 0.85208672
0.062332571 0.034544431 0.85347497
0.003038262 0.039689839 0.85316074
0.0070119593 0.039675128 0.85284442
0.012909861 0.038956434 0.85202849
0.018363159 0.03851575 0.85229987
0.022680592 0.038520239 0.85240471
0.027334657 0.03866864 0.85165328
0.032416686 0.038826104 0.85163325
0.037160099 0.038012255 0.85113329
0.041934539 0.038024168 0.8513999
0.047027882 0.037546191 0.85255557
0.052323576 0.037016708 0.8525278
0.059322685 0.038764499 0.8502667
0.061993867 0.037462711 0.85065001
0.065722354 0.03642327 0.85100001
-0.00093693112 0.041172344 0.85100001
0.00064984185 0.041150019 0.85053837
-0.011244122 0.083844513 0.85029548
-0.0088766534 0.083952747 0.85139287
-0.01101539 0.086754851 0.85297966
-0.0074977735 0.087436691 0.85253179
-0.0035805311 0.08810129 0.85066658
-0.0062516355 0.091127098 0.85431123
-0.0023294436 0.091767445 0.85224992
0.0020102733 0.092724793 0.85091418
0.0062041008 0.094980292 0.85086656
-0.0017369897 0.095344916 0.85413343
0.002244489 0.096903034 0.85386199
0.0070020105 0.098213807 0.85145223
0.01017056 0.098929659 0.85079992
0.0038397256 0.10093777 0.8544001
0.00725155 0.10237427 0.8540715
0.012251017 0.10337244 0.85219657
0.016521452 0.10449331 0.85099989
0.013927926 0.10753208 0.85417777
0.017672772 0.10800044 0.85189992
0.052485738 0.10869249 0.85082245
0.018481333 0.11179768 0.85358667
0.022350492 0.1129884 0.85138887
0.026836684 0.11398701 0.85096657
0.052658051 0.11286558 0.85146689
0.023736214 0.11752107 0.8536334
0.027688678 0.11740502 0.85278523
0.032194093 0.11735642 0.851004
0.035555825 0.11870334 0.85073322
0.049902823 0.11807282 0.85188341
0.051484548 0.117263 0.85176671
0.024549041 0.12077602 0.85420007
0.028263712 0.12182442 0.85412234
0.032456055 0.12215218 0.85271108
0.03635034 0.12187325 0.8507666
0.047473039 0.12349445 0.85103327
0.050036579 0.12156583 0.85416687
0.032723833 0.12660977 0.85373813
0.036998067 0.1270026 0.85199165
0.041508019 0.12780946 0.85077494
0.04650268 0.12742604 0.85263211
0.037291948 0.13030474 0.85416669
0.042368304 0.13087334 0.85372674
0.046055775 0.131899 0.85420007
0.042358752 0.028809644 0.8599999
0.038718369 0.032381978 0.85930008
0.042284317 0.031952716 0.85849625
0.046787571 0.032359309 0.85718817
0.050676454 0.032921921 0.85600656
0.0038523092 0.038283188 0.85719997
0.0070511089 0.038296092 0.85748893
0.011447985 0.03709602 0.85741681
0.017278535 0.036042739 0.85704011
0.023362482 0.0357401 0.85742676
0.027545348 0.036092889 0.85822678
0.032635741 0.035898417 0.85740012
0.037401702 0.035868272 0.85667777
0.04217796 0.035854276 0.85633349
0.047345988 0.035439823 0.85592532
0.050936334 0.035040859 0.85590029
-0.01158629 0.088123143 0.85601854
-0.011090633 0.092145473 0.85886115
-0.0078695742 0.09299878 0.8569088
-0.0041346946 0.093946353 0.85586703
-0.011358004 0.095884457 0.85896671
-0.0068178759 0.096910052 0.85861039
-0.0027711517 0.097703233 0.85689539
0.00065391301 0.09872257 0.85586703
-0.0017464969 0.10142612 0.85853332
0.0017953983 0.10224192 0.85676205
0.0054425178 0.10349879 0.85586703
0.0033255864 0.10600013 0.85893327
0.006849064 0.10705039 0.85720843
0.011507961 0.10859344 0.85586703
0.008128616 0.11074529 0.8585555
0.01162335 0.11215537 0.8577047
0.016625453 0.11380506 0.85640013
0.018058099 0.11753689 0.85810006
0.021411769 0.11786852 0.85615569
0.051726319 0.11940559 0.85576683
0.02304453 0.12284473 0.85754299
0.026720976 0.12364608 0.85573363
0.052097205 0.12336355 0.85746121
0.024664007 0.12692928 0.85819989
0.027831972 0.12758085 0.85720754
0.031779788 0.12897201 0.85586703
0.048528209 0.1281451 0.85565984
0.051029313 0.12761699 0.85745549
0.027890773 0.13104551 0.85902232
0.03262312 0.1313884 0.85708016
0.037446287 0.13324098 0.85772222
0.041769709 0.13339444 0.85615027
0.048162244 0.13261276 0.8562429
0.050896525 0.13215438 0.85791987
0.038554151 0.13630863 0.85862213
0.042225845 0.13716608 0.85731864
0.046983648 0.13704699 0.85657793
0.050315827 0.13742389 0.85893339
0.043086983 0.14055312 0.85853326
0.046787273 0.14124517 0.85885334
0.029664811 0.028943654 0.8640002
0.032809615 0.028074123 0.86197072
0.037560023 0.028820077 0.86031121
0.040754844 0.028809652 0.86000013
0.0071074651 0.031762961 0.86416537
0.010865211 0.033228535 0.86397797
0.017541673 0.032893397 0.86222506
0.023148501 0.032859717 0.86135554
0.028177822 0.032268606 0.86163342
0.032776896 0.032049198 0.86110371
0.036584668 0.031689219 0.86000025
0.0038746297 0.03609854 0.8621667
0.007084772 0.036071185 0.86151832
0.011907288 0.035277855 0.86168885
0.01669676 0.035210073 0.86003351
0.029527472 0.035208706 0.86000019
-0.011642876 0.093361139 0.86025143
-0.012203227 0.098620921 0.8619346
-0.0084413672 0.098776437 0.86096168
-0.011013075 0.10239505 0.86332452
-0.0073826346 0.10266098 0.86219257
-0.0031957726 0.10312857 0.86074674
-0.010625614 0.10936723 0.86450005
-0.0057824552 0.10603637 0.86356676
-0.0020235493 0.10704819 0.86308342
0.0017271102 0.10780992 0.86062235
-0.010607178 0.11238816 0.86300009
0.0024670048 0.11210287 0.86234176
0.0065427311 0.11261857 0.86066675
0.0038822703 0.11571498 0.86386687
0.0072970376 0.11699069 0.86290008
0.011897783 0.1169337 0.86100006
0.016696179 0.11946305 0.86000019
0.0079176109 0.12065212 0.8647002
0.012466922 0.12153342 0.86333913
0.017257636 0.12233374 0.86143708
0.021507917 0.12479562 0.86000019
0.05361104 0.12085268 0.86039996
0.055495936 0.12227016 0.8647669
0.018824583 0.12661943 0.86308104
0.022675259 0.12835072 0.86084765
0.053624894 0.12808822 0.86062223
0.055402521 0.12688194 0.86331129
0.019996582 0.13019758 0.8640002
0.023574276 0.13194196 0.86226666
0.02798724 0.13390362 0.86198896
0.032737128 0.13400204 0.86005014
0.053129513 0.13298836 0.86125565
0.055378906 0.13084066 0.86294317
0.024842191 0.13508178 0.86440015
0.029105151 0.13705844 0.86334449
0.032813445 0.13792668 0.86207414
0.037028212 0.13818811 0.86037785
0.052534174 0.13718495 0.86246669
0.033199407 0.14205065 0.86375344
0.037625447 0.14269571 0.86182225
0.04213414 0.14286609 0.86009544
0.047599822 0.1436761 0.86050004
0.051359292 0.14288937 0.86298895
0.038507905 0.14619923 0.86358345
0.042676955 0.14740263 0.86239171
0.047085293 0.14735432 0.86210841
0.050577462 0.14616817 0.86340022
0.0079325978 0.02901902 0.86625004
0.013623976 0.029099323 0.86864722
0.016856773 0.029087016 0.86827976
0.022880618 0.028406067 0.86862856
0.027832869 0.028081834 0.86718673
0.0071220337 0.032556392 0.86604583
0.012510569 0.031707201 0.86634278
0.016825693 0.030646324 0.86670017
0.022474874 0.030633947 0.86635011
0.026501218 0.030619215 0.86593348
-0.012279795 0.10409449 0.86745834
-0.010657505 0.1072768 0.86709476
-0.0076238057 0.10825757 0.86687231
-0.0036452946 0.10900754 0.86590022
-0.0072298758 0.11285776 0.86814958
-0.0025724852 0.11291999 0.86707413
0.00066226639 0.11449549 0.86680013
0.057426542 0.11162734 0.86957914
-0.0025796976 0.11647993 0.86957771
0.0022805633 0.11787506 0.8679381
0.0055095004 0.11927762 0.86640012
0.0033647176 0.12178781 0.86897773
0.0069058388 0.123169 0.86785716
0.010893994 0.12355548 0.8662557
0.0079573533 0.12610638 0.86903322
0.012205152 0.1274585 0.86860418
0.015851792 0.12766857 0.86646682
0.013631609 0.13097124 0.86913323
0.017088734 0.13200636 0.86834288
0.021269152 0.13341998 0.86665839
0.022793991 0.13730758 0.86830378
0.027057394 0.13809846 0.86651117
0.054015625 0.13789037 0.86689281
0.024436673 0.1412036 0.86908883
0.028187867 0.14213437 0.86818528
0.032963805 0.14419934 0.86605012
0.05406097 0.14204203 0.86762077
0.029841052 0.14552201 0.86913323
0.032850262 0.14721006 0.86835837
0.037436116 0.14794186 0.86673349
0.041053388 0.14988205 0.86630017
0.04906176 0.14966868 0.86506689
0.052408777 0.14718553 0.86703348
0.03389848 0.1503953 0.86926663
0.038469974 0.15138875 0.86877781
0.042736452 0.15254591 0.86770004
0.04754163 0.15238003 0.86675555
0.050828394 0.15092883 0.86768341
0.039592527 0.15613279 0.86970013
0.043005571 0.15661801 0.86902499
0.047199044 0.15657608 0.86895239
0.046092879 0.16022015 0.86993343
0.059321847 0.10889428 0.87360716
0.061346751 0.1080933 0.87151104
-0.0090706544 0.11491813 0.87
0.058407888 0.11194842 0.87210262
0.061772846 0.11134563 0.87370682
-0.0074646603 0.11759029 0.87180883
-0.0021776361 0.11870256 0.87105024
0.00066532247 0.1198834 0.8708002
0.057908542 0.11776946 0.87194622
-0.0058572092 0.12042455 0.87473077
-0.0025901273 0.12181963 0.87306648
0.0017478127 0.12369319 0.87101126
0.058378492 0.12243372 0.87166661
0.060999468 0.12199157 0.87429994
-0.0013703944 0.12645975 0.87426662
0.0025257959 0.12779094 0.87264758
0.0069284947 0.12843199 0.87070495
0.010401675 0.12950328 0.8701334
0.058403771 0.12735228 0.87203884
0.061027378 0.12611508 0.87469989
0.0022999335 0.13074027 0.87480003
0.0071808673 0.13241498 0.87332219
0.011841533 0.13317929 0.87167507
0.016092405 0.13445175 0.8707335
0.0080107953 0.13509002 0.87486666
0.013295046 0.13774942 0.87366652
0.016921759 0.13783844 0.87165934
0.020151645 0.1384961 0.87070018
0.013722569 0.14161052 0.87493336
0.017492695 0.14239554 0.87308878
0.021589652 0.14286587 0.87141681
0.025031863 0.14421433 0.87100023
0.022386499 0.14732902 0.87345546
0.027258307 0.1476704 0.87140006
0.054477151 0.14882645 0.8743
0.028357863 0.15151733 0.87339985
0.032280002 0.15300041 0.8718223
0.036939546 0.15337603 0.87088913
0.052252483 0.15275349 0.87118334
0.033418369 0.15726556 0.87261653
0.037562627 0.15740588 0.87099069
0.041272949 0.15878417 0.87093353
0.049409598 0.15802315 0.87119997
0.051969934 0.15758404 0.87325549
0.038419813 0.16135119 0.87254655
0.042930316 0.1621539 0.87162232
0.048033271 0.16242717 0.87200421
0.051223807 0.16186251 0.87443328
0.043867938 0.16586551 0.87409997
0.047109164 0.16579592 0.87373328
0.064569347 0.10623583 0.87849987
0.059516974 0.11332856 0.87648088
0.061965324 0.11413674 0.87642705
0.05947414 0.11650546 0.87585008
0.061853658 0.11716819 0.87715328
-0.0068518743 0.12265421 0.87670738
-0.0042287363 0.12376402 0.87533337
0.061140165 0.122273 0.87631673
-0.0070459796 0.12711486 0.87758893
-0.003578438 0.12742612 0.87588006
0.062238496 0.12826703 0.87642783
-0.0065382579 0.13206568 0.87855846
-0.0026021032 0.13217442 0.8771112
0.001977609 0.13310644 0.87680686
0.059560716 0.13217698 0.87712502
0.061243743 0.13146159 0.87780106
-0.00096885912 0.13588263 0.87999976
0.0028584059 0.13688803 0.87944418
0.0069824089 0.13760732 0.87757152
0.011014167 0.13796045 0.87586671
0.058441207 0.1369134 0.87873673
0.0076384195 0.14105807 0.87909997
0.011658366 0.14226858 0.87755728
0.016171442 0.14406282 0.87500006
0.057331752 0.14244068 0.87804592
0.012383125 0.14673917 0.87919039
0.016792092 0.14730847 0.87701446
0.020802898 0.14927398 0.87533331
0.057195276 0.14708637 0.87847215
0.013802042 0.15061539 0.87999976
0.017268388 0.15186521 0.87893742
0.021948673 0.15266554 0.87766677
0.026397143 0.15316857 0.87587506
0.054602459 0.15324499 0.87631106
0.05640294 0.15042713 0.87889993
0.018725671 0.15552633 0.87999976
0.022228386 0.15660086 0.87946653
0.026668916 0.15703225 0.87812096
0.03059943 0.157966 0.87537783
0.054673072 0.15833932 0.87744451
0.027998783 0.1608289 0.87915546
0.032001685 0.16219677 0.87844169
0.03729184 0.16406706 0.87665349
0.052401338 0.16295719 0.87594455
0.032675959 0.16534807 0.87999976
0.037562136 0.16723272 0.87914991
0.043226276 0.16843738 0.87761116
0.048114788 0.1683607 0.87721109
0.052283205 0.16588964 0.87853324
0.043065567 0.17187661 0.87989974
0.047446866 0.17271447 0.87999976
0.064866155 0.10836586 0.8825385
0.066489123 0.1066873 0.88223326
0.064896159 0.1125226 0.88294661
0.066976756 0.11379141 0.88324398
0.064463049 0.11740611 0.88263702
0.066564478 0.11748809 0.88323343
-0.009174915 0.12360539 0.88000005
0.063558854 0.12258776 0.88151425
0.065034658 0.12181498 0.88483107
0.06308613 0.12615633 0.88066673
0.062757529 0.13329113 0.88180894
-0.0067375819 0.13636841 0.88314593
-0.0023428737 0.13793065 0.8826161
0.0012202092 0.13875645 0.88092208
0.05977178 0.13837489 0.88023311
0.062419817 0.13796346 0.88284135
0.0026494458 0.14192869 0.88298672
0.0069201058 0.1436727 0.88159335
0.059790641 0.14251326 0.88051087
0.062302686 0.14267157 0.88352001
0.0085006822 0.14750114 0.88340008
0.011348317 0.14909127 0.88066649
0.059908725 0.14689809 0.88224995
0.061295576 0.1484978 0.88445002
0.012470285 0.1526992 0.88257784
0.01546548 0.15411088 0.88126653
0.057598703 0.15295406 0.88214654
0.013860071 0.15618022 0.88370013
0.017129039 0.1575826 0.88234288
0.021200666 0.15890244 0.88056648
0.056624692 0.15758394 0.88235551
0.018823557 0.16127588 0.88460022
0.022318017 0.16216066 0.88300955
0.026420915 0.16284746 0.88122773
0.054903969 0.16310601 0.88114989
0.05667033 0.16099635 0.88306677
0.023780996 0.16626881 0.88490015
0.027339036 0.16648868 0.88257343
0.031689819 0.16782205 0.88193333
0.0351431 0.16864757 0.88013303
0.052795038 0.16855668 0.88251114
0.055046234 0.16599321 0.8834334
0.032840781 0.17112005 0.88445008
0.037056204 0.17203215 0.88174158
0.040892772 0.17276043 0.88023317
0.04998431 0.17051703 0.88133341
0.050665498 0.17260683 0.88364458
0.038039271 0.176488 0.88386673
0.041805167 0.17724723 0.88218522
0.046692744 0.17706163 0.8812629
0.050114743 0.1767149 0.88363343
0.043550707 0.18094033 0.88420016
0.047179326 0.18160284 0.88422012
0.066742852 0.10874178 0.88559991
0.066807829 0.11159474 0.8864519
0.068474114 0.11794101 0.88663101
0.06756828 0.12254813 0.88775319
0.066430628 0.12692966 0.88771152
0.066421807 0.13233894 0.88759941
-0.0059384722 0.13859271 0.88686669
-0.0042757932 0.13831252 0.88507414
0.066425435 0.13683055 0.88766432
-0.0071303393 0.1423264 0.88810259
-0.0028659452 0.14231528 0.88656175
0.0023272433 0.1443807 0.88526678
0.067060478 0.14070866 0.88981485
-0.0067663491 0.14686514 0.88701016
-0.0026317008 0.14691287 0.8872968
0.002094764 0.1472986 0.88678068
0.0064576669 0.14829168 0.88567495
0.063584 0.14614011 0.88761675
-0.0059565632 0.15142585 0.88956839
-0.0028728789 0.15164934 0.88879853
0.0025413232 0.15178765 0.8880499
0.0070585865 0.15229833 0.88707596
0.010586563 0.15322122 0.88559991
0.060756888 0.15229912 0.88662225
0.0039964183 0.15550981 0.88926679
0.0073073837 0.15704691 0.88859999
0.011692327 0.15714167 0.8860333
0.015539186 0.15978672 0.88546664
0.058520898 0.15743721 0.88614988
0.060379174 0.15714832 0.8891778
0.0081440592 0.16049647 0.88940012
0.012507575 0.1614347 0.88805705
0.016881574 0.16263267 0.88661307
0.021322068 0.16475296 0.88559997
0.058006853 0.16166063 0.88671094
0.060389735 0.16048446 0.88933343
0.013943719 0.16621859 0.88903332
0.01723697 0.16683251 0.88789624
0.022171462 0.16822717 0.88654268
0.02668865 0.1692771 0.88556671
0.056482565 0.16699542 0.88657486
0.018372143 0.1709705 0.88937789
0.022227906 0.17223758 0.88879997
0.027159728 0.17252968 0.88746643
0.031853668 0.17363481 0.88648552
0.035380032 0.17472933 0.8860665
0.052759707 0.1731697 0.8865248
0.056035805 0.17160574 0.88866663
0.02391446 0.17547864 0.88986677
0.027447451 0.1765119 0.88911432
0.032145213 0.17759527 0.88803321
0.036725514 0.17847082 0.88663977
0.052446611 0.17778523 0.88721889
0.055419412 0.17704614 0.88942224
0.032517001 0.18095493 0.88911998
0.037122633 0.18204321 0.88824439
0.041801576 0.18325824 0.88645816
0.046515778 0.18413419 0.88571668
0.052022524 0.18255036 0.88803321
0.038266167 0.18580936 0.88913339
0.042098459 0.18757735 0.88836652
0.047208402 0.18792482 0.88708299
0.050935179 0.18674774 0.88835555
0.042973932 0.19026244 0.88933337
0.047102559 0.19211818 0.88898891
0.050453145 0.19031948 0.88960022
0.047980681 0.19534983 0.88990009
0.06879022 0.12096942 0.8907243
0.070470348 0.12431655 0.89096314
0.068774462 0.12839639 0.8905201
0.070512414 0.12770708 0.89149499
0.06879437 0.13174751 0.89077777
0.06627427 0.14162961 0.89040363
-0.0018101954 0.15400562 0.89013338
0.00068001723 0.15398832 0.89003342
-0.0021716449 0.15758871 0.89299971
0.0021358312 0.1578944 0.89222097
0.0031816838 0.16124237 0.89353359
0.0073405826 0.16272327 0.89253348
0.011477057 0.16403873 0.89066696
0.05879936 0.16398349 0.89036679
0.060536847 0.16336408 0.89150012
0.01205499 0.16769816 0.89250582
0.058944631 0.16770853 0.89256674
0.060674917 0.16955309 0.89353359
0.014027367 0.17137496 0.89436686
0.016986603 0.17293319 0.89210021
0.020621473 0.17404465 0.89100021
0.058523297 0.17308792 0.89247525
0.060722452 0.17134936 0.89423358
0.019031037 0.17719497 0.89435041
0.02231076 0.17758164 0.89210975
0.026424848 0.17893329 0.89058352
0.057230074 0.17751731 0.89178914
0.024034508 0.1813504 0.89433366
0.02752468 0.18245319 0.89260018
0.031830639 0.183534 0.89080024
0.035545062 0.18382403 0.89020026
0.055558551 0.18246686 0.89165574
0.029028598 0.18627866 0.89403367
0.032565169 0.18726291 0.89305747
0.036717907 0.18802966 0.89181685
0.053181928 0.1876021 0.89084023
0.055735786 0.18720795 0.89450037
0.034062464 0.19144621 0.89486682
0.037779134 0.19166981 0.89396691
0.042012937 0.19287761 0.89158589
0.045503058 0.1937453 0.8901335
0.052264664 0.19253059 0.89217657
0.043324992 0.19739419 0.89315355
0.04701566 0.1979105 0.89184314
0.051213622 0.1966279 0.89320022
-0.0018214919 0.16246535 0.89569229
0.001936583 0.16286194 0.89558333
0.0073627527 0.16488589 0.89526659
-0.00182666 0.16626984 0.89824188
0.0025699032 0.16684718 0.89797527
0.007132689 0.16724269 0.89641911
0.010706102 0.16994523 0.89559996
0.0079441145 0.1715461 0.89816695
0.012048887 0.17271142 0.89611995
0.012618769 0.17687576 0.89800853
0.0163987 0.177093 0.89636004
0.02072485 0.17991444 0.89546674
0.059195571 0.17676045 0.89636678
0.017982593 0.18144876 0.89756131
0.022069886 0.1826559 0.89583999
0.025729271 0.18487041 0.89526671
0.057504606 0.18253624 0.8960669
0.019127501 0.18645406 0.89888358
0.022439843 0.18695807 0.89728904
0.027080843 0.18764679 0.89579993
0.032405581 0.18985231 0.89519995
0.056699701 0.18762995 0.89653355
0.02248192 0.19149093 0.89898354
0.027671294 0.19177067 0.89735436
0.031897757 0.19236682 0.89656669
0.03744467 0.19389655 0.89593333
0.054101799 0.19481899 0.89506686
0.032860719 0.19624084 0.89852697
0.037287004 0.19715774 0.89718342
0.041321203 0.19823296 0.89544445
0.052509487 0.19843596 0.89636683
0.03867035 0.20114498 0.89853358
0.042272594 0.20241188 0.89709055
0.047476385 0.20253319 0.89604455
0.050997596 0.20240943 0.8992002
0.043679703 0.20607281 0.89815587
0.047176424 0.20596284 0.8982836
-0.0026760718 0.16940455 0.9015891
0.0006876323 0.16910602 0.90000027
-0.002678884 0.17220728 0.90308887
0.0025814779 0.17263624 0.90203762
0.0062907897 0.17380007 0.90118915
0.0023753545 0.17574263 0.90400004
0.0076615433 0.17749272 0.90250963
0.010769456 0.17933016 0.90090042
0.061258901 0.1795757 0.90213358
0.0091195349 0.18160878 0.90389997
0.012469077 0.1829759 0.90234458
0.016368734 0.18378586 0.90083361
0.059635837 0.18479429 0.90303344
0.061347179 0.18235624 0.90343338
0.014169051 0.18654981 0.90339988
0.017517343 0.18800676 0.9023267
0.059712883 0.18671505 0.90420014
0.019212972 0.19232506 0.90289992
0.022550536 0.19458793 0.90171123
0.025871051 0.19426185 0.90020025
0.057998743 0.19251063 0.90376675
0.019253403 0.1952544 0.90480006
0.023018183 0.19708593 0.90355003
0.027842734 0.19751194 0.90192872
0.032215334 0.19917077 0.90157509
0.02768765 0.20028168 0.90470004
0.033553082 0.20256731 0.9036333
0.037354045 0.2033349 0.90182018
0.052866504 0.20272079 0.90245003
0.038079277 0.2069784 0.90308011
0.042371172 0.20822592 0.90120685
0.04809976 0.20895413 0.90145361
0.051847357 0.20691405 0.90426666
0.043248847 0.21183598 0.90373331
0.046750057 0.21235205 0.90354443
0.065163516 0.17430668 0.90966678
-0.0024776605 0.17726338 0.90639603
0.0020438728 0.17797808 0.90596008
0.063657925 0.17746216 0.90634173
0.06514442 0.17679253 0.90940017
-0.0024814799 0.18223824 0.9080795
0.0023851469 0.18232468 0.90745968
0.0069661052 0.18222569 0.90577143
0.063223578 0.18206675 0.90617794
0.06511458 0.18178463 0.90898347
-0.0018486206 0.1869161 0.90926677
0.0026303711 0.18714611 0.90862405
0.0074592764 0.18731184 0.90708542
0.012180402 0.18806908 0.90586007
0.015881982 0.18856379 0.90500003
0.05977672 0.1885985 0.90516675
0.062462747 0.18737434 0.9073891
0.0079575488 0.1924855 0.90875262
0.01253484 0.19238515 0.90714103
0.016570013 0.19242033 0.90572006
0.059875775 0.19228576 0.90666693
0.061676141 0.19262677 0.90827799
0.013691351 0.1967269 0.9090113
0.017399706 0.19767049 0.9071961
0.021804735 0.19880721 0.90565008
0.057526607 0.1977412 0.90694028
0.060901105 0.19792831 0.90934998
0.01876848 0.2017035 0.90857798
0.022899602 0.20231651 0.90721691
0.027485078 0.20272902 0.90596676
0.03109825 0.20304158 0.9057501
0.054726385 0.203805 0.90540016
0.057039402 0.20241638 0.90861678
0.024435831 0.20721313 0.90926671
0.028046628 0.20740618 0.90852404
0.032843862 0.20761709 0.90733361
0.036171295 0.2081268 0.90588343
0.054134659 0.20783028 0.90679359
0.056670416 0.20726603 0.90949988
0.034034204 0.21193762 0.90897781
0.038126934 0.21244131 0.90721279
0.041829538 0.21360059 0.9064669
0.049103469 0.21337259 0.90550011
0.05298388 0.21263938 0.9080627
0.043621343 0.21747871 0.90857798
0.048116788 0.21793757 0.90814102
-0.0044050692 0.18489893 0.91183376
-0.0010029897 0.18981387 0.91099995
0.001544761 0.18975137 0.9106999
0.065380819 0.18847032 0.91270012
-0.0010059255 0.19206908 0.91366678
0.0023976949 0.19269435 0.9126007
0.0057927985 0.19404027 0.91094995
0.063618168 0.19253245 0.91183341
0.0024016807 0.19552059 0.91391128
0.0078502055 0.19774428 0.91318673
0.012172718 0.19843192 0.91166663
0.063651502 0.19687498 0.91231126
0.0092261443 0.20074265 0.91446692
0.013057753 0.20192537 0.91404188
0.017279733 0.20360276 0.91204172
0.021068921 0.20491557 0.91033328
0.058423348 0.20407984 0.91038322
0.060849357 0.20264375 0.91281128
0.018085614 0.20710747 0.91402692
0.021974605 0.20799741 0.9127084
0.058488593 0.20769952 0.91139996
0.060280822 0.2054708 0.91280001
0.02327214 0.21116658 0.91356689
0.027703952 0.21233764 0.91220421
0.031832926 0.21289617 0.91066664
0.056850452 0.2121688 0.91238898
0.0032630865 0.19859985 0.91635025
0.0058204588 0.199223 0.91530037
0.0035543342 0.2020635 0.91788888
0.0075407466 0.20298171 0.91689062
0.011803126 0.20362476 0.9159503
0.0075582056 0.20630886 0.91905528
0.012675478 0.20735116 0.91736102
0.016636891 0.2089401 0.9156003
0.013725409 0.21161683 0.91883981
0.017808622 0.21247239 0.91736668
0.022899486 0.21377751 0.91565031
0.058842555 0.21236828 0.91691554
0.002419601 0.20374255 0.92033315
0.0037154863 0.20724149 0.92256677
0.0071484754 0.20873557 0.92159176
0.011442581 0.21294934 0.92127508
0.0012843468 0.2081424 0.92722207
