# .PCD v0.7 - Point Cloud Data file format
VERSION 0.7
FIELDS x y z
SIZE 4 4 4
TYPE F F F
COUNT 1 1 1
WIDTH 1152
HEIGHT 1
VIEWPOINT 0 0 0 1 0 0 0
POINTS 1152
DATA ascii
0.012859291 0.059494119 0.81988883
0.0097938711 0.062498499 0.81928903
0.012842745 0.062464669 0.81884456
0.017421443 0.062453106 0.81869644
0.021714423 0.063419402 0.81937343
0.025848597 0.064049616 0.81963348
0.009793208 0.06630446 0.81923342
0.012844386 0.067043081 0.81894833
0.017420236 0.067019083 0.81865197
0.022014977 0.067061901 0.81917793
0.025698479 0.066801228 0.81972009
0.013877067 0.070671022 0.81979996
0.01781931 0.070515171 0.81946683
0.020499207 0.070151165 0.8196668
0.03904568 0.053656898 0.82393348
0.040631577 0.053722009 0.82493347
0.0084882881 0.058334045 0.82236654
0.012896426 0.057372075 0.82227755
0.017484438 0.058092363 0.82165915
0.022092117 0.058121424 0.82206655
0.027682366 0.057692967 0.82219988
0.032828387 0.057362955 0.8221665
0.037441205 0.057383124 0.82244444
0.041969493 0.057682965 0.82373339
0.0075229998 0.062682174 0.82168865
0.022433192 0.061447382 0.82051647
0.027722735 0.062309064 0.8208065
0.032782897 0.062631018 0.82102191
0.037418798 0.06270165 0.8219406
0.041608822 0.062344912 0.82396674
0.0080348169 0.067279391 0.82184434
0.028636485 0.067453653 0.82129496
0.032856304 0.067363553 0.8228519
0.037290748 0.067015126 0.82395256
0.0091657331 0.072294943 0.82175225
0.012530997 0.073119186 0.82065171
0.01726903 0.073469073 0.82053316
0.022199251 0.072752841 0.82086045
0.02728501 0.072125487 0.8221128
0.03189018 0.07106179 0.82433349
0.0093348352 0.07662499 0.82368904
0.012914388 0.078133427 0.82343715
0.017302234 0.077692114 0.8234002
0.022138273 0.077016644 0.82378352
0.026752651 0.075622953 0.82391125
0.014474539 0.081330515 0.82480019
0.0087454244 0.053572923 0.82856673
0.012992754 0.053178031 0.82842237
0.017841788 0.052826505 0.82809526
0.022062318 0.052581321 0.82814169
0.027319213 0.053249057 0.82781917
0.032861084 0.052755006 0.82784182
0.037439644 0.052102424 0.82665002
0.042453207 0.052106388 0.82670832
0.046777613 0.052584916 0.82818329
0.052538093 0.053325888 0.82900035
0.05723533 0.052766614 0.82921362
0.065622129 0.05248693 0.82966667
0.003728871 0.058665022 0.82973367
0.0068002972 0.056277812 0.82705718
0.012958701 0.055345874 0.82626671
0.017574294 0.055322055 0.82591122
0.022184029 0.055293769 0.82548898
0.026025016 0.055276651 0.82523346
0.04371566 0.055265486 0.82506675
0.046732362 0.057218712 0.82668674
0.052211717 0.056925114 0.82891554
0.056820501 0.056054991 0.82917804
0.0037290207 0.060982689 0.82976699
0.0052639348 0.062377628 0.82778323
0.04322499 0.063995503 0.82548904
0.047102593 0.062605381 0.82802433
0.051288839 0.060565226 0.82933354
0.0057804189 0.067806698 0.82831144
0.038344033 0.069103658 0.8253668
0.042255495 0.067669332 0.8265925
0.046241079 0.067862585 0.82895565
0.0067888922 0.072185099 0.82548904
0.033503387 0.07275898 0.82618874
0.037678592 0.072375365 0.82764453
0.042349812 0.071673289 0.82844466
0.046280518 0.071006998 0.82966697
0.0083325673 0.077599533 0.82591665
0.01833294 0.079851046 0.82536656
0.022191416 0.079273924 0.82574654
0.028178226 0.077444345 0.82629991
0.032542061 0.076500244 0.82786679
0.036228497 0.075649194 0.82979995
0.0093849143 0.081661679 0.82815558
0.012776962 0.083275735 0.82696658
0.017591447 0.083054394 0.82668132
0.022250231 0.083178207 0.8279112
0.026283789 0.081083022 0.82853353
0.030038152 0.080279946 0.82979995
0.01330601 0.086955786 0.82869357
0.017634504 0.087112941 0.82872254
0.021256194 0.086917728 0.82931131
0.017766733 0.049713824 0.8349331
0.022431517 0.049699273 0.83468866
0.027097479 0.049691331 0.83455533
0.032538123 0.04968207 0.83439976
0.038203798 0.048940953 0.83237332
0.042518009 0.048749205 0.83174449
0.046945963 0.048992164 0.83323991
0.052336115 0.049252201 0.8337
0.057652362 0.048359618 0.83302534
0.061958697 0.048015267 0.83242327
0.0032275438 0.053770851 0.83362222
0.0070423819 0.052096736 0.8327083
0.013037902 0.051044572 0.83131105
0.0168975 0.050994754 0.83050007
0.023895703 0.051054131 0.83146662
0.027001081 0.051060956 0.8315776
0.031661373 0.051074594 0.83179998
0.04867167 0.051017288 0.83086658
0.052374672 0.051310521 0.83061326
0.058720242 0.052155338 0.83053327
0.062617563 0.052562639 0.830863
0.066244192 0.053086553 0.83100003
0.0024483679 0.057361845 0.83322215
0.054821588 0.05869329 0.83013326
0.058465794 0.057694685 0.83057767
0.062635534 0.057215784 0.831101
0.066347517 0.056899577 0.83100003
0.0021871091 0.06241224 0.83268374
0.052754272 0.063097522 0.83081818
0.058040202 0.061912436 0.83187401
0.062563509 0.061782792 0.83272725
0.065727584 0.060300384 0.83100003
0.0023606373 0.068002291 0.83278036
0.0052788798 0.069502726 0.83013362
0.048675578 0.068024233 0.83093327
0.052154958 0.067804649 0.83203334
0.05681663 0.066909678 0.83416283
0.061367229 0.065245196 0.8349331
0.0032283466 0.07187748 0.83379847
0.0052904175 0.072750218 0.83194798
0.042441543 0.074145295 0.83024436
0.047381558 0.073153988 0.8315143
0.051745087 0.072697103 0.83355826
0.006336709 0.07754641 0.83359998
0.034205716 0.078314364 0.8307777
0.038092643 0.077637471 0.83248323
0.042585175 0.07749825 0.83305913
0.046938188 0.076570168 0.83309317
0.050418712 0.076044232 0.83413315
0.0083954781 0.082053587 0.83213335
0.027276102 0.083130747 0.83051997
0.032704622 0.0822981 0.83317566
0.036822926 0.081899107 0.83449978
0.0099434266 0.086664118 0.83179992
0.012646368 0.089288414 0.83103329
0.017673492 0.089623004 0.83055544
0.022856228 0.088667043 0.83124441
0.027035471 0.087526701 0.83264655
0.031757791 0.086258754 0.83430451
0.013258368 0.092793129 0.833
0.017723851 0.092979632 0.83292586
0.022174548 0.092585579 0.83337128
0.027482875 0.091205671 0.83443308
0.013873724 0.096307933 0.8349331
0.016210824 0.09631563 0.83499974
0.057755958 0.042934064 0.83903229
0.060542103 0.043135047 0.8378889
0.0037717151 0.049971845 0.83926678
0.0072893323 0.049553521 0.83880007
0.012348433 0.049069192 0.83720005
0.018222135 0.047944259 0.83794999
0.022530772 0.047579039 0.83838892
0.027199963 0.047541473 0.83772224
0.032330647 0.047648985 0.83765715
0.037196718 0.047071818 0.83768004
0.042812947 0.045971502 0.83752209
0.047501732 0.04649369 0.83757776
0.052205473 0.047027607 0.8378334
0.05710794 0.045695256 0.8371926
0.061414104 0.045088861 0.83557141
-0.0015498624 0.053372461 0.83873892
0.0016784575 0.052395623 0.83643323
-0.0018616928 0.057696175 0.83808309
0.00063817389 0.056725599 0.83526635
-0.00092358305 0.061652534 0.83887613
0.00063844433 0.063744493 0.83562046
0.06449955 0.063709877 0.83516669
0.066838428 0.063712418 0.83520001
-0.00092358497 0.067112856 0.83887774
0.00063856645 0.066088714 0.83578026
0.058696501 0.068414316 0.83569992
0.063234434 0.067115344 0.83645368
0.067028187 0.067010663 0.83756703
-0.00092247687 0.070930608 0.83787131
0.0018097558 0.073164009 0.83667696
0.053624172 0.074623562 0.83560002
0.057479784 0.072534375 0.83689445
0.062547222 0.072419979 0.8385703
0.067950942 0.071521498 0.8393237
0.0053327191 0.078011401 0.8386001
0.047793232 0.078918643 0.8358165
0.052382708 0.078109555 0.83754164
0.056637742 0.07708317 0.83868015
0.064862542 0.075004607 0.83986676
0.069489829 0.076487914 0.83900005
0.0074120671 0.082638808 0.83808893
0.038985785 0.082729235 0.83582669
0.042773459 0.08250764 0.83672595
0.047329824 0.082435139 0.83796674
0.051524334 0.081215158 0.83946669
0.0080622658 0.087300286 0.83791667
0.033687044 0.088018164 0.83585328
0.038101338 0.087196708 0.83691853
0.042374339 0.086905606 0.83912212
0.0088444967 0.091598116 0.83801663
0.010392483 0.093793139 0.83675003
0.023235414 0.094830438 0.8355999
0.026834726 0.093950801 0.8360666
0.032418638 0.091707975 0.83675748
0.037397709 0.09205687 0.83865005
0.0089709191 0.096100807 0.8376444
0.012537658 0.09846954 0.83679992
0.017986977 0.09819372 0.83610821
0.022501757 0.098136462 0.83727407
0.027235961 0.0975383 0.83882487
0.031617172 0.095822938 0.83884001
0.035598401 0.095767431 0.83926672
0.014179487 0.10181529 0.83764452
0.017639827 0.10272194 0.83814996
0.022158736 0.10185982 0.83908337
0.054188918 0.039282285 0.84440011
0.055706203 0.038456984 0.84352887
0.0085252859 0.044025782 0.84499991
0.01167584 0.044020571 0.84489989
0.022692725 0.043995678 0.84442234
0.027770551 0.043538608 0.84318352
0.032084983 0.043916956 0.84291142
0.037136897 0.043628745 0.84341347
0.043645855 0.042901918 0.84353346
0.04752969 0.04332462 0.84359998
0.052761678 0.042580429 0.8436296
0.056497462 0.041639134 0.84125614
-0.00092973845 0.048710592 0.84446651
0.0024128298 0.047264963 0.843225
0.0067297206 0.046813346 0.84215826
0.01241927 0.046213113 0.84191668
0.017604971 0.046065513 0.84208
0.022634322 0.045448944 0.84224439
0.027295237 0.04536381 0.84066653
0.032018483 0.045390185 0.84115547
0.037503388 0.045384489 0.84104991
0.04928482 0.045399778 0.84133339
0.051660575 0.045419559 0.84170002
-0.0028152571 0.052086126 0.84318829
0.0014265098 0.050086968 0.84119993
-0.0056447401 0.058034863 0.84300005
-0.0032846089 0.057983518 0.84227073
-0.0021071732 0.063099161 0.84258753
-0.0030233308 0.067431219 0.84285003
-0.0024946721 0.071998835 0.84125006
0.06749358 0.071901701 0.84012085
0.0022121223 0.075686701 0.84166288
0.0053471331 0.079786427 0.84086668
0.057489131 0.079392411 0.84083319
0.062075384 0.077165596 0.84151429
0.067254052 0.077422149 0.84235418
0.005750468 0.083482973 0.84265
0.049214527 0.084405296 0.84013313
0.052664645 0.083435193 0.8416
0.057216883 0.083085887 0.8425926
0.061835714 0.081240363 0.84436178
0.065989673 0.080894664 0.84426665
0.0061430717 0.087399676 0.84263337
0.044037294 0.088664271 0.8409999
0.047758065 0.087733746 0.84206665
0.0523897 0.087733075 0.84394997
0.056546882 0.08718355 0.84433323
0.0069367415 0.092584878 0.8434667
0.039819695 0.09301576 0.84026659
0.043051697 0.09244284 0.84216309
0.047408063 0.092400849 0.8438288
0.05107557 0.091181673 0.84499991
0.0074447263 0.097080059 0.84162688
0.032383218 0.098116845 0.84044987
0.038136072 0.097415797 0.84151864
0.042678665 0.097091772 0.84366673
0.0085068475 0.10117936 0.84317255
0.011625482 0.10263968 0.84136182
0.019453457 0.10477164 0.84053314
0.022915587 0.10420601 0.84101325
0.027519526 0.10195786 0.8415001
0.032067135 0.10187651 0.84244466
0.037378129 0.10180347 0.84301829
0.042125419 0.10108902 0.8445999
0.013421098 0.10706782 0.84322518
0.017916147 0.10808071 0.84194076
0.022649813 0.10818946 0.84279275
0.02723611 0.10704572 0.84366
0.032139454 0.10603251 0.84434432
0.035285536 0.10523698 0.84426653
0.014037092 0.11158517 0.84476656
0.01795972 0.11305494 0.84399998
0.022463139 0.11263516 0.84421909
0.02664116 0.11079937 0.8447665
0.05278695 0.034684677 0.8472001
0.044120573 0.039432708 0.8476336
0.048410188 0.038817771 0.84799355
0.052529179 0.037595656 0.84622282
-0.0017276756 0.044255018 0.8494004
0.0022275734 0.04337202 0.84760022
0.0067706928 0.042368475 0.84726679
0.012653394 0.042240717 0.84706676
0.018028708 0.042564444 0.84725183
0.022777969 0.041794602 0.84758896
0.027169218 0.041583393 0.84649324
0.032215606 0.041733157 0.84634447
0.037268639 0.041578576 0.84639996
0.041371904 0.041578259 0.84638679
0.048368786 0.04131813 0.84588337
0.051131979 0.040927198 0.8459335
-0.0025160608 0.047329314 0.84786695
0.00064586499 0.045615647 0.84533316
-0.0040923418 0.051225763 0.84710026
-0.010443297 0.063235454 0.84966666
-0.0056871478 0.064790569 0.84933335
-0.0040896037 0.063000642 0.84653336
-0.0068691606 0.068675257 0.84854162
-0.0035633259 0.067709155 0.84633332
-0.002506261 0.072319314 0.84500003
-0.00093203795 0.075601965 0.84655565
0.0022266691 0.078031257 0.84727985
0.0031768929 0.08172027 0.84795129
0.062141139 0.08389274 0.84546661
0.067299195 0.083016254 0.84588099
0.0038127117 0.086813129 0.84838909
0.054253098 0.089652233 0.84539998
0.058096997 0.088800251 0.84626675
0.062290184 0.087247513 0.84748912
0.06706129 0.086760461 0.84786677
0.0054010795 0.090861142 0.84935027
0.0495211 0.093580313 0.84536648
0.052919842 0.093075141 0.84613329
0.057564121 0.093051091 0.84770381
0.061636165 0.091652833 0.8493669
0.068794057 0.090902157 0.84973335
0.0069887727 0.099602766 0.84979326
0.044805363 0.098329142 0.84563327
0.047837794 0.097498201 0.84695005
0.052519839 0.096864782 0.84796011
0.0568875 0.096398458 0.84941679
0.0074907131 0.10241025 0.84687322
0.043299116 0.10310113 0.84699059
0.047351044 0.10186134 0.84885019
0.0085644601 0.10660265 0.84888262
0.010515854 0.10751109 0.84671676
0.032180004 0.10852349 0.84540004
0.037144799 0.10725823 0.84626675
0.041970138 0.10699511 0.84851879
0.045012005 0.10747382 0.8495335
0.012227352 0.11237908 0.84680575
0.023511883 0.11483206 0.84553325
0.028009668 0.11233091 0.8464334
0.032081187 0.11181536 0.84799182
0.036665004 0.11094274 0.84886682
0.040271472 0.1106691 0.84979999
0.013615005 0.11642341 0.84796017
0.018214989 0.11794828 0.84672529
0.022760954 0.11817201 0.84691876
0.027028533 0.11631054 0.84866691
0.014913267 0.12015387 0.84980005
0.018059416 0.12105215 0.84871131
0.022023087 0.12161054 0.84893352
0.048365038 0.034914363 0.85281032
-0.0025342337 0.039343499 0.85425836
0.0022445845 0.039714929 0.85369998
0.007019632 0.03971079 0.85361117
0.012575645 0.039660264 0.85252494
0.018478652 0.039066847 0.85343343
0.02293279 0.03890356 0.8533389
0.027666206 0.038846157 0.85208887
0.032431111 0.038842991 0.85201102
0.037179165 0.038822915 0.85157222
0.041642852 0.038679954 0.85191327
0.04696108 0.036967017 0.85138375
-0.0063579367 0.043239318 0.8543067
-0.0027520673 0.042311382 0.85117614
0.0022358685 0.041148689 0.85051107
-0.0065131783 0.047658142 0.85376114
-0.0041073188 0.045878246 0.85020012
-0.0063519003 0.052084893 0.85341406
-0.0057027726 0.057047237 0.85166669
-0.010455589 0.06489227 0.8506667
-0.0063357605 0.062721446 0.85126334
-0.0072976076 0.066999637 0.85231674
-0.0041111824 0.072832823 0.85100001
-0.00093767978 0.077643879 0.85168004
0.00065139931 0.079311602 0.85257697
0.0010474032 0.082784832 0.85159981
0.0018455726 0.086947292 0.85358131
0.0038329086 0.091239236 0.85288334
0.005417719 0.093518242 0.85196692
0.063146025 0.092724696 0.85049999
0.066859446 0.092060022 0.8510372
0.070400901 0.093302369 0.85000002
0.0054156599 0.095066912 0.85164297
0.049804211 0.099650487 0.85019988
0.053398136 0.099302977 0.85060829
0.057844199 0.098259583 0.85184658
0.062685572 0.09652663 0.85286671
0.067522086 0.09608952 0.8536852
0.070732199 0.095330037 0.85400003
0.0059613399 0.10326248 0.85390347
0.048676699 0.10333847 0.85126668
0.052832972 0.10331415 0.8530134
0.057999142 0.10170042 0.85412872
0.061218835 0.10016616 0.85460013
0.0085797701 0.10916536 0.85040003
0.043478724 0.10918248 0.85053325
0.047183745 0.10800581 0.85194749
0.050844904 0.10649599 0.85436678
0.010191878 0.11341174 0.85258329
0.033967853 0.1139513 0.85069996
0.037493829 0.11342703 0.85151327
0.042174343 0.11276788 0.85221249
0.046353053 0.11249498 0.85336816
0.011456864 0.11763538 0.85217333
0.028681478 0.11817912 0.85075551
0.032421187 0.11725744 0.85171849
0.037244063 0.11744183 0.85305935
0.041602738 0.11732695 0.85387629
0.046080206 0.1160702 0.85465026
0.013181648 0.12242103 0.85320419
0.017703777 0.12304091 0.85063326
0.023251083 0.12301087 0.85042489
0.027668079 0.12206382 0.85208887
0.03250654 0.12233489 0.85398537
0.035705566 0.12158735 0.85431689
0.014455446 0.12603973 0.85397786
0.018137518 0.12686779 0.85241848
0.022900196 0.12682262 0.8521148
0.027518915 0.12685201 0.85365009
0.032534257 0.12561809 0.85471135
0.018174415 0.13029796 0.85412234
0.022939695 0.1302166 0.853589
0.026156427 0.13038103 0.85466689
0.019897826 0.033598505 0.85973352
0.021502914 0.033601113 0.85980016
0.037524458 0.033588957 0.85948902
0.042320367 0.033578534 0.85922235
0.046767652 0.032910753 0.8585003
0.050261147 0.033530783 0.85800004
-0.010954174 0.038346756 0.85861897
-0.007187353 0.037671234 0.85648918
-0.0025406929 0.036468655 0.85675919
0.0018542151 0.037883192 0.85718352
0.007055907 0.03831495 0.85791105
0.012382898 0.037231404 0.85750014
0.017124617 0.036375206 0.85737354
0.023045158 0.035902992 0.85750008
0.027866721 0.03593393 0.85824448
0.032642227 0.035905477 0.85756677
0.037382632 0.035850387 0.85624462
0.042166065 0.035844084 0.85608906
0.045336958 0.035031307 0.855667
-0.012156561 0.042821351 0.85867655
-0.008524593 0.042602196 0.85586691
-0.015340303 0.049472008 0.85766667
-0.011346087 0.047894072 0.85798502
-0.0089212162 0.047764566 0.85566694
-0.010959348 0.052747957 0.85904431
-0.0085319607 0.052996356 0.85660756
-0.010560648 0.056753851 0.85921431
-0.0077946712 0.057177484 0.85700572
-0.010521141 0.062114473 0.85600007
-0.0083006117 0.061898611 0.85742664
-0.010511923 0.06683284 0.85525
-0.0089381561 0.067791656 0.8572917
-0.011327513 0.070923895 0.85662508
-0.0073384102 0.072578087 0.85733342
-0.0025359208 0.07476563 0.85500002
-0.002546388 0.077340789 0.85716671
-0.00094189495 0.082767479 0.8555088
-0.00094584696 0.087909579 0.85909867
0.00065386196 0.088367745 0.85579997
0.0022510341 0.092453383 0.8567934
0.0038576927 0.097419582 0.85839802
0.0054498045 0.098058805 0.85701239
0.063649431 0.098637976 0.85513353
0.067681186 0.098702461 0.85569239
0.0038616871 0.10231431 0.85928684
0.0054445895 0.1003528 0.85619253
0.059694763 0.10346654 0.85560036
0.063117862 0.10212622 0.85603362
0.067767479 0.10201733 0.85678458
0.0060933521 0.10724475 0.85781777
0.052618328 0.1084504 0.85585213
0.058207128 0.10684762 0.85717785
0.063117817 0.10704205 0.85874075
0.066910654 0.1065992 0.85946661
0.0081188576 0.1116863 0.8576057
0.048515394 0.11379005 0.85543358
0.051837772 0.11248294 0.85759991
0.056081057 0.11121671 0.85890663
0.0086650774 0.11664043 0.85885572
0.010226742 0.11936843 0.85550022
0.043736022 0.11858244 0.85556686
0.047241356 0.11845433 0.8571049
0.050717369 0.11625474 0.85895002
0.0086576231 0.12372385 0.85811687
0.010227406 0.12255841 0.85555583
0.037795726 0.122744 0.85525751
0.042190909 0.12270423 0.85656297
0.046159621 0.12274706 0.85909337
0.0086709065 0.12631209 0.85943347
0.011834771 0.12746452 0.8564288
0.01501037 0.12889165 0.85533363
0.029374117 0.12892178 0.85553366
0.032603208 0.12827335 0.85651129
0.037456736 0.12768723 0.85791862
0.041770171 0.12729622 0.8588779
0.013458037 0.13089976 0.85806656
0.017176313 0.13291879 0.85735559
0.023002429 0.13296126 0.8559224
0.0280407 0.1326004 0.85744178
0.032154877 0.13207434 0.85877782
0.036729611 0.13113868 0.85963345
0.018823618 0.13698287 0.8595112
0.022882283 0.13722187 0.8589167
0.027916634 0.13595881 0.85977793
0.0070814881 0.02884539 0.86106676
0.015120347 0.028863247 0.86160004
0.02887217 0.028152699 0.86438346
0.032822419 0.028084815 0.8623001
0.037651204 0.028087214 0.86237788
0.042501982 0.028104333 0.86291641
0.047337707 0.028510205 0.86304176
0.050612625 0.028943647 0.86400002
0.0022670722 0.033689413 0.86205906
0.007090644 0.032091029 0.86218518
0.011906454 0.032069679 0.86161852
0.017307291 0.031914756 0.86138797
0.023153717 0.032333374 0.86156678
0.028005103 0.032100461 0.86251116
0.032800388 0.032071557 0.86171108
0.037612449 0.031263318 0.86149979
0.042437304 0.031267013 0.86159992
0.047637802 0.030851852 0.86118752
0.050407596 0.031226978 0.8605001
-0.01541781 0.038497563 0.86200005
0.0025839205 0.035875369 0.86065161
0.0070816986 0.036054131 0.86110014
0.010822371 0.035765667 0.86057776
-0.015804075 0.043665878 0.86116433
-0.013799489 0.040070038 0.86133337
-0.015428925 0.047350407 0.86262149
-0.013796489 0.048070759 0.86114615
-0.012985015 0.05123964 0.86055881
-0.010570304 0.060804963 0.86000001
-0.010598984 0.068990469 0.86233336
-0.010591814 0.072952047 0.86175001
-0.0073995809 0.073973954 0.86433339
-0.0030950839 0.077539116 0.86226296
-0.0025581135 0.081035413 0.86248243
-0.00095181458 0.091679677 0.86451876
0.00065895263 0.093869038 0.86246312
0.0022662645 0.097829677 0.86200953
0.0030692061 0.1018602 0.86222506
0.071229145 0.10399864 0.86000001
0.0032324842 0.10721342 0.86269844
0.068588816 0.10751591 0.86041039
0.071339577 0.10736395 0.86133337
0.003885437 0.11098454 0.86457163
0.0062873862 0.11230487 0.8623594
0.057657741 0.11291794 0.86091673
0.062039137 0.11204115 0.86156005
0.067617513 0.11244228 0.86229235
0.071394794 0.11065444 0.86200005
0.0070951944 0.11636588 0.86273348
0.05302351 0.11729201 0.86128008
0.056970701 0.1171601 0.86266673
0.061658442 0.11687438 0.86394775
0.067527518 0.1162615 0.86394507
0.0086801546 0.1208456 0.86034995
0.048269633 0.12327249 0.86053342
0.052132085 0.12194339 0.86245197
0.056520838 0.12162539 0.8639946
0.060322694 0.12063816 0.86460012
0.010284523 0.12964508 0.86033332
0.043483149 0.12922524 0.86108893
0.047276735 0.12774765 0.8619259
0.051232867 0.12660077 0.86358011
0.012177565 0.13308288 0.86186117
0.033825729 0.13394417 0.86053342
0.037845798 0.13349728 0.86158097
0.042291444 0.13301328 0.86270845
0.047772318 0.13134459 0.86361682
0.013143773 0.13778988 0.86373341
0.016181244 0.13830064 0.86107779
0.024719561 0.13921508 0.86013353
0.027963758 0.13859071 0.86122227
0.032816723 0.13793379 0.86211854
0.037178081 0.13767396 0.86384457
0.041784089 0.1367372 0.86470014
0.01356625 0.14160633 0.86496681
0.017542483 0.14276716 0.86225557
0.023152234 0.14264153 0.86149633
0.028011475 0.14283779 0.86268151
0.031794298 0.14189823 0.86347789
0.017916918 0.14690539 0.86368579
0.023201548 0.14695936 0.86332798
0.026967997 0.14674342 0.86363345
0.023718404 0.02865753 0.86750829
0.02651244 0.028214926 0.86630023
0.047501445 0.027399719 0.86600006
0.024063349 0.030599175 0.86536682
-0.018336929 0.046784803 0.86700004
-0.0090498021 0.074287772 0.86800003
-0.0072284765 0.077300847 0.86782146
-0.0041829045 0.078935355 0.86584622
-0.0058209281 0.08086846 0.86931264
-0.0037873252 0.082714222 0.86746472
-0.0025727316 0.086340964 0.8674109
-0.00095340476 0.093443729 0.8659631
-0.0009569489 0.095407911 0.86918199
0.00066243822 0.097590618 0.86702514
0.0014707897 0.10169522 0.86766672
0.0022811103 0.10733968 0.86765635
0.0033625737 0.11310589 0.86851549
0.0055042016 0.11433249 0.86556667
0.006047904 0.11767917 0.86650008
0.062864885 0.11926384 0.86630011
0.066463649 0.118797 0.86583346
0.070177495 0.11853064 0.86682147
0.0071295965 0.1217683 0.86691678
0.058266971 0.12351862 0.86600012
0.06234657 0.12286092 0.86751264
0.067024924 0.12271018 0.86787045
0.070315927 0.12280214 0.86853141
0.0087391771 0.12891789 0.86619991
0.053564012 0.12769911 0.86612517
0.057061471 0.12704299 0.86753803
0.061440486 0.12610157 0.86900002
0.067179397 0.12622735 0.86986673
0.0087617086 0.13086572 0.86843336
0.01034987 0.13369004 0.86580014
0.047535013 0.133817 0.86662227
0.052204899 0.13187797 0.86749518
0.055754792 0.13092102 0.86879992
0.010901291 0.13708584 0.86691123
0.039430145 0.138575 0.86613345
0.043309569 0.13761732 0.86618674
0.047616389 0.13727675 0.86810738
0.050934792 0.1366877 0.86949998
0.011712494 0.1425128 0.86721677
0.033343792 0.14328291 0.86537504
0.038077697 0.14222506 0.86750835
0.042544525 0.1417181 0.8684665
0.046585049 0.14119269 0.86902219
0.01320514 0.14650083 0.86774009
0.016822666 0.14912169 0.86656678
0.022460662 0.14979698 0.86580849
0.028520389 0.14820951 0.86594176
0.033239558 0.14713494 0.86791253
0.037538219 0.14591506 0.86906666
0.041219246 0.14563361 0.86980015
0.017129436 0.15186594 0.86842769
0.022505391 0.15251729 0.86753744
0.028393436 0.15203208 0.86822087
0.032000747 0.15090354 0.86908883
0.018490182 0.15518683 0.86893332
0.022376806 0.15549257 0.86883336
0.026588952 0.15516302 0.86879998
-0.010710287 0.077819295 0.87138891
-0.009075122 0.079353109 0.87042862
-0.0071952213 0.082760409 0.87218904
-0.0038098278 0.088072695 0.87260294
-0.0029967662 0.092561759 0.87283337
-0.0021835621 0.097048536 0.87303436
0.0006668336 0.10229677 0.87277782
0.0022935823 0.11361231 0.8724001
0.0033802341 0.11694475 0.8730433
0.0055374815 0.11988339 0.87080002
0.0063651134 0.12343329 0.87300014
0.072195426 0.12405572 0.87166667
0.0071712658 0.12734625 0.87198329
0.05829481 0.12954789 0.87043351
0.062617339 0.12845726 0.87087631
0.067306802 0.1282917 0.8715167
0.071408726 0.12815608 0.87197882
0.0087950025 0.13379645 0.87173337
0.053439118 0.13444145 0.87066686
0.057573624 0.13299565 0.87179995
0.062528647 0.13234754 0.87287754
0.067469314 0.13246067 0.873622
0.071543045 0.13246116 0.87362492
0.0088076144 0.13723522 0.87298334
0.01040765 0.13929494 0.87063342
0.053175535 0.1381297 0.87203801
0.057724103 0.13740611 0.87407076
0.072430097 0.13503338 0.87450004
0.010402869 0.14084977 0.87023342
0.043674514 0.14408737 0.87023354
0.048315298 0.14313254 0.87098902
0.052233372 0.14239822 0.87311119
0.011505592 0.14759554 0.87182993
0.038337581 0.14837046 0.8706668
0.043102618 0.14765394 0.87097508
0.047628112 0.1474278 0.87203336
0.051205255 0.14716972 0.87411654
0.013677612 0.15250288 0.87206656
0.015277121 0.15304378 0.87053347
0.03369901 0.15286967 0.87107784
0.038140375 0.1527676 0.87357777
0.042713307 0.15183152 0.8738066
0.04633572 0.15211746 0.87451661
0.013710549 0.15693504 0.87416655
0.016727971 0.15758917 0.87215835
0.021768551 0.15804437 0.87042683
0.027796283 0.15751544 0.8710801
0.03302189 0.15730764 0.87284994
0.037101831 0.15676118 0.87471122
0.01806519 0.16160767 0.87452221
0.021835992 0.1624347 0.87313318
0.027060261 0.16235019 0.87355328
0.031099126 0.16207601 0.87412214
0.023514034 0.16602996 0.87496674
-0.010787447 0.081645608 0.87766671
-0.0091375075 0.08397539 0.87641215
-0.0075141927 0.088157386 0.87747651
-0.0073183533 0.092968367 0.87859815
-0.00422773 0.092804469 0.87512499
-0.0058800373 0.097208828 0.87814003
-0.0034172083 0.098644108 0.87638199
-0.0026069749 0.10128117 0.87804824
0.00067089632 0.10863537 0.87809527
0.00067115779 0.11439858 0.87843758
0.0013252428 0.11790393 0.87775791
0.0039482573 0.12176831 0.87855011
0.0055756364 0.12397137 0.87680018
0.0055957721 0.1260561 0.87996662
0.0072154473 0.13221265 0.8773554
0.062819548 0.13704175 0.8769334
0.067798257 0.13719115 0.87788898
0.071674109 0.13741216 0.87721479
0.008845794 0.14190711 0.87676764
0.054564368 0.14336358 0.87570012
0.058121923 0.14215067 0.87700427
0.062451739 0.14179485 0.87943882
0.067953296 0.1407758 0.87988871
0.07123673 0.14077833 0.87990469
0.010492001 0.14858727 0.87768972
0.049644016 0.14981666 0.87533325
0.053506762 0.14738499 0.87747145
0.057588227 0.14696106 0.8791188
0.011467006 0.1524259 0.87723863
0.043150347 0.15428565 0.87605572
0.048412565 0.15298203 0.87667352
0.052020535 0.1520268 0.87870002
0.012127206 0.15756574 0.87769729
0.034950119 0.15958032 0.87530011
0.038587797 0.15846743 0.87634677
0.043456484 0.15718842 0.87752879
0.047918636 0.15691566 0.87861115
0.05152256 0.15544385 0.87953335
0.012959789 0.16180588 0.87854183
0.01670195 0.16351406 0.87718678
0.03237747 0.16368425 0.87634677
0.037163608 0.16217105 0.8779906
0.04213902 0.16148296 0.87932366
0.046622716 0.16042499 0.87993306
0.013788969 0.16519152 0.87916678
0.017056732 0.16671821 0.87859344
0.021739002 0.16833156 0.87741262
0.026846835 0.16727228 0.87721127
0.031478342 0.16737865 0.87862664
0.03565621 0.16575997 0.87928873
0.018725673 0.17025901 0.87999976
0.022000873 0.17265789 0.87971091
0.0265834 0.17078476 0.8793332
0.031027885 0.17022032 0.87979984
0.022008099 0.17516993 0.87999976
-0.0078865038 0.097539574 0.88262904
-0.0067376457 0.10104127 0.88309729
-0.0017970857 0.10353041 0.88330305
0.00067392742 0.10584429 0.88206255
-0.00097246416 0.11420538 0.88327408
0.00067381293 0.11239147 0.88191283
-0.0017962022 0.11700132 0.88267076
-0.00097283529 0.12329169 0.8836112
0.0018467145 0.12321337 0.88137257
0.0034211734 0.12711795 0.88355058
0.0056118821 0.12888172 0.88249981
0.005618453 0.13314152 0.88353318
0.0039770892 0.13829561 0.88496554
0.0064286464 0.13780504 0.88182837
0.064173102 0.14361274 0.88055533
0.068044975 0.143425 0.88107759
0.072325453 0.14294861 0.88117152
0.0088834502 0.14578727 0.8804999
0.059814773 0.14830603 0.88086665
0.063173369 0.14765486 0.88186663
0.068221904 0.14790671 0.88336676
0.072368443 0.14714067 0.88370633
0.010521214 0.15391265 0.88013321
0.05423348 0.15274236 0.88093328
0.057815295 0.15246692 0.8825857
0.061675068 0.15211958 0.88398331
0.0089132572 0.15777916 0.88345426
0.010525199 0.15806574 0.88046658
0.049944595 0.15809561 0.88063312
0.052678175 0.15791845 0.88238657
0.055062845 0.15618025 0.88370013
0.0088862553 0.160579 0.88077772
0.010944999 0.16271295 0.88124156
0.042529732 0.16373593 0.88013309
0.046968993 0.16291687 0.88202381
0.050871775 0.16088694 0.88246667
0.012185417 0.16732681 0.88179505
0.016275482 0.16874658 0.88064975
0.033506714 0.16867314 0.88026655
0.037402052 0.16786869 0.88177228
0.041628372 0.16730711 0.8827709
0.046046168 0.16621557 0.88461685
0.013878892 0.17120712 0.88490009
0.016914818 0.17247868 0.88192898
0.027369225 0.17329085 0.88084984
0.032176059 0.17282441 0.88234758
0.036387686 0.17208678 0.8837778
0.017694598 0.17689753 0.88317221
0.022036655 0.17724308 0.88114578
0.027014261 0.17734352 0.88266677
0.030913189 0.17658329 0.88434458
0.022095185 0.18120679 0.88349175
0.026237044 0.18094714 0.88423347
-0.0092270449 0.098790504 0.88500005
-0.0079201963 0.10260707 0.88666838
-0.0042776326 0.10378259 0.88545454
-0.0066158422 0.10716908 0.88895208
-0.0026305886 0.10721852 0.88662356
-0.0028400263 0.11205284 0.88735855
-0.003728294 0.11698607 0.88566083
-0.00263075 0.12211151 0.88697225
-0.0026367644 0.12569639 0.88900006
0.0012290416 0.12818684 0.88715529
0.0031578802 0.1319984 0.88689351
0.0023307125 0.13721164 0.88742203
0.003439245 0.14210631 0.88820529
0.0064634453 0.1426533 0.88646543
0.0039907261 0.14537722 0.88799989
0.0070259855 0.14701907 0.88793427
0.073366024 0.14996031 0.8858
0.0086286282 0.15299328 0.88811129
0.061817836 0.15439512 0.88603306
0.06679599 0.15251827 0.88629979
0.071809843 0.15228212 0.88698113
0.0072944704 0.15758038 0.8869642
0.057220984 0.15766147 0.88647985
0.06219421 0.15741797 0.88802844
0.066716291 0.1565377 0.88839042
0.071972586 0.15628968 0.88899404
0.008950972 0.1633988 0.88719219
0.051917594 0.16350088 0.88625556
0.05681048 0.16177487 0.88846666
0.060933426 0.16101192 0.88920003
0.043626238 0.16972066 0.88573319
0.046952892 0.16843081 0.88616651
0.052020166 0.16712825 0.88801092
0.055426329 0.16631241 0.8895334
0.013106827 0.17274497 0.88858318
0.03810798 0.17406003 0.88545543
0.041783519 0.17272735 0.88666642
0.047323491 0.17241445 0.88869524
0.051275123 0.17043601 0.88946664
0.013939018 0.17608213 0.88873315
0.016369434 0.17877918 0.88571668
0.032622676 0.17855661 0.88597202
0.036853403 0.17795259 0.88672477
0.042308148 0.17704742 0.88839167
0.046284594 0.17534716 0.88920003
0.017462522 0.18229549 0.88736659
0.022142276 0.1838157 0.88537347
0.027350336 0.18341729 0.88594753
0.031887364 0.18277481 0.88739979
0.037133399 0.18209136 0.88847774
0.040484786 0.1811572 0.88930011
0.017918134 0.18717438 0.88880646
0.022189664 0.18817021 0.8872664
0.026932606 0.18779945 0.88774264
0.031851266 0.18656468 0.88905346
0.036352053 0.18536192 0.88963354
0.018914346 0.19016261 0.8888666
0.022244213 0.19194083 0.88944441
0.028016411 0.19005565 0.88836664
0.030550633 0.19036227 0.88980019
-0.00098408968 0.12887368 0.8938334
-0.00098295882 0.13287714 0.89280635
0.00068020937 0.1325026 0.89028454
-0.0014012483 0.1376031 0.89382923
0.0015128509 0.14273283 0.8921231
0.0040062508 0.14760104 0.89145452
0.0056688688 0.14926051 0.89146167
0.0065080379 0.15237916 0.89272344
0.0056831297 0.157948 0.893704
0.067919746 0.1589849 0.89020014
0.072100677 0.15905237 0.89057797
0.058805976 0.16400191 0.89046693
0.062724598 0.16301122 0.89108348
0.06702137 0.16242833 0.89205027
0.072212987 0.16179061 0.89196843
0.053823769 0.16897115 0.89046687
0.057647076 0.16763055 0.89088595
0.062101502 0.16759446 0.89305854
0.065751471 0.16725647 0.89458346
0.052487876 0.17304172 0.89192879
0.056984641 0.17180653 0.89314687
0.060726978 0.17136218 0.89430022
0.014004366 0.1793987 0.89289993
0.047441266 0.17781292 0.89089543
0.051331699 0.17749248 0.89333361
0.01562342 0.18383783 0.89026666
0.038868438 0.1838378 0.89026695
0.042752173 0.1827933 0.89209074
0.046954516 0.18171069 0.89405859
0.015668465 0.18769033 0.89283341
0.033370677 0.18846124 0.89124471
0.037284967 0.18781674 0.89211684
0.041518383 0.18703958 0.8936919
0.017599696 0.1925568 0.89229465
0.022284746 0.19395085 0.891078
0.02728988 0.19325165 0.89167237
0.032328017 0.19189076 0.8930586
0.035690144 0.19122514 0.89383352
0.019033518 0.19635235 0.89446694
0.022349993 0.19618161 0.89368916
0.027365834 0.1962865 0.89416695
-0.003778002 0.12798704 0.89733338
-0.0033779121 0.13229795 0.89692897
-0.0039128372 0.13719317 0.89658755
-0.0023266126 0.14222656 0.89730006
0.00068419415 0.14493926 0.89550006
0.003194229 0.14855868 0.89725506
0.004032671 0.15191287 0.8973335
0.00570032 0.15342358 0.8964076
0.069125585 0.16484906 0.89506662
0.072500952 0.16493194 0.89551663
0.064127229 0.16986929 0.89520007
0.067843899 0.1679787 0.89577329
0.07262259 0.16771185 0.89701694
0.075966574 0.16770896 0.89700007
0.057453752 0.17432265 0.89526671
0.062882803 0.17278354 0.89649343
0.067874581 0.1722483 0.89783359
0.072440863 0.1719119 0.89891148
0.076152891 0.1706284 0.89920008
0.053594768 0.17833264 0.89588898
0.057801511 0.17735496 0.89696205
0.06245422 0.17690338 0.89814603
0.06660676 0.17609148 0.89862251
0.014105262 0.18236418 0.8993336
0.047782458 0.18425505 0.89551336
0.052808899 0.18244541 0.89738101
0.057334919 0.1812211 0.89864028
0.039078012 0.18982404 0.89506662
0.042855151 0.18866852 0.89550829
0.047498107 0.18761526 0.8964445
0.051792011 0.18719578 0.89842796
0.032413036 0.1943363 0.89539999
0.037788771 0.19272229 0.89615333
0.042755034 0.19241406 0.89715725
0.0475858 0.19130307 0.89810032
0.051008943 0.19074298 0.89940012
0.018245813 0.1976909 0.89676672
0.022395646 0.19824742 0.89551115
0.027407363 0.19825234 0.89553332
0.032699857 0.19732283 0.89671433
0.037528172 0.19710898 0.89791131
0.042050201 0.19681726 0.89912242
0.019105159 0.20043164 0.89783353
0.022681111 0.20152391 0.89738113
0.027465172 0.20200743 0.89740753
0.0325252 0.20141406 0.89848918
0.036746785 0.20075533 0.89928353
0.024176041 0.20584631 0.89960021
0.026682816 0.20576623 0.89925027
-0.0026723563 0.14080136 0.90100002
0.004058829 0.15457827 0.90315396
0.0040483167 0.15585361 0.90081489
0.07333868 0.17300396 0.90068156
0.076241814 0.17250228 0.90025002
0.012468304 0.17791963 0.90225005
0.064514026 0.17927045 0.90060043
0.068488955 0.17829819 0.90132809
0.072200835 0.17707264 0.90220022
0.013043366 0.18316446 0.90328902
0.058230136 0.18392348 0.90082538
0.06290029 0.18281123 0.90153354
0.067506865 0.18258564 0.9031834
0.013618571 0.18670374 0.90414447
0.054508787 0.18789852 0.90180016
0.057889834 0.18711312 0.90206128
0.062627107 0.18702377 0.90365827
0.014180029 0.19258036 0.90410006
0.015794234 0.19421865 0.9000001
0.047725927 0.19437693 0.90073353
0.052531153 0.19273934 0.90248013
0.057180367 0.19006853 0.90415001
0.014169865 0.19664429 0.9034521
0.016373465 0.19780922 0.9011035
0.043809135 0.19886227 0.90081137
0.047617976 0.19794251 0.90266669
0.018093349 0.20272775 0.90310222
0.021674816 0.20432043 0.90025014
0.032601435 0.20439987 0.90060037
0.037914544 0.20338663 0.90140963
0.042785134 0.20238578 0.90282226
0.047086231 0.20194222 0.90460002
0.019226804 0.20591003 0.90355003
0.022545876 0.20795894 0.90150017
0.027594553 0.20827143 0.90164453
0.032350637 0.20729241 0.90297997
0.0377593 0.20672601 0.90344447
0.041135795 0.20508078 0.90359998
0.023028428 0.21188486 0.90394163
0.027230404 0.21178272 0.90350837
0.03107021 0.21043339 0.90493339
0.0023900152 0.15390147 0.90908015
0.0023903027 0.15645719 0.90918922
0.0032365611 0.16312476 0.90864587
0.0091730095 0.17844522 0.90920031
0.010824447 0.17771915 0.90550005
0.075197816 0.17734914 0.90791672
0.0091689713 0.182593 0.90879995
0.010833375 0.18207975 0.90624684
0.069923647 0.18359448 0.9054001
0.072485954 0.18198454 0.90576673
0.075342759 0.18445964 0.90966684
0.0091702966 0.18684682 0.90893126
0.011519549 0.18765326 0.90710676
0.064041167 0.18872699 0.90578341
0.068015806 0.18713464 0.90622789
0.071990512 0.18760973 0.90750861
0.075175263 0.18742488 0.90764469
0.012961058 0.1920099 0.90735853
0.054768704 0.19384949 0.90610021
0.058420647 0.19274652 0.90657157
0.062478919 0.19249009 0.9076336
0.066778742 0.19268578 0.90855587
0.072217144 0.19225788 0.90830761
0.075175732 0.19333751 0.90765023
0.012558513 0.19611284 0.90877795
0.053350747 0.19765051 0.90710431
0.057494748 0.19787949 0.90912241
0.060930125 0.19717625 0.9097833
0.01425184 0.20116243 0.90867865
0.015910536 0.20239569 0.90662742
0.048669316 0.20288463 0.90580016
0.052659284 0.20226501 0.90856689
0.017330565 0.20760463 0.90728551
0.03445198 0.20878856 0.90510005
0.037837848 0.20884235 0.90533346
0.04316169 0.20759471 0.90631688
0.047624845 0.20752151 0.90797174
0.018899068 0.21242772 0.90805864
0.02153766 0.21355097 0.90625572
0.028832458 0.21333082 0.90532225
0.0330166 0.21263102 0.90622514
0.037929907 0.21272512 0.9075225
0.042713039 0.21193154 0.90846682
0.04650161 0.21153411 0.90966666
0.023258692 0.21721514 0.90747809
0.027763784 0.2177047 0.90717071
0.032889027 0.21754864 0.90853357
0.036317024 0.21657883 0.90953326
0.0011229014 0.15289062 0.913149
0.0011236239 0.15845923 0.9134168
0.0015478458 0.16256395 0.91261423
0.0075074979 0.1777969 0.91309994
0.0067829499 0.18233599 0.91356939
0.075643688 0.1834974 0.91330016
0.0071647451 0.18747443 0.9128195
0.0092045739 0.19263655 0.9123286
0.010887273 0.19315188 0.91075569
0.071994513 0.1947338 0.91023326
0.0092092613 0.19528139 0.9127934
0.012579825 0.198139 0.91031998
0.063532129 0.19735354 0.91059995
0.067060113 0.19773781 0.91237235
0.071880616 0.19770479 0.91418362
0.014277046 0.20321147 0.91028577
0.053338528 0.20496058 0.91053325
0.057199966 0.20303373 0.91252679
0.06179975 0.20195922 0.91322935
0.066345781 0.20069872 0.914267
0.014298526 0.20521304 0.91165525
0.049920265 0.20825657 0.9101333
0.052598905 0.20793214 0.91242105
0.056117415 0.20580843 0.91430032
0.016829513 0.2117579 0.91063344
0.044855949 0.2134684 0.91069996
0.04833816 0.21257576 0.9123168
0.051502146 0.21222499 0.91410035
0.018857177 0.21737255 0.91286677
0.02107355 0.21851072 0.91053325
-0.0015812026 0.1530202 0.9173097
-0.0018654928 0.15695131 0.91701752
-0.0014387142 0.16175063 0.91764188
0.0024136994 0.16669722 0.91745156
0.0066910665 0.16814533 0.9175961
0.0092435963 0.17300251 0.91619653
0.004124837 0.17843293 0.91784191
0.0075408546 0.1765763 0.91705859
0.0041211667 0.18254004 0.91702527
0.0041240505 0.18608183 0.91766685
0.0058242418 0.18912999 0.91589487
0.0075367675 0.19264893 0.91642636
0.010943752 0.19755918 0.91548014
0.073367715 0.19954583 0.91678315
0.075881116 0.19770736 0.9161666
0.012644499 0.20085976 0.91500002
0.063915834 0.20450944 0.91610014
0.067631163 0.20345506 0.91682857
0.072601497 0.20234938 0.9178943
0.076187573 0.20021693 0.91986668
0.05711161 0.20802753 0.91658002
0.062266324 0.2072612 0.91696101
0.067215867 0.20758832 0.91916656
0.071574792 0.20581162 0.9193778
0.016081164 0.21394107 0.91635001
0.053072114 0.2140727 0.91570038
0.057459738 0.21214586 0.91872495
0.061853323 0.21149468 0.91930008
0.065899 0.21049896 0.91993338
0.0024219595 0.16915549 0.92155534
0.0058602393 0.16972767 0.92155546
0.0035730426 0.17220746 0.92259425
0.0067194938 0.17316766 0.92161804
0.00299582 0.17686915 0.92155504
0.0058530718 0.17636883 0.92042863
0.0018521609 0.18193389 0.92260122
0.0032860143 0.18704656 0.92241669
0.076353222 0.20322552 0.92186677
0.014439339 0.20894662 0.92063344
0.069388121 0.20896168 0.92070007
0.0734993 0.2081158 0.92200571
0.076563045 0.20636238 0.92439991
0.00070859544 0.1785742 0.9274376
0.0093681486 0.20210515 0.92854166
0.011102419 0.20301463 0.92875332
0.012791742 0.20836443 0.92565525
0.0093936482 0.20438719 0.93106908
0.0094129592 0.20741111 0.9329834
0.011146128 0.20728375 0.93240958
0.0076901289 0.203527 0.93507409
0.005986386 0.20315115 0.94139278
0.0042521637 0.1989027 0.94617397
