# .PCD v0.7 - Point Cloud Data file format
VERSION 0.7
FIELDS x y z
SIZE 4 4 4
TYPE F F F
COUNT 1 1 1
WIDTH 1293
HEIGHT 1
VIEWPOINT 0 0 0 1 0 0 0
POINTS 1293
DATA ascii
0.015629385 0.032712799 0.013576627
0.016809117 -0.033269301 0.014398098
-0.015405602 -0.032917194 0.014272749
-0.012157572 -0.032960214 0.014742374
-0.0018439395 -0.032013208 0.014435291
0.0023745745 -0.031934861 0.014149487
-0.0038317442 -0.030154645 0.014025629
-0.022441719 -0.029949512 0.014184475
-0.025869869 -0.027469495 0.014944434
0.02909752 -0.027565882 0.014833212
-0.027424548 -0.025340308 0.014278531
0.028397515 -0.024432229 0.014174223
-0.033767998 -0.017022986 0.014869452
-0.03156215 -0.01528335 0.014785469
0.032182366 -0.014602071 0.014774203
0.031188905 -0.013970534 0.014262855
-0.034219742 -0.011677455 0.014166415
0.03041482 -0.0077772276 0.014055669
0.029879272 -0.003593585 0.014592171
0.0318751 -0.0027055927 0.01481849
0.031913053 -0.0016431091 0.014684796
0.030100346 0.00067998603 0.014148295
-0.032442495 0.0016476884 0.014841676
0.031268511 0.0030836426 0.014641285
0.030141661 0.0065162159 0.014257431
-0.030700684 0.01438427 0.014401793
-0.032917283 0.015405173 0.014273167
0.031008616 0.024461631 0.014251888
-0.028880408 0.027660601 0.014497101
0.023950187 0.027639575 0.01482296
0.027114397 0.028632564 0.014267921
-0.025226116 0.029980944 0.014843464
-0.0065949177 0.030319445 0.014424443
0.0038323936 0.030128777 0.014003217
0.0085534835 0.030592203 0.014385998
0.014393394 0.030461194 0.0141958
-0.0033957167 0.03142602 0.014394462
0.0017753365 0.031624343 0.014412165
0.0019513508 0.032255132 0.014836311
-0.0013614167 -0.033095293 0.015994906
0.0062714443 -0.033203006 0.015139461
0.011110261 -0.033501983 0.015461743
-0.0066100126 -0.032436337 0.015611589
0.0018078815 -0.032433748 0.015388668
0.0049561816 -0.032124158 0.015775502
0.016387314 -0.032338858 0.015046477
0.017269317 -0.032223981 0.015243351
-0.011684036 -0.031438213 0.015623927
0.021569556 -0.031803019 0.015319586
-0.02136874 -0.028424734 0.015768409
0.030304508 -0.027182151 0.015619278
-0.023862552 -0.026423955 0.015299499
0.031432271 -0.023891764 0.015102863
-0.032153159 -0.017193884 0.015153944
0.031147955 -0.016598558 0.015594125
-0.033140332 -0.013194687 0.015395701
0.031534463 -0.011721589 0.015713453
0.031184494 -0.0099715283 0.015535295
0.031589705 -0.006621208 0.015172541
-0.034222841 -0.0056941812 0.015324056
-0.032303691 -0.0012590181 0.015660226
-0.034178153 0.0022306088 0.015570581
0.030840397 0.0029646675 0.015411377
-0.03085947 0.0037725451 0.015714586
0.031680703 0.0066436394 0.01511085
-0.03334906 0.0072389017 0.015743971
0.03063835 0.0094955228 0.015525818
0.031595081 0.010308746 0.015137255
0.032456756 0.011347102 0.015362322
-0.03290632 0.012054757 0.015728831
0.030916428 0.013766894 0.015479207
-0.031099629 0.016579719 0.015549421
0.031554282 0.016427049 0.015452445
-0.031432308 0.023891989 0.015102744
0.029615179 0.024696346 0.015197754
-0.030189499 0.027612291 0.015148103
0.025582578 0.029681148 0.015074015
-0.027721835 0.030214649 0.015254617
-0.0095138578 0.030679721 0.015565038
0.023339966 0.030854002 0.015163004
-0.010239044 0.031530418 0.015055776
-0.0066432161 0.031582415 0.015025973
0.017139096 0.031320568 0.015389442
-0.011346734 0.03221488 0.015153825
0.0065738284 0.032348488 0.015529633
0.011739256 0.03216359 0.015593648
0.013451192 -0.032427911 0.016127497
-0.013847604 -0.031821132 0.016970515
-0.0087988973 -0.031780899 0.01672101
0.0090732314 -0.031769004 0.016321659
-0.016443063 -0.029774956 0.016083479
-0.025764961 -0.025993571 0.01693517
-0.033304799 -0.014172778 0.016732931
0.031302869 -0.013865341 0.016525507
0.031941172 -0.010983705 0.016652346
-0.032914713 -0.0095296465 0.016303778
-0.033191998 -0.0045657586 0.016385317
-0.031677246 0.008802196 0.01663202
-0.032374274 0.011841491 0.016143382
-0.031520724 0.013016053 0.016676724
0.03193653 0.013922192 0.016723394
0.031603232 0.017326057 0.016499698
-0.030277368 0.026270976 0.016844749
0.027263656 0.027350634 0.0164949
-0.0013187666 0.030578732 0.01633954
-0.013818512 0.031391881 0.016270965
0.010491882 0.03147471 0.016529739
0.013024068 0.031287551 0.016476512
0.012828407 0.033672716 0.016665578
0.024958787 -0.030804232 0.017787457
-0.028342981 -0.023526441 0.017766774
0.032521654 -0.017923824 0.017528772
0.030902386 -0.0053646234 0.017983675
0.03109427 0.0034030639 0.017380357
-0.029534154 0.028077966 0.017576218
0.0028455416 0.030674696 0.017681301
-0.017652765 0.031685684 0.01728338
-0.0018268442 0.031696126 0.017411888
0.016325537 -0.032618161 0.018474817
0.019998167 -0.032487445 0.018388808
-0.021423722 -0.030329237 0.018067062
0.024447905 -0.030215966 0.018994868
-0.025198804 -0.027017433 0.018562436
0.027630962 -0.026822954 0.018052697
0.028714366 -0.026962548 0.018529415
-0.029475002 -0.02423659 0.018054724
-0.028629553 -0.023350239 0.018630624
0.031530261 -0.022302642 0.018712282
-0.031919517 -0.020041464 0.018553257
-0.03185191 -0.019779323 0.018891335
-0.033157088 -0.015356595 0.018466771
-0.035550535 -0.011019923 0.018257856
-0.032796834 -0.011404647 0.018912435
-0.035151899 -0.0074536284 0.018210113
0.032016385 -0.0025472147 0.018575907
0.032026619 0.015904611 0.018874466
-0.033093646 0.017849838 0.018101096
0.032313857 0.019924598 0.018225789
-0.031636596 0.022215713 0.018810749
0.031128397 0.025099188 0.01830709
-0.02443745 0.030339964 0.018746078
-0.024929119 0.031607676 0.01843375
-0.019813951 0.031944465 0.018239021
-0.016419772 0.03184633 0.018517852
0.002633729 0.031827256 0.018398762
0.022292463 0.031519622 0.018699408
-0.016487073 0.032337844 0.01828289
0.012878584 0.032403402 0.018977761
-0.0014448846 -0.033084527 0.01988554
0.016074127 -0.033135101 0.019453168
-0.010032492 -0.032721698 0.01973772
-0.0063606161 -0.032232933 0.019681633
0.0026530828 -0.032689393 0.019969463
0.0053316355 -0.032754838 0.019833624
0.0085774865 -0.032392278 0.019922614
0.020301308 -0.032345835 0.019510865
-0.0036237575 -0.031540751 0.019535124
0.025332153 -0.031597249 0.019831896
0.02746411 -0.029899212 0.019250393
0.029402746 -0.027337976 0.019204497
0.031164307 -0.022149725 0.019008577
0.031467192 -0.017402839 0.019054651
-0.033542406 -0.016509755 0.019964933
0.03265918 -0.014090021 0.019041896
0.031263683 -0.010203315 0.019981742
0.031796966 -0.0059261485 0.019992471
-0.033234227 -0.0039270846 0.019800186
-0.032146394 -0.001079474 0.019637823
0.032544386 -0.0012217173 0.019386053
-0.034279346 0.0014460012 0.019821644
-0.032644134 0.0083780047 0.019663453
0.031281732 0.0085705817 0.019562304
-0.032684952 0.0099961497 0.019692838
0.032983482 0.011454431 0.019050598
-0.032085028 0.013653436 0.019015431
-0.031549409 0.017434718 0.019130468
0.0314335 0.020503134 0.019206166
0.02967741 0.024126582 0.019484222
-0.029828986 0.027265266 0.019050121
0.026539981 0.028338671 0.019114017
-0.027227556 0.030405667 0.019254088
-0.026839744 0.030883623 0.019690037
-0.01251871 0.030943897 0.019889593
-0.020645974 0.031569079 0.019375563
-0.0085343039 0.031198433 0.019484401
0.017181929 0.031798113 0.019015491
0.022335414 0.031098234 0.019294322
0.0011536721 0.032382317 0.019236922
0.0054464731 0.032919325 0.019518435
-0.011454093 0.033126235 0.019172966
0.012477336 -0.03342193 0.020436168
-0.013673464 -0.032481313 0.020768642
-0.0086436979 -0.032268286 0.020372033
0.0012000389 -0.032022119 0.020203173
0.0037110243 -0.032996368 0.020443678
-0.0096670073 -0.031463765 0.0202986
-0.021656618 -0.029580254 0.020014763
0.026458882 -0.029558595 0.020860374
-0.024698472 -0.028162019 0.02003175
0.028848 -0.026976679 0.020763814
0.032182992 -0.013683667 0.020513654
-0.034215689 -0.012461349 0.020213366
0.031971443 -0.010024183 0.020380437
0.031778038 -0.008397934 0.020403385
-0.033094808 -0.0079721808 0.020315647
0.030711472 -0.0035525621 0.020980954
0.03091228 0.001668015 0.020120382
0.031746387 0.0062737889 0.020097375
-0.031840205 0.008656159 0.020005941
-0.031984031 0.013690926 0.020343661
-0.031313416 0.024730511 0.020756006
-0.029427633 0.027597981 0.020425439
0.029630113 0.027031645 0.020968974
-0.029592367 0.028633008 0.020806909
-0.025945749 0.029962128 0.020991504
0.026682064 0.029170826 0.020010889
-0.012261223 0.031984873 0.020837545
-0.0016713169 0.03114289 0.020316839
0.0086541837 0.031900883 0.020057678
0.01369425 0.031897545 0.020269752
-0.0062339595 0.032097161 0.02005291
-0.0040557021 0.032358181 0.020387769
-0.00068079773 -0.03312147 0.021296263
0.016551979 -0.033590555 0.021771312
0.022901863 -0.030386671 0.021645784
-0.024955571 -0.026906185 0.021889865
0.03243199 -0.00088577159 0.021007419
-0.033050597 0.00071310811 0.021229804
0.031994488 0.0042018527 0.021112323
0.032126453 0.012413493 0.021014571
0.027014609 0.029007263 0.021473646
0.0037964294 0.031440377 0.021150351
0.00078072771 0.032662734 0.02122283
0.013291119 0.034321755 0.02164042
0.011525698 -0.034227788 0.022262096
0.0070905797 -0.033724844 0.022737741
-0.015999503 -0.032299608 0.022198021
-0.01196122 -0.031546365 0.022584796
0.018945383 -0.031786434 0.022424996
0.025842953 -0.03086351 0.022648931
0.029298445 -0.026080456 0.022946954
0.030187428 -0.02634945 0.02221632
-0.028557535 -0.024540283 0.022961795
0.031121153 -0.022193791 0.022485375
0.032189474 -0.016170662 0.022511482
-0.033039927 -0.014907748 0.022176921
-0.03495878 -0.01152562 0.022885263
0.031326298 -0.011942222 0.022817731
-0.034224093 -0.0065103513 0.022472382
-0.034540538 0.002383871 0.022517562
-0.033469491 0.0065849363 0.022063673
-0.03208553 0.011673526 0.022589982
0.033477426 0.011546014 0.022234082
0.032950222 0.01547741 0.022435009
-0.032770108 0.016468707 0.022764742
-0.031295702 0.019764025 0.022937894
0.03212104 0.019087527 0.022735775
-0.031528257 0.02236525 0.022507429
0.028901637 0.023825672 0.02230525
-0.029868959 0.02800953 0.022580206
-0.028662592 0.030229006 0.022458971
-0.022771753 0.030200511 0.022524238
-0.019264154 0.031320658 0.022998452
0.02066135 0.031358901 0.022473395
-0.016581461 0.032987654 0.022061408
0.0071338448 0.032825224 0.022215128
0.01175969 0.032303125 0.02278924
-0.011545933 0.033536792 0.022284806
0.01673197 0.033314966 0.022976756
-0.016887408 -0.033463836 0.023895919
0.0023998953 -0.033238947 0.023954868
0.0060398006 -0.033867937 0.023965776
-0.0063558286 -0.032530334 0.023136139
-0.0034629405 -0.032825589 0.023853719
0.00079497602 -0.032957025 0.023005247
0.0099566821 -0.032568797 0.02322644
0.019392118 -0.03207399 0.023377895
0.021457084 -0.032269135 0.023966968
0.014793312 -0.031780809 0.023368359
-0.016427748 -0.030468842 0.023080885
-0.020491991 -0.029713167 0.023561954
0.027988037 -0.028844578 0.02372694
-0.024256062 -0.026710857 0.023614645
-0.028129639 -0.023718314 0.023359597
0.031061608 -0.020118825 0.023029149
-0.03206012 -0.019520286 0.023764014
-0.030918285 -0.019827485 0.023049831
0.031261746 -0.016507007 0.023110569
-0.033968586 -0.014802732 0.023552775
-0.032175858 -0.014964286 0.023735166
-0.033166699 -0.01017045 0.02342391
0.031676367 -0.0078175142 0.0230124
-0.034106959 -0.0052839434 0.023798227
-0.032994866 -0.0019577206 0.023229122
0.032391779 -0.00078567024 0.023147106
0.032585979 0.0082503166 0.023149371
0.03213514 0.0099001108 0.023536742
0.031856347 0.01458743 0.023101807
0.032104429 0.01532991 0.023747504
-0.031294327 0.016536761 0.023490965
0.031429801 0.018705729 0.023875654
0.03014376 0.026457405 0.023934603
0.026783727 0.029249746 0.023792028
-0.018773589 0.031627886 0.023632169
-0.015216022 0.031997889 0.023614645
-0.014768104 0.031166676 0.023134887
0.016648794 0.03162482 0.023443162
0.02212167 0.031063413 0.023485899
-0.009871481 0.03206848 0.023474455
-0.0074139861 0.032718241 0.023297608
0.00084510166 0.032536454 0.023279607
-0.0054510734 0.033157736 0.023942709
-0.0084628537 -0.0336712 0.02478683
-0.00067562051 -0.033606291 0.024700522
0.015060876 -0.033402182 0.024057388
0.025410876 -0.031933606 0.02467519
-0.021359179 -0.029325008 0.024003029
-0.025902612 -0.027170092 0.024001896
0.02926171 -0.026874518 0.024948835
-0.029075708 -0.024982082 0.024011374
0.030868446 -0.023119053 0.02418071
0.032913208 -0.013507864 0.024357498
-0.035282139 -0.011448848 0.024611473
0.032750368 -0.0093265027 0.024040222
0.030668974 -0.0025823959 0.024131775
0.032958772 -0.00097084325 0.024098575
-0.033420213 0.0016825339 0.024264872
0.03073144 0.0016106605 0.024005353
0.03269355 0.0025928169 0.024901867
-0.033189654 0.0034557614 0.024163127
-0.033541203 0.0084666684 0.024676383
-0.033632696 0.013482682 0.024968565
0.032772075 0.021668507 0.024433315
-0.031936951 0.02395761 0.024901032
0.032579385 0.025613723 0.024378598
0.029243045 0.028762728 0.024627984
-0.029928694 0.029865364 0.024650574
0.023522962 0.031279571 0.02467376
-0.025628693 0.03250815 0.024667859
-0.021505807 0.032008633 0.024768949
0.00079094712 0.033353671 0.024465621
0.008479164 0.033073127 0.024278641
0.013495817 0.03326875 0.024659455
-0.013477877 -0.033762693 0.025078893
0.021108851 -0.031879768 0.025846541
0.017980322 -0.030535933 0.025423825
0.025630232 -0.030266687 0.025548816
0.028435249 -0.030554043 0.025971174
-0.023841025 -0.026093632 0.025750697
-0.027972985 -0.02416423 0.025848985
-0.029150622 -0.023072608 0.025242805
0.031615682 -0.022627838 0.025383115
-0.031074477 -0.021470249 0.025543332
-0.030324906 -0.019701391 0.025746942
0.033589602 -0.016830647 0.025074959
0.032832414 0.011416806 0.025194705
-0.033823609 0.016821209 0.025273621
-0.031056061 0.019368596 0.025760531
0.030913547 0.021300666 0.025343955
-0.032120358 0.022819795 0.025844336
0.029553063 0.025125392 0.025820851
-0.030008685 0.02793261 0.025254667
0.026834518 0.02893731 0.025002718
-0.025849745 0.030105758 0.025612056
0.025784709 0.030446533 0.025178194
-0.021470336 0.031074557 0.025543332
0.022134814 0.03136139 0.025861681
-0.011474011 0.032885458 0.025260687
0.01682435 0.033745706 0.02520746
0.0027714567 -0.034313448 0.026898623
-0.0014497451 -0.033654895 0.0267663
-0.010845486 -0.032798339 0.026198864
0.018294502 -0.032529455 0.026783943
0.014611838 -0.030941147 0.026924729
-0.023414634 -0.027529929 0.026726842
0.030759027 -0.027293652 0.026216805
0.030085828 -0.02471922 0.026358128
0.030145319 -0.018360814 0.026742101
-0.032358825 -0.016739327 0.02652055
0.031028254 -0.01650407 0.026754081
0.031766649 -0.014854257 0.026984096
-0.034116507 -0.011668175 0.026444793
0.03269764 -0.011314968 0.02697134
0.032067113 -0.0060022641 0.026936233
-0.034762681 -0.0026686788 0.026278675
0.03340343 -0.001106726 0.026793659
-0.033957258 0.0013582138 0.026696205
0.034048989 0.0028828103 0.026656389
-0.032894593 0.010943021 0.026314199
0.031319365 0.01474495 0.026552916
0.03237164 0.016750021 0.026886344
-0.031596512 0.027374633 0.026436925
0.029801868 0.028096944 0.026147366
0.026914235 0.029883167 0.026469946
-0.014515181 0.03071809 0.026718855
-0.028990384 0.031591259 0.026637912
0.016650155 0.031362642 0.026708186
-0.016749267 0.032441199 0.026944995
0.0060961857 0.032873169 0.026976228
0.015668325 0.032759331 0.026534557
-0.0026069609 0.033322543 0.026916504
0.011345347 0.033640511 0.026882648
0.0064728782 -0.033073723 0.027309418
0.011703659 -0.03362 0.027090728
0.014279377 -0.03374603 0.027933598
-0.0062883203 -0.032770038 0.0275774
0.0017238371 -0.032926798 0.027998805
0.0094784135 -0.032442328 0.0275172
0.0169461 -0.032883286 0.027043402
-0.014923148 -0.031834569 0.027065933
-0.011229524 -0.031527512 0.027353466
-0.01623611 -0.030461064 0.027289629
-0.021036208 -0.029003566 0.027918994
-0.018608065 -0.029640637 0.027322531
-0.034005567 -0.015085899 0.027309716
-0.031244209 -0.014742279 0.027204156
-0.032972287 -0.010037343 0.027245522
0.031271908 -0.010852571 0.027478814
-0.033709109 -0.0063576628 0.027181089
-0.03307569 -0.0014641195 0.027525425
-0.033190668 0.0033241431 0.027369857
-0.032764591 0.0062862001 0.027572632
0.032401145 0.0067281588 0.027339876
0.032335393 0.0092140185 0.027926207
-0.031590175 0.010978869 0.027768493
0.03278178 0.011739468 0.027447343
-0.03219761 0.014841815 0.027119219
-0.030952347 0.016458996 0.027035415
0.031460959 0.017297294 0.027678251
0.032589819 0.0268704 0.027490616
-0.018488269 0.031502359 0.027314663
-0.027718831 0.032475285 0.027642131
-0.011739443 0.032851279 0.027506173
-0.0093278075 0.032098837 0.027199686
-0.0067299409 0.032615364 0.027521193
-0.0017129267 0.032142162 0.027335882
0.011076778 0.032023486 0.02746439
0.0010832315 0.033387873 0.027231872
-0.00015169661 -0.034394298 0.028692961
0.011337281 -0.034899075 0.028590381
-0.008289557 -0.033181846 0.02864331
-0.0032832045 -0.033050001 0.028317332
0.0048955702 -0.033508543 0.028347969
0.020876549 -0.032140058 0.028817177
0.02603871 -0.031054068 0.028854311
0.028652763 -0.028753856 0.028192163
0.029051999 -0.02784046 0.028862
-0.025625186 -0.026994944 0.028048754
-0.028790494 -0.024092251 0.028798878
0.03301847 -0.013305707 0.02872014
0.03297627 -0.008295361 0.02846992
-0.034312032 -0.0046122316 0.028195918
0.03199172 -0.0035194741 0.028044939
-0.034440219 -0.00010860711 0.028344393
0.033765689 -0.00043929648 0.028111398
0.032000482 0.0017519849 0.028285146
0.033122979 0.0049646138 0.028327644
-0.033191204 0.0085096247 0.028393507
-0.033238411 0.013298094 0.02890563
0.032955892 0.014152313 0.028967202
-0.031389508 0.017143682 0.028818071
0.032667343 0.024288986 0.028939009
-0.030051321 0.027802477 0.028391182
-0.03109389 0.028813569 0.028502762
0.027791673 0.029534716 0.028657675
0.021045441 0.03189024 0.028999388
-0.020147096 0.032077953 0.028984308
-0.013846873 0.03267153 0.028615773
0.0032888642 0.032757699 0.028070211
0.017380988 0.032379519 0.02881813
-0.0047207335 0.033656638 0.028149009
0.0082902769 0.033158779 0.0286237
0.013298335 0.033232629 0.028900683
0.00018621981 0.034319177 0.028623462
-0.013293674 -0.033360004 0.029008389
0.011770066 -0.032556824 0.029541075
0.015144799 -0.032764673 0.029422164
-0.0093517546 -0.031651508 0.029970229
0.024249565 -0.031300064 0.029409885
-0.024450015 -0.026855849 0.029056609
0.030414533 -0.025730714 0.02941364
-0.029044801 -0.024345646 0.029458046
0.031212937 -0.021755029 0.029487967
0.032181382 -0.021951638 0.029412508
-0.031193592 -0.020175088 0.029317439
-0.035196878 -0.011777428 0.029253125
-0.034661174 -0.0084090903 0.029179215
-0.034648236 -0.0072312057 0.029919982
0.032413498 0.01170755 0.029409111
0.031750619 0.015480342 0.02941829
-0.031627111 0.020997275 0.02924633
0.031477798 0.020254929 0.029797316
0.03250806 0.020424228 0.029224992
-0.032400191 0.022035195 0.029611111
0.029872717 0.024587249 0.029232979
-0.023688197 0.030702984 0.029775202
-0.015098253 0.031864949 0.02993381
0.027261458 0.03109662 0.029664576
-0.011728404 0.032461304 0.029453158
0.013387755 0.032559268 0.02999413
0.016888304 0.032254573 0.029966652
0.022280673 0.032137349 0.029710829
0.013955569 0.033014059 0.029870808
0.0068101771 -0.033125401 0.030083358
0.016150814 -0.033680752 0.030556202
0.0081444299 -0.032372754 0.030499756
0.020929435 -0.032621004 0.030121148
-0.016698942 -0.031892888 0.030686378
-0.014621155 -0.031357434 0.030061901
0.015153078 -0.031992689 0.030051291
0.025879122 -0.031991974 0.030974984
0.028507262 -0.031529646 0.030825615
-0.02175591 -0.029706743 0.030048251
-0.028705273 -0.026007 0.030545831
0.032159865 -0.017272696 0.030565917
-0.034509428 -0.016392749 0.030680776
0.031944238 -0.014012517 0.030367792
0.031332403 -0.0110199 0.030330718
-0.033763569 -0.010479845 0.030136645
-0.033416569 -0.0051458073 0.030399919
-0.033123016 -0.0026425817 0.030260205
-0.032977343 0.0031970548 0.030387998
-0.032951236 0.0065341848 0.030509114
0.032088932 0.0098411161 0.030753672
-0.031526178 0.011097076 0.030506253
-0.032378379 0.017357746 0.030763924
0.032208715 0.025956143 0.030816793
-0.029592339 0.027185449 0.030924201
0.03094637 0.027790554 0.030594528
0.027076647 0.029480375 0.03079164
-0.020455388 0.031667702 0.030031085
-0.028993431 0.032099918 0.030663073
-0.026010197 0.03240161 0.030279458
-0.0082498491 0.032611407 0.030719042
0.0095654726 0.032184526 0.030453205
0.013005728 -0.034030579 0.031126261
-0.0054404726 -0.032249041 0.031674743
-0.021773431 -0.031196436 0.031995475
0.026344266 -0.030479632 0.031361818
-0.02588848 -0.027982391 0.031033039
0.029308932 -0.027360035 0.031084716
0.031985611 -0.027540337 0.031512022
0.031129112 -0.023946451 0.031879663
-0.033237882 -0.015689399 0.031195521
-0.034181386 -0.0052997316 0.03113246
0.032743108 -0.0006240597 0.0319103
-0.033413649 0.00066651125 0.031825304
-0.032176375 0.0054112426 0.031608999
0.032097399 0.0068795173 0.0313465
0.03198868 0.011881726 0.03104049
-0.032399543 0.01323976 0.031206369
-0.031876195 0.024127187 0.031888247
-0.032172576 0.02760997 0.031681299
0.029572636 0.028538637 0.031920195
-0.030084945 0.02999825 0.031003177
-0.026191995 0.030309059 0.031591058
0.024099993 0.031848349 0.031854928
-0.013548336 0.032167375 0.031118751
-0.0068811988 0.032393456 0.031594753
-0.0018782513 0.032240868 0.031681597
0.003127479 0.032105803 0.031783342
0.0056708064 0.032712724 0.031044602
-0.0049585407 0.033305235 0.031406283
0.00084705558 0.033188671 0.031263471
0.01188067 -0.034001708 0.032726288
0.0038261926 -0.0333055 0.03286171
0.021054264 -0.033137403 0.032637358
-0.011447307 -0.032832265 0.032749951
-0.0047880113 -0.032449543 0.032142937
-0.00071305502 -0.032957856 0.032105029
0.016908593 -0.032939255 0.032683551
-0.019442843 -0.030698083 0.032701731
-0.027095353 -0.027299199 0.032744348
-0.024814993 -0.027209273 0.032541811
0.029916085 -0.025598817 0.032968819
-0.033086956 -0.015889283 0.032213688
0.032253444 -0.013134891 0.03233695
0.032162189 -0.0081317127 0.032045543
0.03192202 -0.0050088544 0.032016516
0.031993508 -0.0026913532 0.032202363
0.03308915 -0.00047567394 0.032903135
0.031901121 0.0019148304 0.03245908
0.032737885 0.0044310004 0.032725155
0.033247828 0.01230988 0.032375813
-0.032892942 0.014779989 0.032944024
-0.031992093 0.015846938 0.032904267
-0.031749628 0.01974168 0.03277576
0.032742582 0.02178644 0.032530487
0.0302414 0.025710143 0.032405496
-0.015283494 0.031875849 0.032926798
0.027343448 0.031598654 0.032204568
-0.013285561 0.032637391 0.032544374
-0.011590651 0.032622397 0.032859564
0.0081142755 0.032788992 0.032570481
0.013126967 0.032479703 0.032526374
-0.022184696 0.033041421 0.032175124
0.00038732402 0.033925317 0.032979369
0.019173117 0.033675056 0.032945752
0.0071513318 -0.034032643 0.033562422
-0.0004157275 -0.033752572 0.033176959
0.0019337796 -0.033321321 0.03364706
0.010446596 -0.033251926 0.033970356
-0.016609019 -0.032021809 0.033937097
-0.0068413187 -0.032528654 0.033984721
-0.0027258135 -0.032888591 0.033697844
0.015092254 -0.032641362 0.033205807
0.019177318 -0.032969039 0.033948243
0.022484977 -0.032802079 0.033596158
-0.015374062 -0.031766936 0.033454657
-0.021492869 -0.030721493 0.033654213
0.029984584 -0.030793145 0.033635795
-0.029816916 -0.025351033 0.033347845
-0.02890991 -0.025224224 0.033104539
-0.032784097 -0.022466034 0.033574164
0.032972325 -0.022918761 0.033237934
0.031341281 -0.020079814 0.033462822
0.032303981 -0.016372159 0.033854365
-0.03357571 -0.015924055 0.033652544
0.031786609 -0.0157343 0.033123612
-0.035590053 -0.012096237 0.033445477
-0.034197208 -0.010224804 0.033949912
-0.034872532 -0.0068975468 0.033671558
0.032189246 -0.006703604 0.03367877
0.032146752 -0.0038724751 0.033976972
-0.033687413 -0.0019386712 0.033953011
-0.034176812 0.00027254969 0.033210397
-0.033390343 0.0030573788 0.033919632
-0.032322489 0.0067579355 0.033798993
0.032542109 0.0069586276 0.03384161
0.032459676 0.011951922 0.033558011
0.032247122 0.014808901 0.033696413
0.031980455 0.01528292 0.033014238
-0.032294381 0.016368233 0.033845782
-0.033311151 0.022613663 0.033209801
0.032224171 0.023078391 0.033569992
0.026267983 0.030185364 0.033574224
-0.029482689 0.031784747 0.033612549
-0.023078389 0.032224175 0.033569992
-0.01503033 0.032497592 0.0330742
-0.0069423979 0.032975674 0.033673406
0.015705679 0.032707788 0.033779144
0.01612838 0.032650527 0.033412814
0.020348284 0.032361407 0.033500671
-0.010398658 0.033142559 0.03387022
0.0070952466 0.033052951 0.033409953
0.011667808 0.033142082 0.033710301
-0.013378074 -0.033145785 0.03437078
-0.0080505759 -0.033411801 0.034152031
0.0063884645 -0.033520289 0.034459114
0.015469437 -0.033614106 0.034645557
-0.011724941 -0.032791063 0.03408283
-0.0036563147 -0.031534139 0.034214616
-0.025970457 -0.028007725 0.034721971
-0.028853599 -0.02513402 0.034613371
0.032348394 -0.01636686 0.03468287
-0.034498107 -0.015772544 0.034837306
0.032740712 -0.013019295 0.03486675
0.032469079 -0.011614783 0.034139633
0.032492757 -0.0080293659 0.034444928
-0.034658432 -0.0059026219 0.034412622
-0.032537572 0.00043728761 0.034524202
-0.031873353 0.0037952783 0.034519792
0.032753538 0.0066880952 0.034646213
-0.033616662 0.0080451667 0.034322977
0.032566726 0.010431905 0.034031391
-0.03234423 0.011564984 0.034027338
-0.033008099 0.012716062 0.034227133
0.032896798 0.015239034 0.034511864
-0.032651186 0.017188141 0.034971118
0.032442432 0.019469922 0.034490049
0.030218538 0.030118659 0.034236193
-0.019343099 0.032323204 0.034343839
-0.015245768 0.032501385 0.034623206
-0.0019660881 0.032667994 0.034161568
0.00012166239 0.032659985 0.034644783
0.003027604 0.03271544 0.03441596
0.01302055 0.032705963 0.034837723
0.016360633 0.032505393 0.034813702
-0.0056603979 0.033810832 0.034342468
0.0080137895 0.033068061 0.034924984
0.021886725 0.033813227 0.034035861
0.021131393 -0.033028554 0.035744667
-0.016350288 -0.03276664 0.035031617
-0.00021279417 -0.032121275 0.035546482
0.025642533 -0.031567656 0.035067022
-0.025626598 -0.028340587 0.03558737
0.02859178 -0.028211148 0.035615146
0.03001848 -0.027019439 0.035746396
-0.03224989 -0.020804059 0.03503561
0.031889353 0.00035356078 0.035700679
0.032449365 0.0030047689 0.035500407
0.032651525 0.020972526 0.035401046
-0.031724311 0.021956613 0.035908997
0.031795178 0.026182748 0.035400033
0.028761774 0.028947258 0.035623431
-0.030258618 0.02914587 0.035240948
0.027165279 0.030167751 0.035921931
-0.026215758 0.032438852 0.035655499
-0.021183735 0.033152938 0.035857975
-0.00022295676 -0.033285953 0.036319733
0.01628335 -0.03324347 0.036874771
-0.010760006 -0.032572605 0.036134958
0.021308627 -0.032596517 0.036680818
-0.021614131 -0.030644169 0.036143184
0.026181715 -0.030794332 0.03627944
0.03172427 -0.027180675 0.036474347
-0.029440703 -0.025146881 0.036168516
-0.029492211 -0.024761055 0.03629142
0.032318823 -0.022052513 0.036129296
-0.032674935 -0.021031611 0.03632158
0.031303495 -0.021968015 0.036453366
-0.033854906 -0.015704826 0.036456525
-0.035954714 -0.011121169 0.036514163
0.032207072 -0.010342872 0.036734104
-0.035921574 -0.0086369142 0.036593199
-0.032566614 0.010753939 0.036127687
0.032769635 0.016926851 0.036821961
0.03218668 0.021499639 0.036884844
-0.032803636 0.02251127 0.036210954
0.030469321 0.026156571 0.036325872
-0.032066502 0.027308755 0.03678143
-0.030280137 0.027274419 0.036053717
0.030505598 0.02855383 0.036955476
-0.029156236 0.030968908 0.036795795
-0.026285795 0.030593399 0.036476254
0.022103749 0.031872962 0.036084294
0.027213622 0.031811137 0.03655231
-0.021547161 0.032231625 0.036939561
0.01095886 0.032769255 0.036367297
0.022583693 0.032991759 0.036379814
-0.015933227 0.033286754 0.036599696
0.00011498481 0.033562321 0.036212683
0.01735252 0.033180989 0.036566794
0.0070634484 -0.034139395 0.037815392
0.012021031 -0.034191132 0.037117124
0.002651003 -0.033648927 0.037636895
0.012676912 -0.033996344 0.03730309
0.017428029 -0.033917606 0.037184417
-0.016666777 -0.032527301 0.037515938
-0.0057880073 -0.032551341 0.037859797
-0.00029027089 -0.032490015 0.037968874
-0.02151905 -0.031178709 0.037185431
-0.014570694 -0.031955045 0.03787899
0.028607495 -0.030525096 0.037004054
-0.02374652 -0.028017245 0.03775245
-0.032720387 -0.017072819 0.037788391
0.032687094 -0.017197145 0.037299275
0.031816043 -0.014431523 0.037715614
-0.034673523 -0.012339022 0.037038565
0.033106644 -0.0096776206 0.037556589
-0.034624457 -0.0062187915 0.037727773
0.032371126 -0.0057140784 0.037698448
-0.034206808 -0.0020684344 0.037558794
-0.03364313 -0.0028353091 0.037717104
0.03187846 -0.00093761459 0.037742555
0.032451537 -0.00087236706 0.037395537
-0.032504655 0.00068761874 0.03727442
-0.034253955 0.0029089372 0.037812352
-0.032617368 0.005814583 0.037919104
0.032763958 0.0073095723 0.037980437
-0.032766372 0.0095410664 0.037251472
-0.031843744 0.014459371 0.037748456
-0.032748047 0.017220696 0.037354052
0.032499313 0.01707389 0.037603974
-0.017073765 0.03249073 0.037596464
0.00076468848 0.032502085 0.037617505
0.014270385 0.032759681 0.037983358
-0.012614206 0.033852447 0.037172079
-0.01183557 0.03303957 0.037675261
-0.0070789745 0.033529639 0.037835479
-0.0020972968 0.03333658 0.037889242
0.0054923259 0.033057105 0.037831187
0.009872701 0.033592671 0.037992299
0.012733959 0.033838585 0.037092805
-0.0081881192 -0.034064829 0.038727283
0.0050203949 -0.034080189 0.038752019
-0.0096030626 -0.033027403 0.03852582
-0.00321199 -0.033958673 0.038424075
0.0089633502 -0.033566181 0.038039565
-0.017001124 -0.03220284 0.038827777
-0.025176898 -0.029285774 0.03812629
-0.033961304 -0.018091738 0.038187206
-0.034252953 -0.011390898 0.038851321
0.032813787 -0.0078354347 0.038938761
-0.034820795 -0.0055670221 0.038922966
0.03285408 -0.0028508944 0.038756847
-0.034258053 -0.00051474851 0.038609385
0.032713771 0.0021295748 0.038425863
0.03277095 0.0053148274 0.038777173
-0.034049392 0.0081886612 0.038713932
0.032978386 0.010087412 0.038419008
0.032756209 0.012092059 0.038032055
0.032107007 0.013754254 0.038228989
-0.014020369 0.032963078 0.038815439
-0.0091325119 0.033949528 0.038387954
0.0028787914 0.033597708 0.038320482
0.0078551071 0.033775687 0.038683295
0.00062135234 -0.03407925 0.039504409
0.014149048 -0.034014262 0.039711356
-0.013056314 -0.033650696 0.039256036
0.010705711 -0.033550248 0.039096653
0.025984671 -0.030668395 0.039808273
0.028063249 -0.029896252 0.039150119
0.030143475 -0.02847301 0.039433122
-0.028552126 -0.024875134 0.039589524
0.031078923 -0.021071564 0.039916635
-0.034623433 -0.014159518 0.039566278
-0.034789264 -0.012090631 0.039720595
0.032959819 -0.012815546 0.039274812
0.032281227 0.0013108104 0.039138496
0.033060953 0.010251424 0.039602399
-0.033425629 0.012799585 0.03966105
0.033411887 0.014331218 0.03912437
-0.031370033 0.021376329 0.039917529
0.03145108 0.025531473 0.039421558
0.029787483 0.027950412 0.03901875
-0.030475713 0.028662411 0.039735794
0.026690891 0.029473538 0.039410114
0.02828181 0.02994659 0.039203286
-0.02817609 0.030005021 0.039281428
-0.00057363324 0.033974178 0.039409399
0.013061863 0.033497393 0.039128721
-0.0051941071 0.034231909 0.03932178
0.0071666762 -0.034292936 0.040785193
0.01212588 -0.034297764 0.040364742
0.016768366 -0.034075975 0.040191174
0.010915295 -0.033672035 0.040774822
-0.011764746 -0.03283548 0.040510237
0.015915547 -0.032837372 0.040457606
0.020662459 -0.032670606 0.040296674
-0.015971186 -0.031760205 0.040642619
0.024995338 -0.031398747 0.040464282
-0.020826267 -0.030494323 0.040348291
-0.025391087 -0.028388377 0.040736318
-0.025645578 -0.02797965 0.040925622
-0.024993762 -0.027101971 0.040582478
0.028885126 -0.02695081 0.040081084
-0.028759131 -0.024748733 0.040790379
-0.031789299 -0.021063775 0.040872931
0.031877331 -0.021637456 0.040916681
-0.031877737 -0.020852245 0.04002732
-0.033453461 -0.016372304 0.04027915
0.032465026 -0.016503114 0.040571988
0.033202868 -0.011626029 0.04069829
-0.034075946 -0.010806787 0.040459216
-0.034675956 -0.007381801 0.040431499
-0.034531415 -0.0021945243 0.040986776
0.032048438 -0.0023481315 0.040064573
-0.032904357 0.011507186 0.040432215
0.032235388 0.0156861 0.040624142
-0.032155842 0.016382163 0.040296674
0.032343797 0.020813785 0.040119588
-0.031823069 0.0216166 0.040868402
0.021592209 0.031588178 0.040172338
-0.021083312 0.032588169 0.04069531
0.016839355 0.032525361 0.04036361
-0.020724243 0.033056106 0.040217042
-0.016244886 0.033049405 0.040264845
-0.012989837 0.033508122 0.040727258
-0.010876185 0.033582948 0.040694118
0.0080696158 0.033864573 0.040714085
0.011633283 0.033715665 0.040471613
-0.0073058233 -0.034492791 0.041890979
-0.0023404881 -0.034376025 0.041580021
0.0018691234 -0.034379125 0.041085184
0.0071443478 -0.034545571 0.041816175
-0.0078189783 -0.033347879 0.041291535
0.016563904 -0.033400677 0.041204095
0.021388508 -0.032397527 0.041167915
-0.016705263 -0.031563248 0.041349351
0.027575584 -0.029969949 0.04171896
0.030676927 -0.026489897 0.041489363
-0.03383676 -0.016222395 0.04128325
0.031414561 -0.016556984 0.041175783
0.033737179 -0.0079764035 0.041638494
-0.034663148 -0.0064494605 0.041891336
0.032991298 -0.004013747 0.04177767
-0.034639478 0.0027710232 0.041290462
-0.033088528 0.0040536141 0.041864216
0.034116507 0.00554054 0.041551769
-0.034401 0.0073085516 0.041815221
-0.033542503 0.0078976844 0.041465044
0.032881916 0.010987256 0.04144007
-0.031414516 0.016556943 0.041175723
0.033318575 0.016119257 0.041608453
0.032300066 0.021285184 0.04104954
-0.031244045 0.026740599 0.041219175
0.030285414 0.027542137 0.041956723
-0.028002162 0.030145176 0.041751444
0.026864074 0.031544704 0.04128027
0.012975649 0.032619569 0.041747749
0.02176684 0.03280231 0.041059196
-0.016342178 0.033127263 0.041965425
-0.0071949577 0.033928752 0.041325212
-0.0076569989 0.034377672 0.041476011
-0.0022282091 0.034036934 0.041628957
0.0027403242 0.03402245 0.041831493
-0.011844773 -0.034249783 0.042412519
-0.0042130984 -0.03347756 0.04221046
-0.00068420731 -0.033712059 0.042184651
-0.012488226 -0.032183472 0.042261183
0.02313292 -0.03295536 0.042557836
0.025657294 -0.031852894 0.042745113
-0.028637413 -0.025895625 0.04243803
0.032257773 -0.012563037 0.042347431
0.032887761 -8.792989e-05 0.042149663
-0.033518441 0.00033081602 0.042366147
0.033230551 0.0045745503 0.042888939
-0.032257736 0.012562994 0.04234761
0.031238521 0.026347738 0.042315722
0.019154359 0.031681314 0.042920828
-0.026730999 0.032575298 0.042475224
-0.012616752 0.032850761 0.042892277
0.00039699581 0.033678122 0.042508006
-7.1463175e-05 0.034285344 0.042996049
0.0077085597 0.034078121 0.042091966
0.011852537 0.034013629 0.042217612
0.00022087526 -0.034614358 0.04329294
0.01204519 -0.03305608 0.043999076
0.017226499 -0.033482552 0.043675244
0.027293783 -0.03090309 0.043799639
0.026998175 -0.029104272 0.043760777
0.030759912 -0.027425751 0.043058515
0.030839294 -0.026433866 0.043953896
0.031141182 -0.023361603 0.043115973
0.031519119 -0.020154264 0.043445945
-0.034317795 0.00014939066 0.043697536
0.033042777 4.279241e-05 0.043603063
0.033405364 0.0132136 0.043561518
0.032883227 0.017048938 0.043977499
0.03240253 0.022941178 0.043119848
-0.031365581 0.023582194 0.043376803
-0.03142225 0.026861828 0.04323411
-0.031026104 0.027662031 0.043017864
0.031221244 0.027000666 0.043309391
0.02502105 0.029498735 0.043966472
-0.029943641 0.030747294 0.043070734
-0.02721996 0.031491105 0.043263555
0.023471918 0.031253405 0.043246388
0.027677896 0.031041937 0.04303658
-0.023305159 0.032615867 0.043770075
-0.022879995 0.033739474 0.043452144
-0.0073045446 0.033330321 0.043979704
-0.0075918864 -0.033294976 0.04459542
-0.0026074853 -0.033270717 0.044809163
0.0021231584 -0.033455133 0.044755697
0.0073203556 -0.033292651 0.044397533
-0.010908611 -0.032481331 0.044894934
-0.0059033777 -0.032911807 0.044752836
0.015281849 -0.032603733 0.044509768
0.019445369 -0.032395393 0.044240594
0.023652859 -0.032148052 0.044373572
-0.019955032 -0.031146251 0.044374108
-0.014777293 -0.031786293 0.044493079
-0.023932837 -0.027706211 0.044127345
0.029286791 -0.025098773 0.04426825
-0.027799912 -0.024753092 0.044219971
-0.028776228 -0.023825651 0.044486761
-0.031672679 -0.020928951 0.044086814
-0.032212317 -0.017051481 0.044289529
-0.033232909 -0.01579096 0.044407368
0.032009367 -0.015883639 0.044998884
0.031842176 -0.014833268 0.04455781
-0.033993721 -0.012265623 0.044310451
-0.034329534 -0.0073101637 0.044800878
0.032986052 -0.0057203881 0.044481039
-0.03412205 -0.0023504202 0.044844449
0.032900155 0.002375023 0.044889152
-0.03293021 0.0056979097 0.044431746
0.032850564 0.0073391474 0.044633508
0.032381199 0.01058466 0.044932008
0.032713354 0.012301834 0.04430604
-0.031423159 0.014678496 0.044532478
0.032062173 0.015425968 0.044548035
-0.031486955 0.01946437 0.04457581
0.032551751 0.019419698 0.044368088
0.032527454 0.024051823 0.044829607
-0.031011259 0.026497962 0.044105768
-0.026709225 0.030953486 0.044572115
0.026894383 0.031999886 0.044464827
-0.017255034 0.032942057 0.0440166
-0.015294139 0.032632768 0.044535875
-0.012086409 0.032960594 0.044255853
0.014951914 0.032333899 0.044551134
0.022768408 0.032786865 0.044104815
-0.019897314 0.033001784 0.044909418
-0.0023445927 0.033657551 0.044462979
0.0057428549 0.03356513 0.04465574
0.011505638 0.033338286 0.044957399
0.0056657651 -0.034060478 0.045333862
-0.012512803 -0.03325361 0.045823276
-0.00054255966 -0.033644151 0.045236886
0.011241441 -0.033337396 0.045405507
0.015395408 -0.033110641 0.045633912
0.019390153 -0.032459743 0.045342684
-0.016000044 -0.031188708 0.045291364
0.026614362 -0.030303743 0.04594779
-0.020511042 -0.029701414 0.045186996
-0.024878904 -0.027863476 0.045632064
-0.029346034 -0.024545014 0.045986056
-0.031166079 -0.020107584 0.045393705
0.031721666 -0.020172715 0.045175135
-0.033255689 -0.015865952 0.045532644
0.032902837 -0.012524508 0.045536518
-0.033775114 -0.011148661 0.045121193
0.03295327 -0.011096898 0.045312643
0.032841504 -0.0075582699 0.045271218
-0.03385929 -0.0056242556 0.045504034
0.032823492 -0.0022978929 0.045093149
-0.0334142 0.0013436526 0.045349717
-0.033357203 0.0027988343 0.045225382
0.032902639 0.0057245851 0.045652509
-0.033022702 0.0075533534 0.045419574
-0.03266038 0.010979904 0.045053482
-0.03296715 0.01252223 0.04558903
-0.031660791 0.01595716 0.045027614
0.032914959 0.015541778 0.045745611
-0.031231537 0.019796584 0.045548201
0.031019315 0.027042732 0.045892894
-0.015566346 0.032938268 0.045773089
0.015793111 0.032672219 0.045024276
0.01727427 0.032893896 0.045996785
-0.011129621 0.033083137 0.045177102
-0.0054959459 0.033570889 0.045245349
0.0014342861 0.033633169 0.045543492
0.0026025611 0.033518672 0.045012355
0.0075450419 0.033332705 0.045672834
0.012513199 0.033236027 0.045808911
0.0011834092 -0.034609918 0.046390891
0.011138314 -0.033467382 0.046661973
-0.016484957 -0.032765687 0.046015322
0.030253746 -0.029381514 0.046337128
0.031507462 -0.025914079 0.046981692
0.032687247 -0.017236684 0.046163499
-0.033646286 -0.011331647 0.046876669
-0.034296934 -0.0015762672 0.046045959
0.032645885 0.00084595755 0.046109736
0.033244584 0.0020616781 0.046415389
-0.032687247 0.017236369 0.046163201
-0.031046862 0.028368663 0.046812057
-0.030822344 0.028791759 0.046289444
0.028330015 0.028568048 0.046727479
0.030560989 0.029116504 0.046432555
0.028791757 0.030822346 0.046289444
-0.028547904 0.031150747 0.046480298
-0.00113557 0.034504507 0.04629612
0.017364819 -0.033513438 0.047671795
0.021921279 -0.033284336 0.047964692
0.026003931 -0.031343959 0.047580004
-0.025455363 -0.028800275 0.047286868
0.028462352 -0.02798347 0.047473133
-0.028225653 -0.024940908 0.047453105
0.031821039 -0.021876469 0.047944784
0.032193854 -0.021856613 0.047303677
0.031809434 -0.01769226 0.047846973
-0.0338316 -0.013065761 0.047784448
0.033005685 -0.0015818896 0.047338605
-0.033581339 0.0013186084 0.047852755
0.032856941 0.017396569 0.047520041
0.033040106 0.021584945 0.047420979
-0.031529639 0.022535948 0.047571838
0.031745218 0.025739376 0.047372639
0.031743497 0.026380252 0.047733188
-0.027688745 0.031757299 0.047323585
0.026391409 0.031995211 0.047545433
0.017431976 0.032574985 0.047626138
0.021720625 0.032864679 0.047970176
0.022194203 0.032517549 0.047340631
7.6985918e-05 -0.033079103 0.048193932
-0.0051189675 -0.032009441 0.048785448
0.007496383 -0.032462895 0.048760355
0.01265645 -0.032494128 0.048561692
0.014197865 -0.032092482 0.048837245
0.017393198 -0.03267163 0.048239291
0.022369593 -0.032284163 0.048224092
-0.013962693 -0.031255316 0.048492908
0.026155746 -0.031347051 0.048052788
0.031477112 -0.026465915 0.048621237
-0.026987527 -0.024954183 0.048666358
-0.032641653 -0.021459885 0.048120737
-0.030822773 -0.0214555 0.048615754
-0.034233063 -0.017145004 0.048379362
0.03188457 -0.014090648 0.048718214
0.031321861 -0.013674366 0.048802376
-0.033317864 -0.012420192 0.048384428
0.032507315 -0.010027392 0.048997045
-0.032925371 -0.009795174 0.048975229
-0.033332765 -0.0074545708 0.048164785
0.032357294 -0.0055328351 0.048738718
-0.033620715 -0.0025050049 0.048614144
-0.03293892 -0.00011594594 0.048413634
0.032350603 -8.8087283e-05 0.048913479
-0.03232241 0.0055189407 0.048708081
-0.031992465 0.010267922 0.048941195
-0.030767038 0.012762903 0.04839623
0.031986713 0.012476562 0.048939943
0.031367637 0.013884671 0.048192143
-0.03075595 0.017874602 0.04895401
0.032797866 0.022210089 0.048152804
-0.031537145 0.02648811 0.048674464
-0.030784756 0.027092896 0.048793554
0.030131511 0.028854584 0.048667789
-0.028494619 0.03033844 0.048374295
0.027713662 0.030604342 0.048836827
0.014199722 0.031517133 0.048443556
-0.026308604 0.032289252 0.048022568
-0.022414468 0.032991271 0.048384309
-0.012696973 0.032553434 0.04894346
-0.0074892594 0.03284359 0.048808873
-0.022213919 0.033669699 0.048291683
-2.5088899e-05 0.033204444 0.0483042
0.0098624025 0.033222165 0.048910022
0.0004160488 -0.033798162 0.04998529
0.0060681747 -0.033334315 0.049929678
-0.0073716976 -0.032965004 0.049553096
-0.0024110861 -0.032702982 0.049385607
0.002748888 -0.032582521 0.049063623
0.010472448 -0.032539546 0.049001336
0.014868591 -0.032764595 0.049949527
-0.010417242 -0.031792227 0.049442589
-0.015306206 -0.030585596 0.049231529
0.027192365 -0.030269634 0.049768567
0.028739119 -0.029468898 0.049043417
0.030620569 -0.027246716 0.049044609
0.031920075 -0.012315105 0.049961746
0.031996667 -0.0073518851 0.049808681
0.032248855 -0.0023881146 0.049798727
0.033305779 0.00046496093 0.049869895
0.032307982 0.0025690212 0.049631774
0.032535445 0.0055232849 0.049951434
0.032006681 0.007522007 0.049171448
0.03194534 0.010345081 0.04916501
-0.031421263 0.014468417 0.049205124
0.030760046 0.0271842 0.049302161
-0.027253632 0.030826831 0.049381375
-0.027114375 0.031968765 0.049498379
-0.010200669 0.032409735 0.049384058
-0.0059275385 0.032910313 0.049901605
0.0024060374 0.032966733 0.049599528
0.0057944236 0.032999452 0.049302518
0.026775807 0.032269776 0.049061656
-0.0025387323 0.033095121 0.049228191
-0.0028012833 -0.033962127 0.050884843
0.010133979 -0.033138361 0.050524414
-0.012296289 -0.032491207 0.050425887
-0.024609651 -0.027212042 0.050022662
0.032178756 -0.024059551 0.050378323
-0.028625451 -0.023949046 0.050077081
-0.033333272 -0.014511236 0.050098598
-0.033403456 -0.01055368 0.050494552
-0.033240963 -0.0060745641 0.050195098
-0.033482041 -0.00054469425 0.050026953
-0.033448763 0.0025161298 0.050385237
-0.03247118 0.0073394398 0.050194621
0.032466833 0.010428037 0.050906181
-0.032060683 0.012310199 0.050075948
0.032622565 0.014289913 0.050381899
0.026247196 0.02848985 0.050310135
0.0073319757 0.032743633 0.050415516
0.012292941 0.032579184 0.050497174
0.024059551 0.032178756 0.050378323
-0.014463915 0.033037182 0.050311387
-0.000428834 0.033825576 0.050009429
0.020106841 -0.033367068 0.051433325
-0.020448335 -0.031070035 0.051728249
-0.013000596 -0.031960402 0.051871538
0.026871255 -0.02964136 0.051096082
0.029068388 -0.02694503 0.051001906
-0.02744638 -0.02444341 0.051692665
0.032268375 -0.020270364 0.05185914
-0.034404516 -0.012506422 0.051945627
0.032612666 -0.011588063 0.051500738
-0.033720255 -0.007568833 0.051604807
-0.031924833 0.011270558 0.051926255
0.03210187 0.016701506 0.051978707
0.032626748 0.017643735 0.051794291
0.032315947 0.024218148 0.051046193
-0.031062888 0.02709307 0.051243007
-0.024218144 0.032315951 0.051046193
-0.010012982 0.03281226 0.05123806
0.020110734 0.032107271 0.051674485
0.026687749 0.032344248 0.051427841
-0.020271227 0.033755034 0.05177772
0.011526308 0.033162884 0.051535964
0.016026864 0.033123001 0.05180192
0.011673394 -0.03314751 0.052608788
0.016659269 -0.033479691 0.052311301
0.0072412081 -0.032186627 0.052978814
0.011756338 -0.032509089 0.052523136
0.016656354 -0.032427628 0.052330792
-0.0045200782 -0.031977639 0.052205086
-0.024920799 -0.02889921 0.052666008
-0.027294332 -0.025400469 0.052762508
-0.028365819 -0.024709623 0.052470326
-0.031652637 -0.02133414 0.052560806
0.032306671 -0.021263205 0.052600086
-0.033192866 -0.017681245 0.052678347
-0.033964608 -0.016837874 0.052041233
-0.034056634 -0.012181536 0.052577257
0.031841002 -0.012833139 0.052747071
-0.033968687 -0.0026299362 0.052020967
-0.032167196 0.0045979382 0.05237025
0.031932652 0.0076328828 0.052236319
0.032189399 0.011709987 0.052331388
0.032934166 0.016672458 0.052500665
-0.031386975 0.020354556 0.052176744
0.032936979 0.020855783 0.052343607
-0.031104123 0.025501851 0.052861392
0.030488832 0.026935745 0.052112579
-0.027772147 0.030496437 0.05266571
-0.022461325 0.032480389 0.052947283
-0.015874956 0.032539666 0.052368701
0.012666017 0.032046814 0.052410483
0.021040965 0.032808401 0.052373111
-0.021150924 0.033007018 0.052555919
-0.016424526 0.033555053 0.052057505
-0.012580985 0.033530019 0.052974224
0.0036993707 0.033189517 0.052282631
-0.012551846 -0.03211838 0.053784668
-0.0071975961 -0.032643497 0.053456187
-0.0026463028 -0.032432914 0.053608119
-0.00015769899 -0.032928154 0.053197324
0.0031203367 -0.032195747 0.053165436
0.0053787306 -0.032831963 0.053789616
0.0225695 -0.032097001 0.053388119
-0.015592663 -0.031672418 0.053257108
-0.0085208043 -0.031918924 0.053040385
0.021340817 -0.031598069 0.053187668
-0.020314245 -0.030145124 0.053272784
0.026591577 -0.029795213 0.053724676
0.027440982 -0.029676098 0.0532763
0.030336577 -0.026999656 0.053493619
0.031254627 -0.026125209 0.053537905
0.031804658 -0.022711867 0.053503156
0.031832874 -0.012464072 0.053862035
0.031868517 -0.0071730097 0.053868771
-0.03313788 -0.0041361637 0.053168476
0.032188766 -0.0043108193 0.053014517
0.031751871 -0.0022266568 0.053559422
-0.032997012 -3.968738e-05 0.053265452
0.032506227 0.0002693953 0.053523183
0.031881809 0.0027242 0.053449035
-0.032794595 0.0038969829 0.053434849
0.032771599 0.0053518908 0.053736329
-0.031938016 0.0075103822 0.05373162
-0.031918921 0.0085208099 0.053040385
-0.031483233 0.012136474 0.053774118
-0.030855689 0.012573185 0.05309993
0.032714348 0.020134512 0.053206444
-0.031237816 0.022919955 0.053320229
0.031937804 0.022845907 0.053152561
-0.030129179 0.026796883 0.053257406
0.029971825 0.026940076 0.053444326
0.030255072 0.027753545 0.053190231
0.027420521 0.028445197 0.053275645
-0.027089836 0.030115407 0.053613365
0.026910217 0.030523462 0.053282678
0.022551443 0.031641901 0.053317249
0.026228562 0.031530138 0.053777337
0.0022508157 0.032694042 0.053281963
0.0071970755 0.032678604 0.053484559
0.01216644 0.032029688 0.053175926
-0.018060803 0.033549272 0.05310148
0.0001962604 0.033503983 0.053022504
0.017578078 -0.033307556 0.05484879
0.00052272994 -0.0328485 0.054754019
0.012944135 -0.032413121 0.054320574
-0.016712144 -0.031418979 0.054962397
-0.024858853 -0.028285846 0.054023981
-0.025243245 -0.027867937 0.054965615
0.030905718 -0.026525989 0.054458499
0.03061234 -0.025259642 0.05497098
-0.031998523 -0.020582141 0.054657936
-0.033634774 -0.016827045 0.054896474
-0.03281112 -0.00050535053 0.054720879
0.033320062 0.00070148893 0.054466188
0.031921916 0.013056947 0.054606438
0.031740986 0.022683915 0.054007351
-0.031429909 0.025884729 0.054978371
-0.03079351 0.026158445 0.05493778
-0.030612458 0.028405119 0.054616451
0.016758347 0.031800151 0.05402267
-0.02239329 0.032029755 0.0540241
-0.017619606 0.033404678 0.054934382
-0.013609179 0.033099052 0.054053307
-0.00072335731 0.03336823 0.054508686
-0.01075767 -0.033405066 0.055461407
0.012901612 -0.033467114 0.055914283
-0.014626326 -0.03253052 0.055581033
-0.0054594134 -0.032582805 0.055779517
-0.024424238 -0.028253883 0.055081725
-0.027054811 -0.026643347 0.055963993
-0.027583756 -0.025574544 0.055135012
