# .PCD v0.7 - Point Cloud Data file format
VERSION 0.7
FIELDS x y z
SIZE 4 4 4
TYPE F F F
COUNT 1 1 1
WIDTH 401
HEIGHT 1
VIEWPOINT 0 0 0 1 0 0 0
POINTS 401
DATA ascii
-0.027460786 0.022906635 0.17996588
-0.022521084 0.016385376 0.18448663
-0.023493126 0.014644499 0.18454617
-0.027291022 0.0041153058 0.18355697
-0.028780574 0.00045819767 0.18332392
-0.022070948 0.026128218 0.18176448
-0.024254661 0.022743613 0.18266577
-0.025492674 0.019121852 0.18282035
-0.026905745 0.01544966 0.18253186
-0.027700234 0.010826143 0.18152282
-0.028636387 0.0062456387 0.18062082
-0.029415628 0.0024943976 0.18109733
-0.024596874 0.027477073 0.17868686
-0.026724372 0.02448158 0.17884231
-0.028023403 0.020360578 0.17858621
-0.028478332 0.016322259 0.17753771
-0.02915567 0.011836051 0.17665321
-0.025259972 0.027570648 0.1739828
-0.027626967 0.024657656 0.17433357
-0.028444823 0.020759525 0.17356768
-0.028652847 0.0168535 0.17348093
-0.028852163 0.01379608 0.17331222
-0.02689274 0.024553835 0.17016554
-0.023261774 -0.00058325473 0.18484801
-0.018204283 0.020353213 0.18389407
-0.019789945 0.016675014 0.18462157
-0.021098642 0.012922385 0.18454206
-0.023380606 0.009211666 0.18346822
-0.024341987 0.004631266 0.18362477
-0.026667247 0.0011181487 0.18420398
-0.020403344 0.022001632 0.1831491
-0.029764388 0.0022458471 0.1788314
-0.029834788 -0.0018395195 0.17963955
-0.029611288 0.0097778002 0.17428792
-0.029515926 0.006831971 0.17505369
-0.030131964 0.0028097564 0.1741187
-0.030360376 -0.0012944862 0.17405635
-0.028467514 0.016249854 0.17069432
-0.028989691 0.011610626 0.17067918
-0.029957354 0.0072095813 0.17001
-0.030638242 0.0032046251 0.16911641
-0.030722372 -0.0004022941 0.16978657
-0.024213098 0.028141383 0.16791832
-0.027230147 0.024805423 0.16774219
-0.028072774 0.020859772 0.16788411
-0.028756244 0.0168861 0.16699517
-0.0296527 0.012460848 0.16626385
-0.03054608 0.0081231156 0.1652272
-0.030930936 0.0041662576 0.16597676
-0.025395488 0.028150629 0.16330737
-0.02745622 0.025101516 0.16341779
-0.028241858 0.021165809 0.16260386
-0.029115016 0.017422404 0.16214782
-0.030020062 0.013647533 0.16262397
-0.030836454 0.010752073 0.16265115
-0.026617423 0.02782464 0.15917468
-0.027866809 0.025509659 0.15831932
-0.028604096 0.022213351 0.15861279
-0.013465089 0.014108189 0.18334532
-0.015094288 0.010452509 0.18320164
-0.017251985 0.0070089577 0.18346521
-0.019641653 0.0029535848 0.18367863
-0.021266896 -0.0014449735 0.18438128
-0.016075674 0.016601441 0.1840134
-0.017547294 0.010055222 0.18282765
-0.019547885 0.0079886252 0.1834408
-0.020866465 0.0049449443 0.18329728
-0.03020476 -0.0028328346 0.17045251
-0.030593153 -0.0013058856 0.1670385
-0.030399928 0.0062250877 0.16263992
-0.030237284 0.0030395761 0.16275394
-0.030630123 -0.00092614442 0.16219544
-0.029204145 0.015946152 0.15962777
-0.029175358 0.012772708 0.15924963
-0.029612988 0.0081872707 0.15907896
-0.029634753 0.0034801159 0.15886378
-0.030724173 -0.0007691104 0.15861732
-0.024202835 0.028379768 0.15722084
-0.028360989 0.020920655 0.15632829
-0.028644599 0.017303832 0.15600768
-0.028258316 0.013325186 0.15497333
-0.028497048 0.010030034 0.15523553
-0.025074862 0.027527846 0.15242499
-0.027019124 0.025454121 0.15214103
-0.027977046 0.021555077 0.15144956
-0.028245417 0.017833505 0.15095532
-0.026723515 0.024807116 0.14797401
-0.027942052 0.02170657 0.14774767
-0.012034033 0.0091576651 0.18338168
-0.013746303 0.005292227 0.1837962
-0.015662719 0.0015104041 0.18395022
-0.029091246 0.0058907224 0.15607345
-0.029196814 0.0027368348 0.15580034
-0.030300491 -0.00085860025 0.15550962
-0.028050516 0.011884515 0.15246612
-0.028628385 0.0079967706 0.1527589
-0.029407533 0.0035596788 0.15157315
-0.030253872 -0.00047597662 0.152069
-0.028201658 0.016465813 0.14857638
-0.028397188 0.013147719 0.14879435
-0.02880154 0.0089933388 0.14762053
-0.029509772 0.0046615056 0.147852
-0.025282579 0.026087305 0.14514658
-0.027564039 0.021656878 0.14535105
-0.028262947 0.017624581 0.14465588
-0.028478926 0.013645148 0.14452833
-0.028572012 0.010485067 0.14422902
-0.025832642 0.025716823 0.14139867
-0.026870668 0.021929033 0.14095283
-0.027533729 0.018937429 0.1408354
-0.0063197003 0.0052915337 0.18327841
-0.0084392959 0.0028503267 0.18428862
-0.0095347194 -0.00071569975 0.18429443
-0.0084939674 0.0076793395 0.18312636
-0.010448744 0.0048204702 0.18389946
-0.012839057 -0.00072597014 0.18362752
-0.029595688 -0.0013258308 0.14878732
-0.029453123 0.003758139 0.14499092
-0.02951277 -0.00086304545 0.14466149
-0.028165335 0.012975198 0.1415236
-0.028834632 0.0090441499 0.14178601
-0.029636193 0.0044676354 0.14097306
-0.029832879 -8.2935207e-05 0.14013112
-0.024490584 0.026293173 0.13811144
-0.02680482 0.021372035 0.13815537
-0.027197244 0.01728129 0.13787165
-0.028002586 0.013439265 0.1373167
-0.029224373 0.0095825884 0.13682207
-0.030201145 0.005324427 0.13619477
-0.030460643 0.0020555072 0.13597324
-0.024521613 0.025831502 0.13371044
-0.027024096 0.02194152 0.13396841
-0.027539168 0.017820358 0.13285637
-0.02851665 0.014050309 0.1327554
-0.029666612 0.0099360757 0.13252088
-0.03079772 0.0063777491 0.13254163
-0.025621522 0.025106821 0.12874615
-0.026997542 0.022353008 0.12861946
-0.027713563 0.019035948 0.12897694
-0.027050927 0.025252648 0.12565458
-0.027790803 0.023370042 0.12551716
-0.0052085337 0.002124792 0.18450734
-0.030240135 -0.0013133893 0.1380921
-0.030357238 2.5164336e-05 0.13379693
-0.028438978 0.01318514 0.12993333
-0.029709425 0.010059674 0.1297363
-0.03103197 0.0059075444 0.12996864
-0.031009411 0.0012299623 0.1295782
-0.023473445 0.027061943 0.1272063
-0.027439041 0.020992089 0.12629783
-0.027871137 0.017731022 0.12670305
-0.028034298 0.013902066 0.12606341
-0.029057486 0.0099411625 0.12537742
-0.03033378 0.0060666436 0.12515208
-0.030731022 0.0027775755 0.12528878
-0.02528814 0.026612036 0.12291002
-0.028005775 0.022632912 0.12293836
-0.028049456 0.018665457 0.12229806
-0.027898902 0.015494819 0.12173945
-0.026322929 0.025756996 0.11887681
-0.027856987 0.023013484 0.11773384
-0.028374722 0.020271786 0.11807531
-0.029953279 0.0059871799 0.12267661
-0.030831281 0.0014132913 0.12294158
-0.03057787 -0.0026443433 0.12191164
-0.027641719 0.016966932 0.11919379
-0.027772553 0.013622005 0.11971259
-0.028254852 0.009835084 0.11895365
-0.029271968 0.0058445265 0.11824709
-0.030351676 0.0021281932 0.11885303
-0.030805696 -0.0016905814 0.11856449
-0.023961967 0.027220925 0.11590314
-0.028207541 0.018393561 0.11600494
-0.027910147 0.014309662 0.11453366
-0.028042721 0.01066482 0.11425149
-0.024964845 0.026036941 0.11147285
-0.027241468 0.023039743 0.1114493
-0.028531058 0.019163834 0.11098629
-0.028329259 0.015628817 0.11080521
-0.027123414 0.021710556 0.10695326
-0.028176319 0.019921452 0.10709435
0.0047881422 -0.0024159814 0.18407094
-0.029707823 0.0012826016 0.11543834
-0.030301318 -0.0027802512 0.11528748
-0.028030768 0.0094029643 0.1120193
-0.028831154 0.0058678165 0.11209172
-0.02923684 0.0015988695 0.11081105
-0.029840142 -0.002127192 0.11053544
-0.028183287 0.014184656 0.10819608
-0.028089473 0.010202707 0.10727823
-0.028723134 0.0060282047 0.1061976
-0.028878987 0.0030629067 0.10716838
-0.02277362 0.026961986 0.10424852
-0.025936246 0.02374611 0.1046598
-0.028468112 0.019199643 0.10452777
-0.028905889 0.015160544 0.10389656
-0.028775571 0.010884105 0.10273504
-0.025708379 0.023629777 0.10068083
-0.027803699 0.019144492 0.099203646
-0.02881187 0.015278996 0.099930942
-0.029468806 0.001886066 0.10521573
-0.030121451 -0.0025630901 0.10545152
-0.029037558 0.010133194 0.10011971
-0.029305633 0.0064698821 0.10090941
-0.029798025 0.0019554328 0.10099286
-0.030246321 -0.0021364223 0.1003561
-0.025472943 0.023673104 0.097547174
-0.027439617 0.020055775 0.096724749
-0.027982946 0.015073502 0.09623152
-0.028553084 0.011016323 0.096683264
-0.029371254 0.0066337408 0.097068727
-0.029746836 0.002580855 0.09700644
-0.022664454 0.027061589 0.09284848
-0.025848944 0.024032973 0.0930233
-0.027871272 0.019651275 0.092942536
-0.028237425 0.015542927 0.091894925
-0.028057801 0.010740155 0.092638612
-0.026685562 0.024400378 0.088037729
-0.02791716 0.020104686 0.087744713
-0.028155684 0.01697398 0.088145912
-0.027105693 0.024205679 0.084115922
-0.027579974 0.0059771091 0.093419254
-0.028699055 0.0015633581 0.093108892
-0.029371876 -0.002325858 0.093644977
-0.027130898 0.010092484 0.089155376
-0.027485566 0.0060780728 0.089388072
-0.028585752 0.0020360891 0.088705659
-0.02974157 -0.0020196531 0.08906287
-0.024871681 0.026234357 0.085103333
-0.027849618 0.019975899 0.085066795
-0.027855927 0.014909291 0.086432517
-0.027663374 0.010842766 0.085362554
-0.02787515 0.0073960172 0.085532069
-0.022562576 0.027386451 0.083010674
-0.025309656 0.025363088 0.081900954
-0.027329315 0.020382013 0.082124174
-0.027772393 0.015582096 0.081269145
-0.0283069 0.01179463 0.080889225
-0.025554148 0.024851603 0.077729464
-0.027030271 0.021300344 0.077311695
-0.02800661 0.017319983 0.078110695
-0.028011486 0.022025574 0.073909998
-0.029732537 -0.0019333642 0.086080909
-0.028009936 0.0060234074 0.083094716
-0.028982544 0.0023948941 0.083135784
-0.030201377 -0.001614728 0.082555294
-0.028478276 0.010443558 0.078478575
-0.028473962 0.0068970318 0.078427017
-0.02909966 0.0028197188 0.077587485
-0.029993922 -0.0015501669 0.077360094
-0.024517961 0.026039777 0.075321972
-0.02742582 0.020235132 0.074739695
-0.027804062 0.016296249 0.075108528
-0.028225936 0.011692507 0.074288309
-0.027862869 0.0082962457 0.074424744
-0.023032339 0.027690172 0.069998503
-0.02537204 0.025580022 0.071102321
-0.027507318 0.021932399 0.071166873
-0.027809765 0.017262399 0.070006847
-0.028171876 0.014759969 0.068082333
-0.0252818 0.024241097 0.06640625
-0.026683735 0.02217941 0.06624043
-0.027882865 0.0099534821 0.071026564
-0.027413705 0.0066691604 0.071713984
-0.027912267 0.0020849416 0.071425736
-0.029116912 -0.001765728 0.071474016
-0.027761798 0.012034309 0.06835258
-0.02788062 0.0071947034 0.067427099
-0.028657792 0.0027876166 0.066767156
-0.029394897 -0.00097791478 0.06656003
-0.024044832 0.025563139 0.06359005
-0.026715059 0.02163733 0.063279808
-0.026856987 0.017450308 0.062937856
-0.027596278 0.012958182 0.063215733
-0.028309964 0.009090188 0.063100338
-0.028878935 0.0037715365 0.063238382
-0.02418443 0.025646791 0.058849931
-0.026292838 0.021943485 0.059135556
-0.027277255 0.017818255 0.05829227
-0.02786088 0.013964944 0.058941126
-0.028392859 0.010602912 0.059404194
-0.024677165 0.025218189 0.055993795
-0.026394438 0.022421524 0.05493778
-0.02726675 0.01869097 0.055538058
-0.029878728 -0.0022359695 0.064406455
-0.028537709 0.0075621768 0.060359001
-0.029089462 0.0047184671 0.060705721
-0.029287813 1.9813888e-05 0.059749961
-0.02826561 0.012693061 0.056701005
-0.027912438 0.008970785 0.05626595
-0.028201135 0.0047913659 0.056055903
-0.028327817 0.0014603315 0.055642843
-0.023674667 0.025932264 0.05275774
-0.026660679 0.021858729 0.052861392
-0.02702976 0.017739439 0.052275717
-0.027663872 0.014124828 0.052622914
-0.027364142 0.0096604796 0.051926255
-0.024423959 0.026004378 0.048374295
-0.027031839 0.022704095 0.048674464
-0.026685616 0.018940471 0.047233582
-0.026581082 0.02271254 0.044105768
-0.027359076 0.0073035518 0.053040385
-0.027571883 0.0039410903 0.05237025
-0.028283153 -3.4017488e-05 0.053265452
-0.02693251 0.012401501 0.049205124
-0.027422111 0.0088010756 0.048941195
-0.027704922 0.0047305208 0.048708081
-0.02823336 -9.9382363e-05 0.048413634
-0.022893623 0.02653156 0.044572115
-0.026769886 0.0169685 0.045548201
-0.02713782 0.013677565 0.045027614
-0.027994614 0.0094113462 0.045053482
-0.028225893 0.0048839231 0.044431746
-0.028640743 0.0011517014 0.045349717
-0.024001852 0.025838722 0.041751444
-0.026780611 0.022920515 0.041219175
-0.027276916 0.018528515 0.040868402
-0.027562147 0.014041855 0.040296674
-0.028203737 0.009863303 0.040432215
-0.028750716 0.0067694434 0.041465044
-0.024991062 0.02654478 0.036795795
-0.027485574 0.023407504 0.03678143
-0.0281174 0.019295374 0.036210954
-0.028069755 0.014760597 0.037354052
-0.025270874 0.027244071 0.033612549
-0.027576491 0.023665689 0.031681299
-0.028552417 0.019383142 0.033209801
-0.028361594 0.003474527 0.041864216
-0.028730093 0.00028355606 0.042366147
-0.028085463 0.0081780571 0.037251472
-0.027957743 0.004983929 0.037919104
-0.027861135 0.00058938749 0.03727442
-0.028836967 -0.0024302648 0.037717104
-0.0276809 0.014029913 0.033845782
-0.027723623 0.0099128438 0.034027338
-0.02770499 0.0057925158 0.033798993
-0.024851514 0.027514216 0.030663073
-0.027771592 0.018887309 0.029611111
-0.027752897 0.014878068 0.030763924
-0.024848901 0.027078222 0.026637912
-0.027082726 0.023463972 0.026436925
-0.027531737 0.019559823 0.025844336
-0.027320016 0.0032530958 0.034519792
-0.027889349 0.00037481822 0.034524202
-0.027022438 0.0095117791 0.030506253
-0.027579751 0.0046382081 0.031608999
-0.02864027 0.00057129469 0.031825304
-0.026530582 0.014107712 0.027035415
-0.027077293 0.0094104586 0.027768493
-0.028083937 0.0053881714 0.027572632
-0.029106222 0.001164183 0.026696205
-0.029796584 -0.0022874391 0.026278675
-0.024567937 0.025910577 0.022458971
-0.025601966 0.02400817 0.022580206
-0.027024221 0.019170213 0.022507429
-0.026823709 0.014174366 0.023490965
-0.027501881 0.010005879 0.022589982
-0.028688136 0.0056442316 0.022063673
-0.029606177 0.002043318 0.022517562
-0.023337906 0.026062001 0.019254088
-0.025567703 0.023370229 0.019050121
-0.026903143 0.01904466 0.018862247
-0.027042348 0.014944045 0.019130468
-0.027501455 0.011702945 0.019015431
-0.023761576 0.02589827 0.015254617
-0.025876714 0.023667678 0.015148103
-0.026941981 0.020478848 0.015102744
-0.027980687 0.0071811462 0.019663453
-0.029382296 0.0012394302 0.019821644
-0.026656827 0.014211188 0.015549421
-0.027749378 0.010149849 0.016143382
-0.028584909 0.0062047723 0.015743971
-0.029295562 0.0019119503 0.015570581
-0.025184548 0.023548029 0.011208951
-0.026220642 0.018754682 0.011522651
-0.026266504 0.014888903 0.011909425
-0.027585141 0.010142372 0.011059761
-0.02808802 0.0059378324 0.011291802
-0.028824164 0.0022937031 0.011837065
-0.025194408 0.023689905 0.0080173612
-0.026501672 0.019863028 0.0077731609
-0.026137561 0.016251013 0.007815659
-0.025576364 0.02243082 0.0045477748
-0.026001157 0.021048948 0.0043362379
-0.028305404 -0.00033338089 0.012401521
-0.02560786 0.012823546 0.0091009736
-0.026198115 0.011503076 0.0090702772
-0.028011115 0.0055948189 0.0087145567
-0.028714312 0.0013290709 0.0085197687
-0.028112223 -0.0024960907 0.0073667765
-0.025835469 0.017809251 0.0049432516
-0.02618495 0.01433096 0.0056159496
-0.02713092 0.010473582 0.0051165819
-0.028154898 0.0062053208 0.0041983724
-0.028510237 0.0021521756 0.0034852028
-0.021213977 0.025491539 0.00071763992
-0.024390638 0.023827408 0.0015881062
-0.026138516 0.019462403 0.0013002753
-0.026488051 0.015311801 0.00034338236
-0.027044924 0.010938194 -2.0682812e-05
-0.028149271 -7.0322305e-05 0.00144732
