# .PCD v0.7 - Point Cloud Data file format
VERSION 0.7
FIELDS x y z
SIZE 4 4 4
TYPE F F F
COUNT 1 1 1
WIDTH 436
HEIGHT 1
VIEWPOINT 0 0 0 1 0 0 0
POINTS 436
DATA ascii
0.027655747 0.030556723 0.18209457
0.031342287 0.03119388 0.17990685
0.028634256 0.032662615 0.17996791
0.024421562 0.034452859 0.17978141
0.020443756 0.035862137 0.17836273
0.016663654 0.037419327 0.17744502
0.032195512 0.032833289 0.17657924
0.029607631 0.034493737 0.17588478
0.025438931 0.036400981 0.17577893
0.021022793 0.037659373 0.17522728
0.017381826 0.038444486 0.17498845
0.029191781 0.035681527 0.17222831
0.02559378 0.037332833 0.17229271
0.022964373 0.037992749 0.17236385
0.00083991885 0.034311876 0.18381798
-0.00091670919 0.03408673 0.1831992
0.030725213 0.026414748 0.18220836
0.02644462 0.027695641 0.18284151
0.022523919 0.030186739 0.18223023
0.018128004 0.031542685 0.18174559
0.012800161 0.03329375 0.18173558
0.0079562627 0.035062417 0.18174285
0.0035921279 0.036524169 0.18132645
-0.00093276333 0.037231419 0.1801942
0.032778881 0.028446324 0.17875108
0.019002767 0.034348577 0.17952231
0.014191102 0.036399636 0.17831939
0.0094962064 0.038203038 0.17764044
0.0049311351 0.03916157 0.17687765
0.00035705231 0.038857464 0.1759977
0.033266913 0.030428417 0.17459732
0.014326976 0.038481019 0.17350382
0.0099233259 0.038689535 0.17260736
0.0053992532 0.039247733 0.17214015
0.033345327 0.033017788 0.17015523
0.030726928 0.03550674 0.16974965
0.026436819 0.037481956 0.16922149
0.021601317 0.038710244 0.16941243
0.016365675 0.039263323 0.16908196
0.011192737 0.038653143 0.16870958
0.033563338 0.03328187 0.1654211
0.030643763 0.035429966 0.164002
0.026480943 0.036878198 0.1641531
0.021725222 0.038042538 0.1642873
0.017093724 0.03903782 0.16518718
0.029491112 0.036204822 0.16045457
0.023606181 0.020865556 0.18364841
0.019120876 0.022761043 0.18382975
0.015131781 0.024160929 0.18377864
0.010490027 0.026628183 0.18303594
0.0052256556 0.028426182 0.18313846
0.0011827033 0.030815853 0.18400651
0.024755169 0.023553086 0.1827516
0.020567212 0.02552418 0.18267104
0.016403515 0.027546644 0.18262607
0.012906979 0.029154504 0.18253773
-0.0034827981 0.035748277 0.18159729
-0.0012347465 0.038872879 0.17373502
0.004458772 0.039330781 0.16957498
0.0001448812 0.039139412 0.17003638
0.034418166 0.028996725 0.16863686
0.0095148925 0.038410135 0.16624978
0.0051183281 0.038563654 0.16566199
0.00038593169 0.039310079 0.16563368
-0.003776107 0.039450128 0.16541874
0.034046136 0.031471707 0.16357544
0.025412694 0.036523394 0.16126817
0.02158786 0.037374731 0.16137412
0.015458843 0.038334761 0.16237855
0.010730857 0.03823014 0.16222161
0.0065437434 0.037612516 0.16185015
0.033294786 0.031694926 0.15888429
0.030851353 0.034597985 0.1578227
0.026414284 0.036500521 0.15787169
0.021747055 0.03723086 0.15691465
0.017354006 0.037309114 0.15823436
0.013312636 0.037290793 0.15812954
0.030654542 0.034895826 0.15373886
0.026658718 0.036518112 0.15333515
0.023075715 0.037269343 0.15302035
0.016473092 0.015744824 0.18336856
0.012208391 0.01764532 0.18322489
0.0079110088 0.019456645 0.18302315
0.0029001958 0.021568837 0.18278801
-0.0019240435 0.025012381 0.18406248
0.018880602 0.019649753 0.1843704
0.012103933 0.021426365 0.18345767
0.0091870958 0.022470817 0.18321908
0.0047939648 0.023993418 0.18283176
0.00030847173 0.038882103 0.16260561
0.0087178312 0.037176691 0.15916049
0.0044504181 0.036894519 0.15873075
7.4398704e-05 0.037997842 0.15832204
0.033117093 0.028190171 0.15673009
0.016291028 0.036877036 0.15544024
0.010274475 0.036302552 0.15461227
0.005966532 0.036538266 0.15410316
0.032790851 0.030962963 0.15273386
0.031083971 0.033686087 0.15062398
0.026628744 0.036059175 0.15026107
0.021398388 0.036978576 0.15047887
0.01684778 0.036861323 0.15058285
0.011688497 0.036676317 0.15064764
0.030700285 0.033741534 0.14657733
0.026614279 0.035511818 0.14618814
0.022259969 0.036601696 0.14606765
0.016708894 0.037079427 0.14647678
0.030325696 0.033830371 0.14253736
0.028136101 0.034631588 0.14236346
0.014763951 0.012661773 0.18348587
0.010549873 0.013717177 0.18335122
0.0064016273 0.015960788 0.18342569
0.0016775206 0.017933384 0.18306318
0.0037446627 0.036572278 0.15262336
-9.0709887e-05 0.037114885 0.15217644
0.009821821 0.036829591 0.14825845
0.0052230852 0.03721182 0.14822584
0.00053356029 0.036817983 0.14719999
0.033046778 0.027458206 0.14553314
0.032467376 0.029995538 0.14410323
0.021104582 0.03607583 0.14298216
0.017428316 0.036633823 0.14332905
0.01154195 0.037159342 0.1446566
0.0064294799 0.03754985 0.14317167
0.034029141 0.029698957 0.14173278
0.031486683 0.032695219 0.1398344
0.026568705 0.035144761 0.14008519
0.02201454 0.035799947 0.1393261
0.017023195 0.035988733 0.13885033
0.012571155 0.036857802 0.14010006
0.0087329876 0.037933566 0.13971728
0.030444987 0.033993214 0.13639444
0.027278695 0.035216026 0.13515723
0.022613037 0.035729069 0.13521621
0.0078177545 0.0072593712 0.18366846
0.0033678317 0.0099522611 0.18435729
-0.00047680829 0.011912309 0.18390074
0.0088390335 0.0096574174 0.18341318
0.0049590301 0.012635717 0.18395758
0.00043087965 0.013964892 0.18343031
-0.001183725 0.036600087 0.14467257
0.0039089844 0.03749156 0.14142743
0.00021611713 0.036854956 0.14085451
0.011884527 0.03675938 0.13727883
0.0060674623 0.037677802 0.13706064
0.0011367342 0.037414778 0.13607416
0.031893466 0.030314809 0.13407236
0.02533507 0.034754857 0.13212743
0.021851229 0.035383016 0.13219929
0.016934913 0.035718139 0.13368419
0.012410786 0.036559265 0.1330483
0.0072895396 0.037991077 0.13253474
0.0022513149 0.03811032 0.13214624
0.030643649 0.031275012 0.1291917
0.027071679 0.034408428 0.12864047
0.022443976 0.035474069 0.12786967
0.017673524 0.035948839 0.12820396
0.01269155 0.036746062 0.1284906
0.0096168146 0.037626501 0.12904522
0.030605199 0.032109514 0.12445208
0.02751145 0.034794651 0.1232886
0.023169778 0.036081102 0.12329388
0.01872178 0.036383018 0.12441176
0.0025126431 0.0061620735 0.18456218
-0.001152317 0.037074234 0.13393748
0.0008917693 0.037393469 0.12918323
0.032401867 0.027496438 0.12733173
0.012887099 0.036925968 0.12579793
0.0077384082 0.037488442 0.12621754
0.0025274446 0.037267756 0.12511218
-0.00049549062 0.03773519 0.12403741
0.031854566 0.030085439 0.12290093
0.022287104 0.036291104 0.12068042
0.017290916 0.036137901 0.12220052
0.01293119 0.036113001 0.12168691
0.0082202805 0.036693882 0.12177879
0.004531743 0.037120312 0.12137237
0.031110331 0.031325448 0.11871481
0.027538612 0.034670368 0.11768317
0.023306422 0.036263146 0.11713094
0.018412434 0.035588581 0.11770284
0.030176345 0.031831477 0.1144889
0.027774325 0.034261703 0.11402529
0.024148121 0.035758048 0.11319858
0.0010071276 0.03705937 0.12215185
-0.0031144386 0.036743693 0.12230971
0.010841968 0.03544433 0.11842442
0.0072088018 0.035836089 0.11829978
0.0025072461 0.03668787 0.11828041
-0.0017790077 0.037138529 0.11773568
0.032128677 0.027541595 0.11579549
0.016665896 0.035237771 0.11498022
0.012702341 0.035416767 0.11512315
0.0078629628 0.036140151 0.1140511
0.0035449658 0.037004348 0.11351562
-0.0011214428 0.037469633 0.11399961
0.031270809 0.02931783 0.11099458
0.027969992 0.033366341 0.11139172
0.022871202 0.035552651 0.11119348
0.018064281 0.035385437 0.11099041
0.013064189 0.03568875 0.1095804
0.0098290658 0.036268272 0.10989761
0.030652095 0.030654617 0.10736877
0.027876684 0.033642471 0.10715675
0.023531947 0.035615217 0.1070621
0.018790344 0.036037393 0.10604733
0.013543752 0.03646978 0.10634512
0.02808914 0.033675242 0.10333252
0.023802349 0.035824757 0.10337746
0.020529114 0.036171943 0.10253978
-0.0028715928 -0.0057195877 0.18398607
0.001335864 0.036903266 0.1114921
-0.0024066381 0.036850762 0.11067951
0.00786136 0.03673365 0.10831553
0.0033806404 0.037236411 0.10748249
-0.0010499731 0.036599588 0.10602677
0.03267106 0.028256215 0.10511565
0.030359766 0.030923959 0.10418737
0.016961098 0.036015227 0.10323191
0.013527646 0.036110003 0.10315681
0.0084707309 0.036466662 0.10273075
0.0040917946 0.037080422 0.10237449
0.031430375 0.028925413 0.10122579
0.028630601 0.031719621 0.099564135
0.023652971 0.035056513 0.09986043
0.018440586 0.035481825 0.099172592
0.014105047 0.035652965 0.098770082
0.0093945172 0.036220334 0.09892714
0.027351674 0.03223021 0.094875753
0.023809969 0.034306645 0.094708145
0.018598804 0.034900099 0.095124364
-0.0033233473 0.036392614 0.10476542
0.0022663539 0.036675069 0.099537611
-0.0018319134 0.036745738 0.1002264
0.012441207 0.03558616 0.096201539
0.0082962904 0.035995953 0.095870137
0.0037240535 0.036479201 0.095509112
-0.0020051235 0.037026644 0.096234679
0.031550474 0.026983295 0.0925138
0.0296303 0.030514376 0.093133152
0.02217884 0.03480022 0.09227401
0.018703563 0.034818124 0.09212476
0.013783652 0.035569966 0.092000902
0.0091609489 0.035618573 0.091166496
0.0044211056 0.036196858 0.09132272
0.031629473 0.027709795 0.088547587
0.028996438 0.031902149 0.088565588
0.023982462 0.034529261 0.088706374
0.019158198 0.035400316 0.087694883
0.015200209 0.035726108 0.087929189
0.029132215 0.03258216 0.084226251
0.024340356 0.034831911 0.08403939
0.020702554 0.035862874 0.083867371
-0.0021353997 0.0354761 0.092659652
0.006585638 0.034914929 0.089167595
0.0027549379 0.03588631 0.089760959
-0.0018927353 0.035719324 0.088909507
0.013500433 0.035294119 0.085728824
0.0082351603 0.034806058 0.085384786
0.0036885478 0.035428174 0.085122228
-0.00034633093 0.036221549 0.085089564
0.032215323 0.027321063 0.082954407
0.029778888 0.030714892 0.080985188
0.024914339 0.03368688 0.08041811
0.018895708 0.035124209 0.081402183
0.01368878 0.034758884 0.081149936
0.009083502 0.034858145 0.081433475
0.0053833798 0.035474598 0.081123292
0.029543206 0.030428452 0.077676058
0.024956122 0.033404481 0.077207267
0.019175496 0.034783095 0.076971829
0.015317795 0.034906182 0.077349305
0.02885804 0.03189528 0.074433386
0.025343746 0.033525594 0.073984921
0.021367641 0.034953453 0.074046135
0.0026335446 0.035363432 0.08213973
-0.0021128058 0.036030095 0.082356811
0.0084042605 0.034847494 0.078472555
0.0037278337 0.036031187 0.078682244
-0.00084137451 0.036709052 0.078121901
0.031808045 0.026408996 0.075608075
0.030896671 0.028494228 0.075757802
0.013580211 0.034695596 0.074584782
0.0086876266 0.034195933 0.073243558
0.0041651009 0.035283618 0.073695183
0.00065102149 0.036135655 0.072899461
0.032126501 0.026530506 0.070715308
0.030063886 0.029575946 0.070905805
0.025995515 0.033046849 0.07102406
0.020084482 0.034483291 0.070833206
0.014657184 0.03483285 0.069882095
0.010192748 0.034546223 0.069253087
0.029001139 0.02978112 0.066177905
0.026092354 0.032659192 0.06588161
0.021094827 0.034182206 0.065455258
0.017112784 0.035069242 0.065195143
0.024777668 0.03325253 0.061755717
-0.0031711124 0.035701431 0.07435137
0.0036291908 0.034600511 0.070451915
-0.0017302036 0.035462584 0.071004868
0.012636106 0.034451112 0.066617727
0.008700449 0.0344432 0.066895783
0.003544284 0.034702711 0.067185163
-0.00098347757 0.035317924 0.066658199
0.029894033 0.027865868 0.063327074
0.015616654 0.034359552 0.06265986
0.010348399 0.034106918 0.062943757
0.0051779235 0.03452713 0.062635303
0.00059832353 0.035214715 0.063020945
0.029849872 0.02816719 0.059823036
0.026205081 0.031534314 0.058683157
0.021286393 0.033123318 0.059414089
0.016585536 0.033682231 0.058387041
0.01215124 0.033979569 0.059259832
0.028658755 0.029089658 0.055946112
0.026228562 0.031530138 0.053777337
0.021671647 0.032733291 0.05533874
0.017279372 0.03373193 0.055358768
0.026687749 0.032344248 0.051427841
-0.0032080244 0.034870472 0.06455195
0.0050690863 0.034940012 0.06024754
0.00020217709 0.034646038 0.059824049
0.030409755 0.02702135 0.05711627
0.014497543 0.033601306 0.056358933
0.010253693 0.03343486 0.05613488
0.0059065237 0.033912688 0.055915475
0.0010129847 0.033533938 0.055754364
0.030255072 0.027753545 0.053190231
0.021040965 0.032808401 0.052373111
0.016026864 0.033123001 0.05180192
0.011526308 0.033162884 0.051535964
0.030131511 0.028854584 0.048667789
0.026775807 0.032269776 0.049061656
0.021720625 0.032864679 0.047970176
0.017431976 0.032574985 0.047626138
0.026894383 0.031999886 0.044464827
0.022768408 0.032786865 0.044104815
0.0036993707 0.033189517 0.052282631
0.0001962604 0.033503983 0.053022504
0.0098624025 0.033222165 0.048910022
0.0057944236 0.032999452 0.049302518
-2.5088899e-05 0.033204444 0.0483042
0.031019315 0.027042732 0.045892894
0.015793111 0.032672219 0.045024276
0.011505638 0.033338286 0.044957399
0.0057428549 0.03356513 0.04465574
0.0014342861 0.033633169 0.045543492
0.030285414 0.027542137 0.041956723
0.026864074 0.031544704 0.04128027
0.02176684 0.03280231 0.041059196
0.016978286 0.032982521 0.04068017
0.011633283 0.033715665 0.040471613
0.0080696158 0.033864573 0.040714085
0.030505598 0.02855383 0.036955476
0.027213622 0.031811137 0.03655231
0.022583693 0.032991759 0.036379814
0.01735252 0.033180989 0.036566794
0.012733959 0.033838585 0.037092805
0.030218538 0.030118659 0.034236193
0.027343448 0.031598654 0.032204568
0.021886725 0.033813227 0.034035861
0.019173117 0.033675056 0.032945752
0.00039699581 0.033678122 0.042508006
0.009872701 0.033592671 0.037992299
0.0054923259 0.033057105 0.037831187
0.00076468848 0.032502085 0.037617505
0.015705679 0.032707788 0.033779144
0.011667808 0.033142082 0.033710301
0.0070952466 0.033052951 0.033409953
0.03094637 0.027790554 0.030594528
0.027261458 0.03109662 0.029664576
0.022280673 0.032137349 0.029710829
0.016888304 0.032254573 0.029966652
0.013387755 0.032559268 0.02999413
0.029801868 0.028096944 0.026147366
0.026914235 0.029883167 0.026469946
0.022134814 0.03136139 0.025861681
0.00012166239 0.032659985 0.034644783
0.0095654726 0.032184526 0.030453205
0.0056708064 0.032712724 0.031044602
0.00084705558 0.033188671 0.031263471
0.016650155 0.031362642 0.026708186
0.011076778 0.032023486 0.02746439
0.0060961857 0.032873169 0.026976228
0.0010832315 0.033387873 0.027231872
-0.0026069609 0.033322543 0.026916504
0.03014376 0.026457405 0.023934603
0.026783727 0.029249746 0.023792028
0.02212167 0.031063413 0.023485899
0.016648794 0.03162482 0.023443162
0.01175969 0.032303125 0.02278924
0.0071338448 0.032825224 0.022215128
0.029630113 0.027031645 0.020968974
0.026682064 0.029170826 0.020010889
0.022335414 0.031098234 0.019294322
0.017181929 0.031798113 0.019015491
0.012878584 0.032403402 0.018977761
0.025582578 0.029681148 0.015074015
0.023339966 0.030854002 0.015163004
0.00084510166 0.032536454 0.023279607
0.0054464731 0.032919325 0.019518435
0.0011536721 0.032382317 0.019236922
0.027378056 0.027588608 0.016259015
0.017139096 0.031320568 0.015389442
0.011739256 0.03216359 0.015593648
0.0065738284 0.032348488 0.015529633
0.0019513508 0.032255132 0.014836311
0.029020313 0.024616385 0.013452291
0.026996218 0.028390575 0.012415707
0.022331061 0.030244945 0.01177907
0.017299764 0.030461315 0.011738658
0.012011852 0.031813003 0.011705399
0.0084669646 0.032227803 0.012885869
0.026684141 0.028180357 0.0077826977
0.022886381 0.030032216 0.0078316927
0.01859846 0.029684542 0.0081288218
0.00033051614 0.0322298 0.013350725
0.015045476 0.030092245 0.009303391
0.011841959 0.031157058 0.0089496374
0.0063288361 0.031761006 0.009278059
0.0016737012 0.031984076 0.0083066225
0.027746983 0.026409354 0.005315423
0.021198433 0.029757071 0.005523324
0.016888551 0.030241197 0.0054730773
0.011958261 0.03099598 0.0044957399
0.0070589385 0.031625167 0.0044739246
0.0030946843 0.031844515 0.0040408373
0.026589289 0.02755546 0.0014130473
0.022602435 0.029661059 0.00086402893
0.017400801 0.030334046 6.4074993e-05
0.013705357 0.030348504 0.0002502799
-0.00094047189 0.03133266 0.0065112114
0.0047413236 0.03119426 0.0019472837
0.00082889199 0.030747633 0.0017727613
-0.0027183918 0.030273112 0.0010610819
0.02799549 0.024759591 -0.0010350347
