# .PCD v0.7 - Point Cloud Data file format
VERSION 0.7
FIELDS x y z
SIZE 4 4 4
TYPE F F F
COUNT 1 1 1
WIDTH 436
HEIGHT 1
VIEWPOINT 0 0 0 1 0 0 0
POINTS 436
DATA ascii
0.023704927 0.026191475 0.18209457
0.026864819 0.026737615 0.17990685
0.024543649 0.027996527 0.17996791
0.020932768 0.029531024 0.17978141
0.01752322 0.030738976 0.17836273
0.014283131 0.03207371 0.17744502
0.027596153 0.028142819 0.17657924
0.02537797 0.029566061 0.17588478
0.021804798 0.031200845 0.17577893
0.018019537 0.032279465 0.17522728
0.01489871 0.032952417 0.17498845
0.025021527 0.030584166 0.17222831
0.021937525 0.031999577 0.17229271
0.01968375 0.032565214 0.17236385
0.00071993098 0.02941018 0.18381798
-0.00078575034 0.029217198 0.1831992
0.026335897 0.022641214 0.18220836
0.022666816 0.023739122 0.18284151
0.019306216 0.025874346 0.18223023
0.01553829 0.027036589 0.18174559
0.010971566 0.028537499 0.18173558
0.0068196529 0.030053502 0.18174285
0.0030789673 0.031306431 0.18132645
-0.00079951063 0.031912643 0.1801942
0.028096186 0.024382565 0.17875108
0.016288085 0.02944164 0.17952231
0.012163802 0.031199688 0.17831939
0.0081396047 0.032745462 0.17764044
0.0042266874 0.033567064 0.17687765
0.00030604471 0.033306397 0.1759977
0.028514497 0.026081501 0.17459732
0.012280266 0.032983731 0.17350382
0.0085057076 0.033162456 0.17260736
0.0046279309 0.033640917 0.17214015
0.028581711 0.028300963 0.17015523
0.026337367 0.030434351 0.16974965
0.022660131 0.032127388 0.16922149
0.018515415 0.033180211 0.16941243
0.01402772 0.033654273 0.16908196
0.0095937755 0.033131264 0.16870958
0.028768577 0.028527318 0.1654211
0.026266083 0.03036854 0.164002
0.022697952 0.031609885 0.1641531
0.01862162 0.032607894 0.1642873
0.014651761 0.033460982 0.16518718
0.025278095 0.031032706 0.16045457
0.02023387 0.017884761 0.18364841
0.016389322 0.019509465 0.18382975
0.012970098 0.020709367 0.18377864
0.0089914519 0.022824157 0.18303594
0.004479134 0.024365298 0.18313846
0.0010137456 0.02641359 0.18400651
0.021218717 0.020188361 0.1827516
0.017629039 0.02187787 0.18267104
0.014060156 0.02361141 0.18262607
0.011063125 0.024989577 0.18253773
-0.0029852549 0.030641383 0.18159729
-0.001058354 0.033319611 0.17373502
0.0038218042 0.033712097 0.16957498
0.00012418441 0.033548065 0.17003638
0.029501287 0.024854332 0.16863686
0.0081556225 0.032922972 0.16624978
0.0043871384 0.03305456 0.16566199
0.00033079833 0.033694353 0.16563368
-0.0032366626 0.033814397 0.16541874
0.029182402 0.026975747 0.16357544
0.021782311 0.031305771 0.16126817
0.018503882 0.032035489 0.16137412
0.013250438 0.032858364 0.16237855
0.0091978777 0.032768693 0.16222161
0.0056089228 0.032239299 0.16185015
0.028538387 0.027167082 0.15888429
0.026444016 0.029655416 0.1578227
0.022640817 0.031286165 0.15787169
0.018640332 0.031912167 0.15691465
0.014874863 0.03197924 0.15823436
0.011410831 0.031963538 0.15812954
0.026275322 0.02991071 0.15373886
0.022850329 0.031301238 0.15333515
0.019779183 0.03194515 0.15302035
0.014119793 0.013495564 0.18336856
0.010464335 0.01512456 0.18322489
0.0067808651 0.016677124 0.18302315
0.0024858816 0.018487575 0.18278801
-0.0016491809 0.021439184 0.18406248
0.016183373 0.016842647 0.1843704
0.0103748 0.018365456 0.18345767
0.0078746537 0.019260701 0.18321908
0.0041091125 0.020565787 0.18283176
0.00026440527 0.033327516 0.16260561
0.0074724257 0.031865731 0.15916049
0.0038146442 0.031623874 0.15873075
6.3770451e-05 0.032569576 0.15832204
0.028386079 0.024163004 0.15673009
0.013963738 0.031608883 0.15544024
0.0088066943 0.031116474 0.15461227
0.0051141707 0.031318512 0.15410316
0.028106444 0.02653968 0.15273386
0.026643405 0.02887379 0.15062398
0.022824638 0.030907867 0.15026107
0.018341476 0.031695921 0.15047887
0.014440953 0.031595416 0.15058285
0.010018713 0.031436849 0.15064764
0.026314531 0.028921314 0.14657733
0.022812238 0.030438701 0.14618814
0.019079972 0.031372882 0.14606765
0.014321909 0.03178237 0.14647678
0.025993455 0.028997462 0.14253736
0.024116658 0.02968422 0.14236346
0.012654817 0.010852948 0.18348587
0.0090427483 0.011757581 0.18335122
0.0054871095 0.013680676 0.18342569
0.001437875 0.015371472 0.18306318
0.0032097111 0.031347666 0.15262336
-7.7751465e-05 0.031812757 0.15217644
0.0084187035 0.031568222 0.14825845
0.00447693 0.031895846 0.14822584
0.00045733806 0.031558268 0.14719999
0.028325811 0.023535606 0.14553314
0.027829181 0.025710464 0.14410323
0.018089641 0.030922139 0.14298216
0.014938557 0.03140042 0.14332905
0.0098931007 0.031850867 0.1446566
0.0055109821 0.032185584 0.14317167
0.029167833 0.025456246 0.14173278
0.026988585 0.028024476 0.1398344
0.022773176 0.030124083 0.14008519
0.018869605 0.030685667 0.1393261
0.01459131 0.030847488 0.13885033
0.010775277 0.031592403 0.14010006
0.007485419 0.032514486 0.13971728
0.026095703 0.029137041 0.13639444
0.02338174 0.030185165 0.13515723
0.019382603 0.030624919 0.13521621
0.006700932 0.0062223184 0.18366846
0.002886713 0.0085305097 0.18435729
-0.00040869275 0.01021055 0.18390074
0.0075763147 0.0082777869 0.18341318
0.0042505972 0.010830615 0.18395758
0.00036932528 0.011969908 0.18343031
-0.0010146219 0.031371504 0.14467257
0.0033505578 0.032135621 0.14142743
0.00018524285 0.031589963 0.14085451
0.010186737 0.03150804 0.13727883
0.0052006822 0.032295261 0.13706064
0.00097434409 0.03206981 0.13607416
0.027337257 0.025984123 0.13407236
0.021715771 0.029789876 0.13212743
0.018729625 0.030328296 0.13219929
0.014515638 0.03061555 0.13368419
0.010637816 0.031336512 0.1330483
0.0062481775 0.032563783 0.13253474
0.0019296976 0.032665987 0.13214624
0.026265986 0.026807155 0.1291917
0.023204297 0.029492939 0.12864047
0.019237693 0.030406341 0.12786967
0.015148737 0.030813292 0.12820396
0.010878471 0.031496629 0.1284906
0.0082429834 0.032251287 0.12904522
0.026233027 0.027522441 0.12445208
0.023581244 0.029823989 0.1232886
0.019859811 0.03092666 0.12329388
0.016047239 0.031185444 0.12441176
0.0021536942 0.0052817776 0.18456218
-0.00098770112 0.031777915 0.13393748
0.00076437369 0.032051545 0.12918323
0.027773028 0.023568377 0.12733173
0.011046086 0.03165083 0.12579793
0.0066329218 0.03213295 0.12621754
0.0021663811 0.031943791 0.12511218
-0.00042470638 0.032344449 0.12403741
0.027303915 0.025787519 0.12290093
0.019103233 0.031106662 0.12068042
0.014820786 0.030975346 0.12220052
0.011083878 0.030954001 0.12168691
0.0070459545 0.0314519 0.12177879
0.0038843518 0.031817414 0.12137237
0.026665997 0.026850386 0.11871481
0.023604523 0.029717458 0.11768317
0.019976934 0.031082693 0.11713094
0.015782086 0.030504499 0.11770284
0.025865439 0.027284121 0.1144889
0.023806565 0.029367177 0.11402529
0.020698393 0.030649759 0.11319858
0.00086325221 0.03176517 0.12215185
-0.0026695197 0.031494595 0.12230971
0.0092931166 0.030380856 0.11842442
0.0061789732 0.030716648 0.11829978
0.0021490678 0.031446744 0.11828041
-0.0015248628 0.031833023 0.11773568
0.027538868 0.023607083 0.11579549
0.014285053 0.030203804 0.11498022
0.010887722 0.030357229 0.11512315
0.006739683 0.030977273 0.1140511
0.0030385423 0.031718008 0.11351562
-0.00096123666 0.03211683 0.11399961
0.026803551 0.025129566 0.11099458
0.023974279 0.028599722 0.11139172
0.019603888 0.030473702 0.11119348
0.01548367 0.030330377 0.11099041
0.011197877 0.030590361 0.1095804
0.0084249135 0.031087095 0.10989761
0.026273225 0.026275385 0.10736877
0.023894301 0.028836405 0.10715675
0.020170242 0.030527331 0.1070621
0.016106009 0.030889196 0.10604733
0.01160893 0.031259809 0.10634512
0.024076406 0.028864495 0.10333252
0.020402014 0.030706938 0.10337746
0.017596383 0.031004518 0.10253978
-0.0024613654 -0.0049025039 0.18398607
0.0011450266 0.031631373 0.1114921
-0.0020628329 0.031586371 0.11067951
0.0067383084 0.031485986 0.10831553
0.0028976919 0.031916924 0.10748249
-0.00089997705 0.031371076 0.10602677
0.028003767 0.024219614 0.10511565
0.026022656 0.026506251 0.10418737
0.014538084 0.030870197 0.10323191
0.011595125 0.030951429 0.10315681
0.0072606266 0.031257138 0.10273075
0.0035072519 0.031783216 0.10237449
0.026940322 0.024793211 0.10122579
0.024540516 0.027188249 0.099564135
0.020273976 0.030048437 0.09986043
0.015806217 0.030412992 0.099172592
0.01209004 0.030559685 0.098770082
0.0080524432 0.031046003 0.09892714
0.023444291 0.027625896 0.094875753
0.020408545 0.0294057 0.094708145
0.015941832 0.02991437 0.095124364
-0.0028485842 0.03119367 0.10476542
0.0019425889 0.031435773 0.099537611
-0.0015702117 0.031496346 0.1002264
0.010663891 0.030502422 0.096201539
0.0071111056 0.030853674 0.095870137
0.0031920457 0.031267889 0.095509112
-0.0017186776 0.031737123 0.096234679
0.027043264 0.023128539 0.0925138
0.025397401 0.026155181 0.093133152
0.019010434 0.029828761 0.09227401
0.016031625 0.029844109 0.09212476
0.01181456 0.030488541 0.092000902
0.0078522423 0.030530203 0.091166496
0.0037895194 0.031025881 0.09132272
0.027110975 0.023751253 0.088547587
0.02485409 0.027344696 0.088565588
0.020556394 0.029596506 0.088706374
0.016421312 0.030343128 0.087694883
0.01302875 0.030622376 0.087929189
0.024970472 0.027927568 0.084226251
0.020863164 0.029855927 0.08403939
0.017745046 0.030739605 0.083867371
-0.0018303432 0.030408088 0.092659652
0.0056448332 0.029927082 0.089167595
0.0023613758 0.030759692 0.089760959
-0.0016223444 0.030616565 0.088909507
0.0115718 0.030252103 0.085728824
0.0070587089 0.029833764 0.085384786
0.003161612 0.030367007 0.085122228
-0.00029685441 0.031047042 0.085089564
0.027613135 0.023418052 0.082954407
0.025524762 0.026327051 0.080985188
0.021355148 0.02887447 0.08041811
0.016196322 0.030106466 0.081402183
0.01173324 0.029793328 0.081149936
0.0077858595 0.02987841 0.081433475
0.0046143257 0.030406799 0.081123292
0.025322748 0.026081532 0.077676058
0.021390963 0.028632412 0.077207267
0.016436139 0.029814081 0.076971829
0.013129539 0.029919585 0.077349305
0.024735466 0.027338814 0.074433386
0.021723211 0.028736223 0.073984921
0.018315122 0.029960103 0.074046135
0.0022573248 0.030311516 0.08213973
-0.0018109782 0.030882938 0.082356811
0.0072036516 0.029869284 0.078472555
0.0031952858 0.030883877 0.078682244
-0.00072117895 0.031464901 0.078121901
0.02726404 0.022636283 0.075608075
0.026482863 0.024423625 0.075757802
0.011640181 0.029739084 0.074584782
0.0074465377 0.029310798 0.073243558
0.0035700868 0.030243101 0.073695183
0.00055801775 0.030973416 0.072899461
0.027537003 0.022740431 0.070715308
0.025769046 0.025350813 0.070905805
0.02228187 0.028325872 0.07102406
0.017215271 0.029557101 0.070833206
0.012563301 0.029856728 0.069882095
0.0087366411 0.029611051 0.069253087
0.024858121 0.025526676 0.066177905
0.022364873 0.027993595 0.06588161
0.018081279 0.029299032 0.065455258
0.014668101 0.030059353 0.065195143
0.021238001 0.028502168 0.061755717
-0.0027180966 0.030601226 0.07435137
0.0031107347 0.02965758 0.070451915
-0.0014830315 0.030396502 0.071004868
0.010830948 0.029529525 0.066617727
0.0074575273 0.029522743 0.066895783
0.0030379584 0.029745182 0.067185163
-0.00084298011 0.030272506 0.066658199
0.025623458 0.023885028 0.063327074
0.013385703 0.029451044 0.06265986
0.0088700559 0.029234502 0.062943757
0.0044382201 0.02959468 0.062635303
0.00051284861 0.030184044 0.063020945
0.025585603 0.024143303 0.059823036
0.022461498 0.027029414 0.058683157
0.018245481 0.028391415 0.059414089
0.014216174 0.028870482 0.058387041
0.010415349 0.029125348 0.059259832
0.024564646 0.024933994 0.055946112
0.022481624 0.027025832 0.053777337
0.018575698 0.028057108 0.05533874
0.01481089 0.028913084 0.055358768
0.022875212 0.02772364 0.051427841
-0.0027497355 0.029888973 0.06455195
0.0043449309 0.029948585 0.06024754
0.00017329492 0.029696604 0.059824049
0.026065504 0.023161158 0.05711627
0.012426465 0.028801121 0.056358933
0.008788879 0.028658452 0.05613488
0.0050627342 0.029068019 0.055915475
0.00086827204 0.028743375 0.055754364
0.025932919 0.023788752 0.053190231
0.018035114 0.028121486 0.052373111
0.013737313 0.028391145 0.05180192
0.0098796925 0.028425332 0.051535964
0.025827011 0.024732504 0.048667789
0.022950692 0.027659807 0.049061656
0.01861768 0.028169725 0.047970176
0.014941694 0.027921416 0.047626138
0.023052327 0.027428474 0.044464827
0.019515779 0.028103027 0.044104815
0.0031708884 0.028448159 0.052282631
0.00016822293 0.028717699 0.053022504
0.0084534874 0.028476143 0.048910022
0.0049666483 0.028285244 0.049302518
-2.150517e-05 0.028460953 0.0483042
0.026587985 0.023179483 0.045892894
0.013536952 0.028004758 0.045024276
0.0098619759 0.028575674 0.044957399
0.0049224468 0.028770113 0.04465574
0.0012293877 0.028828431 0.045543492
0.025958929 0.023607548 0.041956723
0.023026349 0.027038317 0.04128027
0.018657293 0.028116269 0.041059196
0.014552818 0.028270733 0.04068017
0.0099713849 0.028899144 0.040471613
0.0069168136 0.029026777 0.040714085
0.026147652 0.024474712 0.036955476
0.023325961 0.027266691 0.03655231
0.019357452 0.028278653 0.036379814
0.014873587 0.028440848 0.036566794
0.010914821 0.029004501 0.037092805
0.025901604 0.025815994 0.034236193
0.023437243 0.027084561 0.032204568
0.01876005 0.028982766 0.034035861
0.016434101 0.028864335 0.032945752
0.00034028105 0.028866962 0.042508006
0.0084623154 0.028793719 0.037992299
0.004707708 0.028334659 0.037831187
0.00065544713 0.027858932 0.037617505
0.01346201 0.028035248 0.033779144
0.010000978 0.028407497 0.033710301
0.0060816403 0.028331103 0.033409953
0.02652546 0.023820475 0.030594528
0.023366965 0.026654245 0.029664576
0.019097719 0.0275463 0.029710829
0.014475688 0.027646778 0.029966652
0.011475218 0.027907943 0.02999413
0.025544457 0.024083097 0.026147366
0.023069344 0.025614141 0.026469946
0.018972699 0.026881188 0.025861681
0.00010428298 0.027994271 0.034644783
0.0081989765 0.027586736 0.030453205
0.0048606913 0.02803948 0.031044602
0.0007260479 0.028447432 0.031263471
0.014271562 0.026882267 0.026708186
0.009494381 0.027448701 0.02746439
0.0052253017 0.028177002 0.026976228
0.0009284839 0.028618176 0.027231872
-0.0022345381 0.028562181 0.026916504
0.025837509 0.022677774 0.023934603
0.02295748 0.025071213 0.023792028
0.018961431 0.026625786 0.023485899
0.014270395 0.027106989 0.023443162
0.010079734 0.027688393 0.02278924
0.0061147246 0.028135907 0.022215128
0.025397241 0.023169981 0.020968974
0.022870341 0.025003564 0.020010889
0.019144639 0.026655627 0.019294322
0.014727368 0.027255526 0.019015491
0.011038788 0.027774345 0.018977761
0.021927927 0.025440987 0.015074015
0.020005684 0.026446288 0.015163004
0.00072437245 0.027888387 0.023279607
0.0046684062 0.028216563 0.019518435
0.00098886155 0.02775627 0.019236922
0.023466907 0.023647379 0.016259015
0.014690653 0.026846202 0.015389442
0.01006222 0.027568793 0.015593648
0.0056347102 0.027727274 0.015529633
0.0016725864 0.027647255 0.014836311
0.024874553 0.021099757 0.013452291
0.023139615 0.024334777 0.012415707
0.01914091 0.025924237 0.01177907
0.01482837 0.026109699 0.011738658
0.010295874 0.027268289 0.011705399
0.0072573987 0.027623832 0.012885869
0.02287212 0.024154592 0.0077826977
0.019616898 0.025741899 0.0078316927
0.015941538 0.025443893 0.0081288218
0.00028329901 0.027625542 0.013350725
0.012896121 0.025793351 0.009303391
0.01015025 0.026706049 0.0089496374
0.0054247165 0.027223719 0.009278059
0.0014346028 0.027414924 0.0083066225
0.023783129 0.022636587 0.005315423
0.018170087 0.025506061 0.005523324
0.014475901 0.025921026 0.0054730773
0.010249939 0.026567984 0.0044957399
0.0060505187 0.027107285 0.0044739246
0.002652586 0.027295301 0.0040408373
0.022790819 0.023618964 0.0014130473
0.019373516 0.025423765 0.00086402893
0.014914974 0.02600061 6.4074993e-05
0.011747449 0.026013004 0.0002502799
-0.00080611929 0.026856566 0.0065112114
0.0040639923 0.026737938 0.0019472837
0.00071047992 0.026355116 0.0017727613
-0.0023300499 0.025948383 0.0010610819
0.023996133 0.021222506 -0.0010350347
