# .PCD v0.7 - Point Cloud Data file format
VERSION 0.7
FIELDS x y z
SIZE 4 4 4
TYPE F F F
COUNT 1 1 1
WIDTH 399
HEIGHT 1
VIEWPOINT 0 0 0 1 0 0 0
POINTS 399
DATA ascii
-0.023830086 -0.012786203 0.18386057
-0.023705462 -0.015591336 0.18441048
-0.0228156 -0.019717779 0.18443364
-0.02038965 -0.022754002 0.18374518
-0.028718127 -0.0082362872 0.18079895
-0.027858375 -0.012196185 0.18201405
-0.026703857 -0.016695626 0.1822418
-0.025396645 -0.020391263 0.18163887
-0.022846382 -0.023613594 0.18114057
-0.029613683 -0.0091213183 0.17620137
-0.029832244 -0.012799168 0.17721623
-0.02895968 -0.017419858 0.1776804
-0.02732994 -0.020998346 0.17736545
-0.024230525 -0.023524538 0.17636889
-0.03063846 -0.0094200233 0.17336553
-0.030562753 -0.013163346 0.17298505
-0.029720876 -0.017543484 0.17281663
-0.027657401 -0.020949798 0.17215055
-0.029900923 -0.017453112 0.16837612
-0.02856061 -0.020230856 0.16838053
-0.016607432 -0.017098073 0.18529069
-0.026543945 0.0016223248 0.18376258
-0.025515908 -0.0020816708 0.18440923
-0.024259657 -0.0058589438 0.18439797
-0.022679329 -0.0097783282 0.18419543
-0.020109858 -0.01376407 0.18435907
-0.019716438 -0.018016756 0.18509665
-0.017934436 -0.021838009 0.18455303
-0.028612135 0.0011206213 0.18038648
-0.028218206 -0.0031776102 0.18073523
-0.027746713 -0.006446749 0.18151832
-0.029579293 0.00042420719 0.17637572
-0.029404689 -0.0031525483 0.1753189
-0.029200757 -0.0067786127 0.17536098
-0.02296146 -0.024369631 0.17385516
-0.030218681 -0.0038849711 0.17053941
-0.030509409 -0.0076548029 0.17080429
-0.030435378 -0.012056259 0.1702038
-0.023968587 -0.023699392 0.17016524
-0.030877778 -0.0049571702 0.16699305
-0.030986119 -0.0080125108 0.16620043
-0.030676961 -0.012733827 0.1668863
-0.029817607 -0.017317966 0.16554213
-0.02734885 -0.021089535 0.16588277
-0.02444168 -0.023719527 0.16502333
-0.031389751 -0.0092924125 0.16290051
-0.031131672 -0.012817298 0.16234523
-0.029642588 -0.016814647 0.16143653
-0.027268928 -0.020164926 0.16180852
-0.020774599 -0.00011814386 0.18434453
-0.019553648 -0.0039388994 0.1843642
-0.016794775 -0.0071239001 0.18410298
-0.015271978 -0.011535726 0.18404838
-0.029573567 0.0013370393 0.17336127
-0.029370615 0.0011680117 0.16880992
-0.029689746 -0.0021097697 0.16790506
-0.029337991 0.00062679593 0.16392702
-0.029849689 -0.0027644252 0.16365165
-0.030577939 -0.0061132018 0.16337764
-0.029806579 -0.0037178602 0.15976965
-0.0297611 -0.0070441631 0.15931407
-0.030298751 -0.010831852 0.15879023
-0.026095938 -0.020236976 0.15847832
-0.0236765 -0.023231721 0.15882277
-0.029371988 -0.0081716636 0.15559769
-0.029468363 -0.011236134 0.15480182
-0.028877195 -0.015859161 0.15528077
-0.026083753 -0.019730784 0.15417472
-0.023554122 -0.022085197 0.15412772
-0.0301445 -0.011881378 0.15058094
-0.028788211 -0.015878534 0.15026167
-0.027541714 -0.019081825 0.14998034
-0.017077915 0.0014168923 0.18421948
-0.016125707 -0.0025443281 0.18445057
-0.012763433 -0.0055248835 0.18465456
-0.011202643 -0.0094504934 0.18416134
-0.029387243 0.0018631285 0.15779054
-0.029352684 -0.0019668229 0.15715215
-0.02979199 -0.005521602 0.15711048
-0.029954355 0.00035124552 0.15391883
-0.029428897 -0.0027821036 0.1530616
-0.029380722 -0.0064454707 0.15308049
-0.029954091 -0.0097295959 0.15269515
-0.022944536 -0.023217361 0.15209585
-0.030161249 -0.0038958606 0.14952013
-0.030157924 -0.0069365669 0.14864326
-0.029986365 -0.010435614 0.14841574
-0.029161291 -0.014978099 0.14782453
-0.026090886 -0.020397104 0.14838517
-0.023677733 -0.022476185 0.14774352
-0.030368095 -0.0081429519 0.14512151
-0.030500585 -0.01123878 0.14436734
-0.029331505 -0.015794875 0.14412573
-0.027720515 -0.019876923 0.14355654
-0.024935726 -0.022147786 0.14317989
-0.030516719 -0.011634124 0.14048281
-0.029729776 -0.015379791 0.1395933
-0.028897801 -0.019719061 0.13785851
-0.025945699 -0.022065163 0.13969004
-0.029924404 -0.019115824 0.13442004
-0.0096766064 0.00010102452 0.18408179
-0.0081146928 -0.0039463858 0.18465096
-0.0061588706 -0.007501469 0.18411463
-0.01206238 -0.0008712702 0.18406975
-0.0084750149 -0.0095538255 0.18355837
-0.029073453 -0.0010665348 0.15050048
-0.029300611 0.0020483527 0.14576834
-0.029527785 -0.0018595606 0.14642048
-0.029878302 -0.0050726533 0.14585143
-0.021715354 -0.023494497 0.1453239
-0.029669516 -0.0022977218 0.14148274
-0.029963363 -0.0062227612 0.14220482
-0.030128963 -0.0093462635 0.14148307
-0.022955647 -0.023264233 0.14111766
-0.029894957 -0.0032741982 0.13784552
-0.029505476 -0.0064899274 0.13711441
-0.029640494 -0.010212998 0.13701057
-0.02976788 -0.01386612 0.13734004
-0.024111927 -0.022876199 0.13636976
-0.020824984 -0.024325967 0.13636416
-0.029473292 -0.010482891 0.13293627
-0.029758215 -0.014668313 0.1331166
-0.028934427 -0.019625165 0.13252062
-0.025268193 -0.022589389 0.13199696
-0.029655047 -0.015435643 0.12879604
-0.028972728 -0.019051695 0.12812793
-0.027168669 -0.021759631 0.12678662
-0.02917324 -0.019197218 0.12432608
-0.028365249 -0.021051615 0.12418863
-0.005075743 -0.0020711643 0.18468562
-0.029152993 -0.00010418892 0.13931078
-0.029223405 0.0020097401 0.13532984
-0.029027397 -0.0013142964 0.13476968
-0.029182406 -0.004788049 0.13452241
-0.029134735 -0.0026780348 0.13138819
-0.029021304 -0.0057065939 0.13042146
-0.029037463 -0.0095253084 0.12976992
-0.023139128 -0.023550734 0.1293731
-0.020632124 -0.024750451 0.12869951
-0.029356664 -0.006239749 0.12675083
-0.029035283 -0.010239209 0.12628552
-0.029663654 -0.013900138 0.12647974
-0.024851583 -0.02337423 0.12587944
-0.021199554 -0.024135109 0.12514389
-0.029424306 -0.011217273 0.12236878
-0.029143376 -0.014010066 0.12193808
-0.028532499 -0.018117139 0.12128344
-0.026311269 -0.021972544 0.12113053
-0.024404835 -0.023743059 0.11985993
-0.028178319 -0.018801726 0.11700976
-0.027338695 -0.020431586 0.11743003
-0.028401561 0.00054590218 0.13189334
-0.028697168 -0.0007072147 0.12837139
-0.028525338 -0.0037227073 0.12735528
-0.028487965 -0.001464068 0.12325564
-0.029454263 -0.0052232607 0.12408212
-0.028751804 -0.0085583059 0.12369081
-0.021024125 -0.024873972 0.12289426
-0.029164348 -0.0021785311 0.11972165
-0.029937608 -0.0056239599 0.11956966
-0.029304771 -0.0094122505 0.11961305
-0.028474182 -0.013614271 0.11840534
-0.02792087 -0.016329847 0.11870557
-0.024821412 -0.022387717 0.11789066
-0.021867679 -0.024587814 0.11780047
-0.030318333 -0.0061373068 0.11492181
-0.029474169 -0.0094483905 0.11418283
-0.029062677 -0.013721872 0.11502844
-0.028384794 -0.017348966 0.11483902
-0.02607321 -0.021488313 0.11452788
-0.023324426 -0.023858748 0.11321789
-0.030200155 -0.010355631 0.1111241
-0.029402304 -0.013843939 0.10974306
-0.028220885 -0.017589821 0.10958618
-0.026643019 -0.021183107 0.10955411
-0.030709058 -0.014333013 0.1060096
-0.029435316 -0.017932506 0.10578823
-0.028006287 -0.021027893 0.10549307
0.0048929127 0.0019639891 0.18414223
-0.027870938 0.0016890261 0.12251034
-0.028483534 0.00042566285 0.11750829
-0.029208619 -0.0035244357 0.11623836
-0.028976532 -0.00078787096 0.11237824
-0.030052654 -0.0045980597 0.11253202
-0.020560689 -0.024945069 0.11130053
-0.030390998 -0.0056584235 0.10866743
-0.030037278 -0.0092255725 0.10816461
-0.02997214 -0.01233553 0.10758585
-0.025438916 -0.022273216 0.10668409
-0.022355912 -0.024025775 0.10662711
-0.030889766 -0.0066464213 0.10378993
-0.030461285 -0.0094112083 0.1032362
-0.030734153 -0.01357567 0.10316843
-0.029196369 -0.017728508 0.10259342
-0.026591234 -0.021713853 0.10276246
-0.023555458 -0.023241449 0.10198343
-0.030599326 -0.010063073 0.09959507
-0.030387681 -0.01390508 0.099201918
-0.029232042 -0.017640512 0.099645317
-0.02701412 -0.020873003 0.098933518
0.0053376574 0.0054828092 0.18403113
0.0072565614 0.0010791266 0.18370476
-0.028974844 0.0017255321 0.11168659
-0.02912366 0.000719334 0.10695761
-0.029571977 -0.0037068324 0.10549533
-0.029550493 -0.00096553843 0.10207784
-0.030293155 -0.0043929829 0.10139662
-0.021880258 -0.024532489 0.10008895
-0.029993357 -0.0015960019 0.098660231
-0.030625869 -0.0052620126 0.096922576
-0.030715326 -0.0090483529 0.096856952
-0.029997135 -0.012915744 0.096619606
-0.028375914 -0.017174026 0.095838845
-0.02640727 -0.021201685 0.095857739
-0.023454785 -0.024119036 0.095730543
-0.030669313 -0.0095550139 0.092236817
-0.030275647 -0.013360246 0.092350185
-0.028802501 -0.017215915 0.09223783
-0.02723081 -0.021027936 0.092030466
-0.024692088 -0.024028424 0.09106189
-0.030556213 -0.010325088 0.087712169
-0.030579388 -0.013792439 0.087418079
-0.029502319 -0.017303474 0.086874783
-0.027929367 -0.021124411 0.086669683
-0.025741447 -0.02374031 0.086921871
-0.02856423 -0.019763667 0.08280319
-0.028090019 0.002563973 0.099889755
-0.028643616 0.0019060634 0.095128775
-0.029454241 -0.0017098961 0.094934523
-0.029264875 -0.0031903684 0.090546012
-0.029338408 -0.0069299773 0.0896945
-0.02226793 -0.024946421 0.0890131
-0.029585728 -0.0049998602 0.08583045
-0.029652238 -0.007974227 0.085970283
-0.03028341 -0.012349437 0.085074246
-0.023002543 -0.024740115 0.085067093
-0.029705398 -0.0093570231 0.081181765
-0.029473128 -0.01240027 0.080809653
-0.028187865 -0.0165696 0.080523014
-0.0267563 -0.020765841 0.080350161
-0.024596348 -0.023357211 0.080485106
-0.030481314 -0.0098973997 0.077464819
-0.029906629 -0.012946274 0.077078104
-0.028258562 -0.01705482 0.076491356
-0.026769836 -0.020053493 0.076516986
-0.025401847 -0.022815287 0.076979756
-0.028538978 0.0024762321 0.088297427
-0.028879942 -0.00064738188 0.087481439
-0.028997939 0.0016041351 0.083294928
-0.029259788 -0.0019657416 0.083909035
-0.02927231 -0.0024477616 0.078926921
-0.029715575 -0.0064844075 0.079578102
-0.022121249 -0.024594709 0.07874167
-0.029705022 -0.0075426763 0.074639976
-0.030208061 -0.01229318 0.074407339
-0.028598947 -0.015777942 0.074577689
-0.026442543 -0.02050535 0.073637009
-0.023859195 -0.023803547 0.073669672
-0.021249846 -0.025597718 0.073230624
-0.030531654 -0.012093365 0.070239067
-0.029564597 -0.016765427 0.070640147
-0.027562531 -0.020447778 0.070019782
-0.024966763 -0.023001637 0.068944573
-0.030115031 -0.013294226 0.065292895
-0.030042296 -0.016774841 0.065524936
-0.027963741 -0.020154294 0.065385461
-0.029250264 -0.0010889126 0.076812506
-0.028481875 0.0027040401 0.072640479
-0.028475646 -0.0011256039 0.072520435
-0.028916268 -0.0060249246 0.071561575
-0.02862937 -0.0017169081 0.067959726
-0.028635042 -0.005544784 0.067861319
-0.029337516 -0.0089954352 0.066017747
-0.022551952 -0.023912158 0.066711128
-0.028830243 -0.0060694613 0.064160347
-0.028936353 -0.010200762 0.062272668
-0.02885074 -0.015160455 0.061337352
-0.026922591 -0.02031111 0.061748803
-0.023034131 -0.022969957 0.062399864
-0.020572292 -0.025064444 0.063283503
-0.029132048 -0.010438421 0.058464527
-0.02846422 -0.015139843 0.057896972
-0.026391728 -0.019593507 0.057449698
-0.023925416 -0.022431731 0.058211982
-0.028829807 -0.014423182 0.054896474
-0.027427306 -0.017641837 0.054657936
-0.02876424 -0.00014584977 0.065543711
-0.02807511 -0.0011066552 0.061971664
-0.028587539 -0.005154822 0.060883403
-0.021513641 -0.023813266 0.059605896
-0.029001852 -0.0056468872 0.056695044
-0.029447922 -0.0091777314 0.056558371
-0.023189839 -0.022837155 0.055963993
-0.02093506 -0.024217613 0.055081725
-0.029191401 -0.010441318 0.052577257
-0.029112522 -0.014432464 0.052041233
-0.027410854 -0.0185261 0.052256525
-0.023525469 -0.020951495 0.051692665
-0.028998513 -0.011199224 0.047784448
-0.029342629 -0.014695717 0.048379362
-0.027978558 -0.018394187 0.048120737
-0.027291633 -0.00025183056 0.058433115
-0.028123816 -0.00043315813 0.054720879
-0.028403899 -0.0035452833 0.053168476
-0.028966542 0.00246727 0.050735295
-0.028698893 -0.00046688039 0.050026953
-0.028492253 -0.0052067698 0.050195098
-0.028221749 -0.0083958637 0.048975229
-0.023132164 -0.021389298 0.048666358
-0.029397372 -0.0013510855 0.046045959
-0.029022247 -0.0048207911 0.045504034
-0.028950099 -0.0095559964 0.045121193
-0.02848535 -0.013535109 0.044407368
-0.027148008 -0.0179391 0.044086814
-0.023828495 -0.021216936 0.044219971
-0.020513861 -0.023748182 0.044127345
-0.029711269 -0.0055281096 0.041891336
-0.029207956 -0.0092629604 0.040459216
-0.028674396 -0.014033403 0.04027915
-0.027323777 -0.017873354 0.04002732
-0.02447325 -0.021321543 0.039589524
-0.021423224 -0.023230262 0.040582478
-0.029720163 -0.010576305 0.037038565
-0.02901849 -0.013461279 0.036456525
-0.027642762 -0.01783205 0.03503561
-0.025279038 -0.021223761 0.03629142
-0.028784005 0.0011302354 0.047852755
-0.029415254 0.0001280494 0.043697536
-0.029364046 -0.00044121221 0.038609385
-0.029846396 -0.0047717337 0.038922966
-0.020354159 -0.024014782 0.03775245
-0.029707227 -0.0050593908 0.034412622
-0.029311894 -0.008764118 0.033949912
-0.028779183 -0.013649191 0.033652544
-0.024779923 -0.021620765 0.033104539
-0.021269996 -0.023322236 0.032541811
-0.029698489 -0.0061981771 0.029919982
-0.028940203 -0.0089827236 0.030136645
-0.028489612 -0.013448057 0.031195521
-0.026737364 -0.017292932 0.029317439
-0.024895543 -0.020867694 0.029458046
-0.029294411 0.00023361389 0.033210397
-0.029298333 -0.0045426274 0.03113246
-0.029520188 -9.3091279e-05 0.028344393
-0.029410314 -0.0039533409 0.028195918
-0.028261961 -0.0086034369 0.027245522
-0.026780751 -0.01263624 0.027204156
-0.025992777 -0.016886909 0.025746942
-0.023976846 -0.020712199 0.025848985
-0.020069689 -0.02359708 0.026726842
-0.029234538 -0.0045290939 0.023798227
-0.028428599 -0.0087175295 0.02342391
-0.027579306 -0.012826531 0.023735166
-0.026501389 -0.016994989 0.023049831
-0.024477888 -0.021034528 0.022961795
-0.021390487 -0.023062445 0.021889865
-0.02811157 -0.0097754123 0.018912435
-0.028420363 -0.013162795 0.018466771
-0.027359582 -0.017178398 0.018553257
-0.025264289 -0.020774219 0.018054724
-0.028943999 -0.014591129 0.014869452
-0.028142339 -0.017329665 0.013960242
-0.026407329 -0.019747416 0.014210224
-0.028645895 0.0014421716 0.024264872
-0.028329084 0.00061123632 0.021229804
-0.028486479 -0.0033660727 0.019800186
-0.028366979 -0.0068332977 0.020315647
-0.028450286 -0.0039135078 0.016385317
-0.028212611 -0.0081682689 0.016303778
-0.028405998 -0.011309732 0.015395701
-0.023506757 -0.021720264 0.014278531
-0.020453617 -0.022649104 0.015299499
-0.027877167 -0.0078819022 0.012275934
-0.028345114 -0.012692165 0.011478305
-0.027674392 -0.017022897 0.01015687
-0.024586139 -0.02047962 0.010551095
-0.02057212 -0.022072906 0.011602998
-0.0278164 -0.012333437 0.0072222352
-0.026947536 -0.017016495 0.006733954
-0.025802622 -0.019288726 0.0069614649
-0.027807854 0.0014123041 0.014841676
-0.027863419 -0.0016978271 0.013776422
-0.028465061 0.0013968954 0.0089364052
-0.028143613 -0.0032283277 0.010212064
-0.027450325 -0.0072080828 0.0092800856
-0.018954128 -0.022912767 0.0081692934
-0.029524993 -0.00044542365 0.0051183105
-0.028816158 -0.003471713 0.004660368
-0.028014679 -0.0076620635 0.0050652623
-0.027471298 -0.011706054 0.0043043494
-0.026319591 -0.0155193 0.0039689541
-0.023565944 -0.020420697 0.0044650435
-0.020174103 -0.022295399 0.0030055046
-0.027761741 -0.0081752501 0.00061380863
-0.026653104 -0.011647557 0.00074970722
-0.025489006 -0.016266106 -0.00065088272
-0.023402892 -0.019684359 -0.0007007122
-0.021196879 -0.021946369 -0.00095570087
-0.0284927 0.0024229791 0.0031298399
