# .PCD v0.7 - Point Cloud Data file format
VERSION 0.7
FIELDS x y z
SIZE 4 4 4
TYPE F F F
COUNT 1 1 1
WIDTH 383
HEIGHT 1
VIEWPOINT 0 0 0 1 0 0 0
POINTS 383
DATA ascii
0.033062644 0.01363126 0.18055165
0.033714399 0.014228884 0.1791997
0.027195198 0.0092740292 0.18370751
0.027334213 0.013219411 0.18359232
0.030748539 -0.011736921 0.18181157
0.030535648 -0.0078107221 0.18232453
0.030502694 -0.0039837193 0.18233728
0.030168056 0.00060413539 0.18184155
0.030744145 0.0052032601 0.18201157
0.03093992 0.0091365501 0.18193951
0.031167014 0.013398021 0.18202287
0.031895861 -0.016157694 0.17810115
0.032189984 -0.012074416 0.17769408
0.03249969 -0.0081221294 0.17770922
0.032368541 -0.0041867783 0.17739829
0.032745738 0.00041430854 0.17742842
0.033244118 0.0050098393 0.17754847
0.033247743 0.0089408904 0.17733726
0.033435449 0.01269983 0.17704651
0.033233542 0.01745525 0.17686367
0.032312904 -0.0082773417 0.17395172
0.032321386 -0.0043291366 0.1737437
0.032949585 0.00028638312 0.17396346
0.033074498 0.0048556044 0.17290035
0.033621773 0.008941452 0.17240781
0.034001675 0.012708123 0.17226148
0.034157753 0.017298721 0.17213011
0.034010563 0.009972129 0.16877943
0.033950686 0.013259828 0.16855603
0.034368858 0.017832777 0.1677134
0.024427874 -0.011587122 0.18356949
0.024484124 -0.0076702964 0.18396536
0.02480834 -0.0040765945 0.18400311
0.024722509 0.00043048285 0.18317676
0.024230668 0.0051862532 0.1831432
0.023746543 0.0093568685 0.18392053
0.027163574 -0.012212761 0.18260351
0.027598705 -0.0092128096 0.18320757
0.031718835 -0.012328428 0.17190322
0.031916399 -0.008402383 0.17092779
0.032013007 -0.0044429931 0.17078578
0.032099605 0.00017351637 0.17060071
0.032700676 0.0047603971 0.16989434
0.032909531 0.0073957234 0.16990924
0.031683274 -0.012568329 0.16640213
0.032065324 -0.0085865892 0.16647667
0.03256999 -0.0046078996 0.1666458
0.032757998 1.8240453e-05 0.16653931
0.032743592 0.004637782 0.16627753
0.032925162 0.008424852 0.16598129
0.033319578 0.01234826 0.16577616
0.03396162 0.01647337 0.16565135
0.032725658 -0.015337034 0.16367298
0.032677479 -0.012690829 0.16349322
0.032796826 -0.0087151304 0.16337028
0.032796212 -0.0047630141 0.16269642
0.032747678 -0.00081057491 0.16198561
0.032709464 0.0035422097 0.16185313
0.032483239 0.0084806997 0.16220176
0.033048902 0.012688837 0.16167247
0.033460736 0.016623637 0.16085607
0.017871585 -0.0078804949 0.1833685
0.017847572 -0.0038827779 0.18313187
0.018148951 0.00011960018 0.18312779
0.018055916 0.0047785896 0.18280542
0.019053595 0.0094391285 0.18326351
0.021583047 -0.0085110925 0.18424803
0.021608233 -0.0032056971 0.18397516
0.020873053 9.6803109e-05 0.18326566
0.020572748 0.0040738215 0.18283173
0.031408615 -0.012859336 0.15975845
0.031575579 -0.0088671334 0.15967196
0.032274231 -0.0048730406 0.15981138
0.031742387 -0.0009302813 0.15844929
0.031832099 0.0041291681 0.15861571
0.031748004 0.0083916429 0.15887511
0.032056946 0.012024486 0.15845674
0.031648025 -0.012874832 0.15554121
0.031437941 -0.0092195356 0.15518117
0.03143682 -0.0052243206 0.15496549
0.031029787 -0.0010382514 0.15530673
0.031104991 0.003771727 0.15416026
0.031038318 0.0082443329 0.15369892
0.031539254 0.012236203 0.1538741
0.03245984 0.016216015 0.15437761
0.032178946 0.016990436 0.14977953
0.01446993 -0.0038517441 0.18345511
0.01484503 0.0001673689 0.18350083
0.014786636 0.0045544682 0.1830878
0.031520605 -0.01447079 0.15343565
0.03149455 -0.007804167 0.15305734
0.031421594 -0.0038065193 0.15278569
0.03122827 -0.0011270181 0.15295616
0.031372242 0.0015243519 0.15246084
0.031774931 -0.013958078 0.14987415
0.031783666 -0.0092822546 0.14963043
0.03178484 -0.0052759182 0.14941657
0.031579308 -0.0012746929 0.14904052
0.031505942 0.0033974869 0.1487323
0.031504259 0.0080698356 0.14848047
0.031595454 0.012073173 0.14833784
0.0320361 0.015609238 0.14787385
0.031522341 -0.013935975 0.14529848
0.031489033 -0.0092092613 0.14489424
0.032159634 -0.0052735028 0.14462659
0.03248753 -0.0014644049 0.14414799
0.032024045 0.0025425472 0.14356384
0.031867504 0.0071691759 0.14336309
0.032243628 0.011906398 0.14323962
0.032503061 0.015914159 0.14323282
0.032301359 0.0010753979 0.14009872
0.032154731 0.009116645 0.1395523
0.032176189 0.013136746 0.13935542
0.032197699 0.017155563 0.13915855
0.0078759361 -0.0031444428 0.18332422
0.0091218101 0.00024612184 0.18401414
0.0089827441 0.0042826198 0.1836938
0.010497911 -0.0038330567 0.18337861
0.011469483 0.00021519509 0.18384233
0.011134795 0.0042391792 0.18338421
0.030615654 -0.014530341 0.14209408
0.030351367 -0.009953809 0.14148098
0.031236036 -0.0062540239 0.14152107
0.031358805 0.0078330413 0.14086807
0.030473216 -0.014505823 0.13756076
0.030046873 -0.0098043671 0.13696629
0.030251741 -0.0057558133 0.13691661
0.031161547 -0.0016980126 0.13743508
0.031605311 0.0025016658 0.13733321
0.031712551 0.0068556382 0.1372529
0.031428132 0.011569477 0.13670731
0.030987332 0.015602778 0.13613695
0.030873809 -0.013981271 0.13405666
0.030787775 -0.0092622386 0.13373601
0.030750887 -0.0072398046 0.13359857
0.031231949 -0.0015939812 0.13292867
0.031979188 0.0023615938 0.13272953
0.032346316 0.0068655084 0.13224685
0.032121524 0.011575637 0.13181296
0.031791076 0.015615678 0.13132817
0.032395873 0.0067445408 0.12848133
0.032334361 0.010115267 0.1282523
0.0052417004 0.00028752346 0.1840418
0.030437402 -0.015010479 0.13120925
0.030784301 -0.010231126 0.13133118
0.030818276 -0.0058039767 0.13143101
0.031061769 -0.0022986901 0.13025182
0.0315063 0.0014036318 0.12994307
0.029435277 -0.014288261 0.12715623
0.030260682 -0.0099515915 0.12683836
0.030743174 -0.006151733 0.12684312
0.030582802 -0.0020937885 0.12649608
0.030876262 0.0021158413 0.12579486
0.032025013 0.0057951598 0.12576336
0.03233799 0.010856397 0.12591934
0.031866994 0.015460497 0.12566876
0.031552639 0.0065563326 0.12203842
0.032101598 0.010826278 0.1216284
0.031797919 0.015096987 0.12050748
0.029412184 -0.015121471 0.12508214
0.029638257 -0.010689838 0.12376565
0.030265383 -0.00627673 0.12357122
0.029737167 -0.002216415 0.12291828
0.029922519 0.00050222734 0.12292856
0.02940309 -0.015306705 0.11946315
0.030117068 -0.010513813 0.11980736
0.030708892 -0.0064153476 0.12008762
0.03019217 -0.0023489592 0.1194402
0.029992819 0.001727609 0.11905849
0.030660715 0.0055993684 0.1188615
0.031287584 0.0098505253 0.11855602
0.031459197 0.014930738 0.11814284
0.029824376 -0.013412081 0.1158362
0.030232839 -0.010348142 0.11553323
0.030722789 -0.0064618136 0.11452758
0.03028919 -0.0025251498 0.11468375
0.030319998 0.0013690455 0.11377525
0.030655555 0.0056235339 0.11359239
0.031469822 0.0097112292 0.11406523
0.031695895 0.014289348 0.11419255
0.031544108 0.0095945084 0.1102441
0.031755362 0.013933097 0.1094166
-0.0049040997 0.00040609742 0.18437517
0.029633556 -0.011793249 0.11252773
0.030541267 -0.0080880569 0.11226809
0.030379415 -0.0026305048 0.1118443
0.030295474 0.0028287899 0.11148655
0.029232604 -0.011372179 0.10853124
0.030699287 -0.0068712882 0.10842788
0.030732853 -0.0027668409 0.10824269
0.030678596 0.0013341146 0.10798204
0.030934913 0.0054371553 0.10798711
0.031357273 0.0095067751 0.10715806
0.031496082 0.013247901 0.10659212
0.030965719 -0.005683512 0.10368991
0.030985389 -0.0029417975 0.10356379
0.030871868 0.0011679182 0.10325074
0.030608604 0.0052831518 0.10300493
0.030551638 0.0093886843 0.10254455
0.030910134 0.013681365 0.1022085
0.028937969 -0.012200046 0.10562885
0.029598253 -0.011944917 0.10184723
0.03043735 -0.0075111385 0.10206163
0.031001329 -0.0030498221 0.10062736
0.03086446 0.0010660294 0.10029399
0.030133214 0.0051937895 0.099936843
0.030358672 0.0092996312 0.099425375
0.030690296 0.01273088 0.099534869
0.029774819 -0.012144106 0.097061634
0.030603955 -0.0071525751 0.096782565
0.03068064 -0.0033784134 0.096971869
0.03018558 0.00095383159 0.096739054
0.029859321 0.0050801407 0.096239686
0.030126624 0.009394451 0.095823944
0.030799525 0.01330621 0.095642269
0.029849052 -0.0088136392 0.093972862
0.029978566 -0.0026006461 0.093764126
0.030331442 0.0095414361 0.092117429
0.030895319 0.013449303 0.090951502
0.028260879 -0.01309918 0.090799034
0.028668165 -0.0084945792 0.090253174
0.028776322 -0.003426936 0.089753091
0.028788481 0.00076115632 0.090545058
0.028853826 0.004911656 0.090387881
0.029522233 0.0084841922 0.089994967
0.030354533 0.011763407 0.089364409
0.028943028 -0.013283684 0.086402297
0.02898303 -0.0084250784 0.086186767
0.029038157 -0.0033855215 0.085544586
0.029113667 0.00055895129 0.084833741
0.029160414 0.0047206637 0.084660769
0.029361095 0.0088803899 0.084624171
0.029840674 0.013035441 0.084836602
0.030000584 0.0045981826 0.081394494
0.030374765 0.0084601799 0.080725431
0.030287759 0.012907906 0.080720425
0.028833799 -0.013414531 0.083292603
0.028757777 -0.0092458641 0.083009362
0.028819697 -0.0050738887 0.082849503
0.029357366 -0.013563908 0.079729855
0.029301576 -0.0093890587 0.079464555
0.029449634 -0.0045139072 0.079347491
0.029817071 0.00036142737 0.079428434
0.029963391 0.004500065 0.078337014
0.030292766 0.0090031167 0.077898026
0.030205403 0.012832833 0.077925026
0.02888637 -0.013752556 0.075257599
0.028686762 -0.008871452 0.074825287
0.029125469 -0.0046725697 0.075008452
0.029458217 -0.00022269072 0.073920012
0.02950149 0.0047308211 0.074358642
0.029669933 0.0085481657 0.073807895
0.030188851 0.012697716 0.073050678
0.028598173 -0.013849351 0.072963595
0.028363824 -0.0099901035 0.073060989
0.028788226 -0.0054542418 0.072706282
0.029002292 -0.00063117041 0.070614934
0.028442757 0.0040041977 0.070680916
0.029396348 0.0084561631 0.070510268
0.028370516 -0.014030033 0.06867522
0.02827595 -0.009826486 0.068373561
0.028282847 -0.0056203171 0.068164647
0.028884225 -0.0014402763 0.067480087
0.028726306 0.0034609258 0.067084074
0.02880815 0.0083630485 0.0669083
0.028856993 0.012562913 0.066738248
0.028498087 -0.014197293 0.064696252
0.028436422 -0.0099843675 0.064424038
0.028480973 -0.0057692337 0.064250052
0.029091291 -0.001292774 0.063763738
0.029258251 0.0027678893 0.062933862
0.029063702 0.0077485968 0.062270641
0.028945429 0.012436463 0.062281013
0.028103165 -0.014342778 0.061244011
0.0284846 -0.010105713 0.061383009
0.028672764 -0.0058798161 0.061342955
0.028703162 -0.0020304949 0.060659647
0.028986607 0.0039316951 0.060104728
0.029127154 0.0074452325 0.060056806
0.028832879 0.012363666 0.059531748
0.027689798 -0.014489262 0.057761431
0.02825439 -0.0099039841 0.057538033
0.02864732 -0.0059963246 0.058226109
0.028381143 -0.0017761815 0.057762146
0.028379662 0.0024515179 0.057545662
0.028415067 0.0066434117 0.056328773
0.028718591 0.011058736 0.055944443
0.027285321 -0.01068349 0.053862035
0.027315872 -0.0061482941 0.053868771
0.027215891 -0.001908563 0.053559422
0.027327266 0.0023350285 0.053449035
0.027370844 0.0065424712 0.052236319
0.027717743 0.010077127 0.052384198
0.027515888 0.014315576 0.051978707
0.027360065 -0.010555804 0.049961746
0.027425716 -0.0063016159 0.049808681
0.027641876 -0.0020469555 0.049798727
0.027692556 0.0022020182 0.049631774
0.027434299 0.0064474349 0.049171448
0.027417183 0.010694196 0.048939943
0.02801764 -0.014774301 0.046163499
0.028202431 -0.010735293 0.045536518
0.02814986 -0.0064785169 0.045271218
0.028117266 -0.0022217939 0.045025229
0.028200133 0.002035734 0.044889152
0.028157625 0.006290698 0.044633508
0.028040018 0.010544429 0.04430604
0.028185623 0.014613375 0.043977499
0.02924272 0.0047490345 0.041551769
0.028251274 -0.010984755 0.039274812
0.028126104 -0.006716087 0.038938761
0.028160641 -0.0024436237 0.038756847
0.028040376 0.0018253499 0.038425863
0.028083393 0.0062653478 0.037980437
0.028076751 0.010364622 0.038032055
0.027856555 0.014634763 0.037603974
0.027727196 -0.014028738 0.03468287
0.028063469 -0.011159397 0.03486675
0.027850935 -0.0068823141 0.034444928
0.027554359 -0.0033192644 0.033976972
0.027893238 0.0059645381 0.03384161
0.02782258 0.010244504 0.033558011
0.027411819 0.013099645 0.033014238
0.02764581 -0.011258479 0.03233695
0.027567592 -0.0069700396 0.032045543
0.027423007 -0.0023068741 0.032202363
0.027343819 0.0016412832 0.03245908
0.027512057 0.0058967294 0.0313465
0.027418869 0.010184336 0.03104049
0.028301546 -0.011404892 0.02872014
0.028265374 -0.0071103098 0.02846992
0.027421474 -0.0030166921 0.028044939
0.027428985 0.0015017013 0.028285146
0.02777241 0.0057669934 0.027339876
0.028098669 0.010062401 0.027447343
0.027747121 0.01435716 0.026886344
0.028791087 -0.01442627 0.025074959
0.028211322 -0.01157817 0.024357498
0.028071744 -0.0079941461 0.024040222
0.027930839 0.0070716999 0.023149371
0.028694937 0.0098965829 0.022234082
0.028243048 0.01326635 0.022435009
0.026287692 -0.0022134823 0.024131775
0.026341233 0.001380566 0.024005353
0.027585421 -0.011728859 0.020513654
0.027238319 -0.0071982285 0.020403385
0.026324119 -0.0030450532 0.020980954
0.026496241 0.0014297272 0.020120382
0.027211189 0.0053775334 0.020097375
0.028271556 0.0098180836 0.019050598
0.026831031 -0.011884579 0.016525507
0.026729567 -0.0085470239 0.015535295
0.02648776 -0.0045982487 0.017983675
0.026434626 0.0025411437 0.015411377
0.027154889 0.0056945481 0.01511085
0.027820077 0.0097260866 0.015362322
0.027046528 0.014080328 0.015452445
0.026733348 -0.011974744 0.014262855
0.026069846 -0.0066661956 0.014055669
0.025610805 -0.0030802158 0.014592171
0.025800297 0.00058284512 0.014148295
0.026554534 0.003917377 0.013294697
0.026752455 -0.012146766 0.0099368691
0.026250243 -0.0078151999 0.0092129707
0.025885565 -0.003475602 0.0086286068
0.026682258 0.0008856107 0.0092210174
0.026982103 0.0052314075 0.0093100667
0.026957171 0.0095710903 0.0090699196
0.026356203 0.013913797 0.0082454681
0.027031098 -0.012345043 0.0049827099
0.026369333 -0.0079758642 0.0049681664
0.026939239 0.00074535195 0.005120337
0.027185338 0.0053623314 0.0042670965
0.027016589 0.0097942213 0.0042048693
0.026519435 0.012811617 0.0033653975
0.026999474 -0.012398463 0.0036371946
0.026065145 -0.0080462508 0.0030140877
0.025560889 -0.003675797 0.0028311014
0.025988664 0.00065970642 0.0019578934
0.026641948 0.0035746994 0.0024839044
0.026350584 0.0086576324 0.001934886
0.026059167 0.013743599 0.0013855696
0.025217669 0.00057547865 -0.001031518
