# .PCD v0.7 - Point Cloud Data file format
VERSION 0.7
FIELDS x y z
SIZE 4 4 4
TYPE F F F
COUNT 1 1 1
WIDTH 455
HEIGHT 1
VIEWPOINT 0 0 0 1 0 0 0
POINTS 455
DATA ascii
0.029140672 0.0260999 0.1804668
0.027367633 0.027070444 0.17993826
0.030590829 0.027365182 0.17742437
0.028790073 0.02830513 0.17686254
0.031182431 0.028625827 0.17299086
0.030265741 0.029499743 0.17199671
0.029079512 0.018334247 0.18250045
0.026572276 0.021661252 0.18337709
0.023015704 0.024154205 0.18342793
0.02004439 0.026740707 0.1822505
0.030562067 0.019439602 0.18004352
0.028955396 0.023768578 0.18137869
0.025196899 0.027041037 0.18071842
0.021163255 0.028268423 0.17881769
0.019073587 0.029872343 0.17842054
0.031306207 0.020819234 0.17586318
0.031172881 0.024209013 0.17619571
0.026953677 0.029213527 0.17626235
0.023049792 0.029723382 0.17482761
0.020360941 0.030921752 0.17424673
0.031346671 0.025921717 0.1708259
0.028415566 0.030394459 0.17137471
0.024330072 0.030713186 0.1705336
0.030960931 0.026263895 0.16714355
0.029161228 0.029027646 0.16603911
0.023991015 0.014783893 0.184733
0.022556687 0.017091239 0.18503553
0.019206079 0.020242939 0.18468189
0.016547896 0.023611426 0.18436369
0.012729391 0.025844943 0.18376625
0.010558644 0.027396785 0.18330508
0.031320155 0.010611142 0.17957932
0.029646754 0.013008795 0.18226629
0.027351141 0.015988126 0.18378755
0.024612671 0.01872226 0.18442768
0.020775305 0.021766519 0.18447196
0.017499622 0.026030317 0.18325192
0.015356781 0.028278286 0.18187767
0.011817415 0.029383417 0.18043694
0.031554423 0.014752299 0.17832196
0.031309705 0.017965261 0.17771727
0.016761255 0.030332357 0.17734098
0.013574419 0.030861922 0.17580187
0.031488467 0.015444025 0.17416722
0.031582247 0.018485246 0.17405441
0.018045403 0.031379268 0.17315221
0.015200024 0.031359427 0.17242977
0.031433158 0.019712256 0.16980851
0.031305768 0.022985563 0.16841802
0.022965936 0.030679969 0.16715309
0.019816499 0.031764667 0.16913769
0.031411495 0.020177256 0.1661531
0.030745218 0.024036629 0.16406313
0.028609606 0.028342756 0.16317943
0.024077121 0.029765524 0.16368696
0.020965528 0.031115696 0.16560423
0.030740835 0.024887804 0.15936366
0.02933681 0.028903436 0.16023561
0.025300724 0.02946212 0.15813726
0.02929572 0.028748799 0.15540692
0.025440646 0.0089619476 0.18436059
0.02296349 0.011659183 0.18472552
0.020182125 0.01470961 0.18440798
0.016924545 0.017037746 0.18371734
0.012792313 0.020394573 0.18348402
0.01049136 0.023724172 0.18424204
0.028113052 0.0094384169 0.1826649
0.009580615 0.029946361 0.17946234
0.031397104 0.0095392894 0.17637953
0.031444404 0.012329095 0.17503822
0.011310736 0.031397268 0.17478719
0.031491499 0.010253896 0.17131147
0.031393014 0.013290135 0.17122954
0.013113278 0.031625215 0.17020261
0.031391859 0.014595503 0.16699958
0.031795524 0.017814761 0.16701519
0.017442623 0.031386551 0.16552657
0.014103966 0.031862155 0.16566601
0.010804252 0.032354675 0.16492978
0.032011967 0.015429392 0.16272718
0.030946704 0.018304707 0.16257814
0.030764319 0.022044986 0.16122645
0.022288019 0.029732006 0.16079047
0.018280879 0.030423801 0.16163036
0.014422222 0.031540506 0.16155934
0.030851234 0.018859267 0.15841955
0.03074079 0.022260267 0.15718153
0.023233544 0.029773798 0.15707576
0.019354716 0.030379191 0.15632644
0.030560236 0.023471132 0.15284872
0.029058047 0.028078195 0.15301642
0.024598595 0.030361209 0.15265024
0.020983273 0.030543925 0.15244156
0.030354999 0.024662748 0.14847717
0.029075356 0.027802227 0.14860132
0.026041692 0.029989095 0.1477567
0.018343242 0.0072072856 0.18350798
0.015298177 0.0098041017 0.18306211
0.012420304 0.012578869 0.18279049
0.0092775701 0.016033009 0.18269196
0.0067818104 0.020170545 0.18417394
0.017286461 0.011783231 0.18325612
0.013752152 0.013857911 0.18229687
0.011513233 0.01724939 0.18221092
0.031300087 0.011577565 0.16543862
0.03184858 0.01256955 0.16035405
0.013282769 0.031149235 0.15820763
0.031887032 0.014025842 0.15619835
0.030775992 0.017501393 0.15521103
0.017369792 0.030873924 0.15510175
0.014212677 0.030917203 0.15480822
0.031540036 0.014798614 0.15240839
0.030755594 0.017955299 0.15125221
0.03042946 0.021050338 0.1494146
0.018810665 0.030410541 0.14968181
0.015143862 0.030408768 0.15075803
0.030541865 0.018206893 0.14705583
0.030205265 0.022207666 0.14615709
0.023542954 0.030412478 0.1460048
0.020222684 0.030208742 0.14473131
0.02969517 0.02303444 0.14191738
0.028830763 0.026549689 0.14201874
0.025398072 0.029689185 0.14160439
0.021797489 0.030768469 0.13998351
0.027908582 0.02664141 0.13711983
0.025444772 0.029256947 0.13646746
0.015827734 0.0051663821 0.18346858
0.012859479 0.0077852271 0.18334931
0.010202608 0.010434152 0.18332136
0.0071023367 0.01365147 0.18343908
0.031335779 0.0099059446 0.15349492
0.011916201 0.030438561 0.15134788
0.03156 0.013066863 0.14965537
0.031190537 0.016145624 0.14916933
0.012950762 0.029718876 0.14722806
0.031225644 0.01404968 0.14528072
0.030643323 0.016939865 0.14444104
0.029986048 0.020257236 0.14311808
0.017745763 0.030292902 0.14384222
0.014368702 0.03000275 0.14384648
0.030183062 0.017758567 0.14002529
0.029760294 0.021059915 0.13901889
0.018533893 0.030481186 0.13837478
0.029622281 0.021959538 0.13501155
0.028715322 0.025456576 0.13508737
0.025484798 0.029909963 0.1347242
0.020924786 0.031302668 0.13431481
0.029830944 0.023228206 0.13140774
0.028477278 0.02583681 0.13033178
0.025975203 0.029162342 0.13054967
0.023170486 0.030686758 0.12944794
0.026722346 0.028389622 0.12659875
0.0082779881 0.0028776808 0.18337002
0.0056791864 0.0064346846 0.1843406
0.0029647148 0.0090594925 0.18427143
0.010603533 0.004693605 0.18316644
0.0080148019 0.0083210282 0.18389997
0.0048630182 0.011813695 0.18381155
0.010664965 0.029614583 0.14487213
0.030424435 0.01056824 0.14175463
0.012446779 0.029904518 0.14075452
0.030264741 0.011831364 0.13729224
0.030226223 0.015297285 0.13835934
0.013517058 0.030130722 0.1364795
0.0097139291 0.030836277 0.13580841
0.030169554 0.016354498 0.1338169
0.02978678 0.020078119 0.13219452
0.019175338 0.031582449 0.13125283
0.014880665 0.030644216 0.13252741
0.030346844 0.01744739 0.12904197
0.030105863 0.02120487 0.12832755
0.029157642 0.024255037 0.12774664
0.020102544 0.03097756 0.12741935
0.016742732 0.030965962 0.12750009
0.030114548 0.021722103 0.12339324
0.028423579 0.0252237 0.12400037
0.025495939 0.028243098 0.12328696
0.021705879 0.029893422 0.12236047
0.01863927 0.030711919 0.12280354
0.029879328 0.022643279 0.11964345
0.028338036 0.025085622 0.11835039
0.025807608 0.027801309 0.11826652
0.023264136 0.029331446 0.11823064
0.0039653582 0.0039263377 0.18475413
0.030238602 0.010691862 0.13171098
0.029726001 0.013528442 0.12986898
0.012804006 0.030402102 0.12921152
0.0093839262 0.030900611 0.12928647
0.03009077 0.015005225 0.12707055
0.013463696 0.030558426 0.12523741
0.01048376 0.030542728 0.12529898
0.03068231 0.017463576 0.12351277
0.03055688 0.019597679 0.12125522
0.01636775 0.030969566 0.12109166
0.030682672 0.017644711 0.11831474
0.030537562 0.021266794 0.11736023
0.02979055 0.024293561 0.1166631
0.024740685 0.028773654 0.11596644
0.021618348 0.030076034 0.11635989
0.017694753 0.031111952 0.11665362
0.030048694 0.021024685 0.11303967
0.028818753 0.025022019 0.11258435
0.026013399 0.027956774 0.1124509
0.022314146 0.029748868 0.11133212
0.019423328 0.031037793 0.11287546
0.028979618 0.025334835 0.10820669
0.026597319 0.027652828 0.10747421
0.023744211 0.029319346 0.10787982
0.00020407164 0.00041093514 0.18499666
0.028760314 0.0097859865 0.12386674
0.028982237 0.012434051 0.12400854
0.0093208738 0.030452553 0.12221652
0.029120106 0.010402173 0.12007764
0.029198211 0.013366015 0.11982918
0.011060568 0.03049531 0.11791956
0.02918667 0.014664572 0.11472565
0.015141044 0.030755647 0.11385942
0.012387202 0.030761033 0.11347067
0.029518871 0.016059047 0.11085379
0.030141613 0.020025084 0.11058724
0.01681805 0.030845698 0.10984457
0.03027257 0.020435724 0.10700577
0.029072536 0.024409866 0.1050998
0.025153998 0.028017718 0.10479414
0.022011632 0.02971823 0.10586888
0.018468009 0.03074648 0.10527432
0.029897468 0.020810323 0.10306227
0.028221145 0.023829732 0.10077471
0.025629112 0.027030846 0.10093933
0.022227518 0.029071216 0.10127068
0.019578991 0.030726934 0.10206968
0.027963001 0.025374677 0.098558784
0.026281431 0.027041871 0.097934544
-0.0037029593 -0.003117027 0.18461683
0.028778832 0.010499812 0.11668032
0.028924815 0.011378503 0.11271501
0.0094614765 0.030429214 0.11054891
0.029397404 0.013535736 0.10836613
0.011426163 0.030487794 0.10670042
0.02966653 0.015031429 0.1038968
0.029841496 0.017880565 0.10329342
0.015301054 0.030472087 0.10306102
0.01285887 0.030013867 0.10219806
0.029313879 0.019463127 0.099535823
0.020974869 0.029406341 0.098939419
0.017588474 0.030256122 0.098524213
0.028978009 0.020448104 0.095345795
0.02842829 0.023523599 0.095556498
0.025715604 0.027208723 0.094994485
0.02191915 0.028858285 0.094634235
0.018447313 0.029949937 0.094299018
0.028288325 0.024017746 0.090720177
0.026136653 0.027015267 0.090404272
0.023370132 0.028616007 0.090004444
0.028994001 0.0096531669 0.10983139
0.029428685 0.010550009 0.10668939
0.009706554 0.030870747 0.10360414
0.029421432 0.010908188 0.10196131
0.010850862 0.030460589 0.099884808
0.029304616 0.013412273 0.097533107
0.028958131 0.016655043 0.097070634
0.015377153 0.030263256 0.096089482
0.012096364 0.030665178 0.09572649
0.029069215 0.014586948 0.092954397
0.028847881 0.017922044 0.092779934
0.017115297 0.030473167 0.091740847
0.013332752 0.030979097 0.091190338
0.028649271 0.019120116 0.088707805
0.028777936 0.022438793 0.088115036
0.021517815 0.02933166 0.088295758
0.018099468 0.030586865 0.087152839
0.014735811 0.031201415 0.087267816
0.028460274 0.023767622 0.084324121
0.0262483 0.026834259 0.084393144
0.022674222 0.029077675 0.083328843
0.019395199 0.030386973 0.083238482
0.028386075 0.024309941 0.078798413
0.026630968 0.026931774 0.078697205
0.024230942 0.02841666 0.077964604
0.027021026 0.027134469 0.075061083
0.028646864 0.008885459 0.094826818
0.028384224 0.011348744 0.091099322
0.028261723 0.013605123 0.089846075
0.010234603 0.030865293 0.090070486
0.028440855 0.011645854 0.086802602
0.02798762 0.01476323 0.0863415
0.011860641 0.030621504 0.085003197
0.02783706 0.017209586 0.08195895
0.028079703 0.020787112 0.081981003
0.016191605 0.029751688 0.080020964
0.013420801 0.030357972 0.08120203
0.02778068 0.018350469 0.078288019
0.027694166 0.020636685 0.077093124
0.021213416 0.028120071 0.076123834
0.01810237 0.02871047 0.076482594
0.027882781 0.023379251 0.073341191
0.026135022 0.026591843 0.071584702
0.022621959 0.028515007 0.071868479
0.019178299 0.029104939 0.072904587
0.026028281 0.025856921 0.068515897
0.02347067 0.028515901 0.068055272
0.028518746 0.0095613878 0.083604455
0.027915034 0.012877216 0.083158553
0.01016982 0.030497942 0.081788898
0.028830156 0.011094712 0.079169035
0.028461598 0.014013319 0.079765379
0.011296704 0.03012912 0.077613473
0.028287368 0.01531511 0.075050592
0.027734315 0.01813261 0.07508707
0.015536729 0.028751422 0.073847651
0.012782292 0.029576302 0.073284805
0.028286645 0.016518975 0.071428955
0.027553413 0.019682027 0.070833564
0.017184617 0.029219495 0.069317043
0.013820508 0.029642601 0.069557548
0.026546888 0.021858018 0.065874875
0.026197325 0.025405448 0.065803826
0.022016238 0.028419524 0.065487385
0.018463995 0.028838497 0.064502537
0.025595622 0.024787253 0.061753571
0.022619409 0.027362032 0.060602367
0.028709775 0.0091202985 0.072979689
0.028349621 0.012681564 0.072180212
0.010108385 0.029400095 0.070949435
0.02858201 0.010086976 0.069049895
0.027983999 0.013674764 0.06824708
0.027340485 0.017319543 0.06718713
0.011240284 0.029287305 0.066398859
0.027027294 0.014226063 0.064370573
0.026299387 0.018026117 0.062802553
0.015182741 0.028033841 0.061309636
0.012113702 0.028726522 0.062695086
0.02665361 0.018157497 0.058666885
0.02556113 0.023271145 0.058031082
0.020661263 0.027267 0.057107985
0.017754007 0.028082356 0.057984114
0.027206557 0.019443354 0.054007351
0.025690136 0.023091493 0.053444326
0.0230659 0.026162965 0.053282678
0.019329809 0.02712163 0.053317249
0.027699383 0.020758411 0.051046193
0.026365755 0.023300743 0.049302161
0.023754567 0.026232295 0.048836827
0.020622473 0.027581792 0.050378323
0.026195135 0.024957005 0.046432555
0.024678649 0.026419157 0.046289444
0.028084429 0.0088684354 0.06247133
0.027399581 0.012739658 0.061920881
0.011013314 0.028563157 0.060285449
0.027137749 0.013795824 0.057021916
0.027558753 0.016978083 0.056836247
0.012907274 0.027603988 0.056010246
0.027965786 0.015123202 0.051794291
0.028040867 0.017258152 0.053206444
0.017237775 0.027520519 0.051674485
0.028112458 0.019037219 0.048152804
0.027210189 0.022062322 0.047372639
0.022621207 0.027424466 0.047545433
0.019023603 0.027872184 0.047340631
0.027880674 0.020615848 0.044829607
0.026761066 0.023143426 0.043309391
0.023723911 0.026607376 0.04303658
0.020118784 0.026788633 0.043246388
0.025532128 0.023957497 0.03901875
0.02424155 0.025668504 0.039203286
0.026864093 0.01041665 0.058447838
0.027361643 0.011191669 0.054606438
0.010856587 0.027468696 0.052410483
0.027828716 0.0089383172 0.050906181
0.027962197 0.012248497 0.050381899
0.01217119 0.027014688 0.048443556
0.028212821 0.013321524 0.045745611
0.027901499 0.016645456 0.044368088
0.016418023 0.027155412 0.042920828
0.012815925 0.02771477 0.044551134
0.02855878 0.013816506 0.041608453
0.027685769 0.018244442 0.04104954
0.018507609 0.027075583 0.040172338
0.014314649 0.027487032 0.04004705
0.027588584 0.018428262 0.036884844
0.026116561 0.022419918 0.036325872
0.023284527 0.025858073 0.035921931
0.018946072 0.027319683 0.036084294
0.027620722 0.019781481 0.033569992
0.025921199 0.022037268 0.032405496
0.023208557 0.025268896 0.03079164
0.020657137 0.027298585 0.031854928
0.02863317 0.011325944 0.043561518
0.011121985 0.02795963 0.041747749
0.028337959 0.0087869354 0.039602399
0.028638761 0.012283903 0.03912437
0.012231759 0.028079726 0.037983358
0.0093933092 0.028087933 0.036367297
0.028197255 0.013062027 0.034511864
0.027807802 0.016688507 0.034490049
0.017441388 0.027738348 0.033500671
0.013824325 0.027986169 0.033412814
0.02698097 0.017361369 0.029797316
0.025605187 0.021074787 0.029232979
0.018038951 0.027334493 0.028999388
0.014897991 0.027753875 0.02881813
0.026497327 0.018257715 0.025343955
0.025331197 0.02153605 0.025820851
0.023001017 0.024803409 0.025002718
0.020162538 0.026811063 0.02467376
0.028498139 0.010551326 0.032375813
0.011961917 0.028297763 0.029870808
0.02824791 0.012130553 0.028967202
0.026966538 0.014826253 0.027678251
0.013429994 0.028079426 0.026534557
0.0097245825 0.028834723 0.026882648
0.027518082 0.013139922 0.023747504
0.026939828 0.016033482 0.023875654
0.024772832 0.020422002 0.02230525
0.01770973 0.026879059 0.022473395
0.01434169 0.028555684 0.022976756
0.011392388 0.029418647 0.02164042
0.026942998 0.017574113 0.019206166
0.025437782 0.020679926 0.019484222
0.022748554 0.024290288 0.019114017
0.019107826 0.027016819 0.018699408
0.015285037 0.028732892 0.01823473
0.025384439 0.021168297 0.015197754
0.023240913 0.024542198 0.014267921
0.019972337 0.026697082 0.013998151
0.028142067 0.0097858328 0.025194705
0.027536958 0.010640136 0.021014571
0.027374167 0.011933307 0.016723394
0.027088484 0.014850905 0.016499698
0.013396615 0.028039543 0.013576627
0.010995778 0.028862327 0.016665578
0.026269417 0.01633729 0.012020946
0.025107268 0.019794587 0.01112473
0.018282376 0.026932836 0.010718942
0.015521156 0.027768621 0.011086583
0.026138935 0.017015584 0.0080375671
0.025065057 0.020384323 0.0075850487
0.022695275 0.023723362 0.0078718662
0.019119035 0.025841489 0.0068331957
0.021650115 0.023527959 0.0036689639
0.027081499 0.0088360701 0.015137255
0.026779519 0.011671195 0.010306299
0.026404109 0.013324596 0.010064244
0.011395965 0.0269338 0.0080597997
0.0091975695 0.026832927 0.0074251294
0.027189972 0.011799017 0.0052422285
0.026412442 0.014521058 0.0051210523
0.025117947 0.017864833 0.0045732856
0.01702545 0.026126759 0.0041277409
0.013653597 0.026928617 0.0043029785
0.025914762 0.015744217 0.00078624487
0.024399295 0.018980648 0.00041460991
0.021881245 0.022299103 0.00017142296
0.018197045 0.025065996 -9.7215176e-05
0.015028769 0.026522266 -0.00096058846
