# .PCD v0.7 - Point Cloud Data file format
VERSION 0.7
FIELDS x y z
SIZE 4 4 4
TYPE F F F
COUNT 1 1 1
WIDTH 457
HEIGHT 1
VIEWPOINT 0 0 0 1 0 0 0
POINTS 457
DATA ascii
-0.021817064 0.032783754 0.18167964
-0.024503348 0.030660298 0.18249187
-0.027973242 0.027003106 0.1823526
-0.022534924 0.035196815 0.17953631
-0.026733326 0.033073302 0.18008325
-0.029935915 0.028870909 0.17973143
-0.031088149 0.02492105 0.17904174
-0.024289114 0.036523558 0.17586333
-0.028964095 0.034835611 0.17637554
-0.031516958 0.030839641 0.17524001
-0.02504939 0.036661435 0.17227086
-0.028548144 0.035656933 0.1710045
-0.031892929 0.032837547 0.17028964
-0.019665139 0.024991382 0.18429828
-0.023572123 0.021293789 0.18413794
-0.026957229 0.018164851 0.18403435
-0.02993189 0.014629722 0.18357217
-0.015564889 0.034528241 0.18113729
-0.018600373 0.031671122 0.18252787
-0.021416426 0.028223203 0.18345523
-0.025482439 0.024376946 0.1836755
-0.029938182 0.02134821 0.18226019
-0.032159448 0.017085187 0.18113929
-0.017024342 0.036640648 0.17816138
-0.020477163 0.03595477 0.17904353
-0.032221932 0.023346242 0.17759374
-0.033565417 0.018815022 0.17622265
-0.018465422 0.037030004 0.17374092
-0.021812309 0.037076782 0.17427164
-0.031602964 0.028021758 0.17262924
-0.032215219 0.024236185 0.17284903
-0.033257589 0.020173658 0.17251918
-0.022868304 0.036827479 0.16960216
-0.027084537 0.036094766 0.1680176
-0.032419875 0.029535905 0.16863844
-0.031980112 0.025578069 0.16831392
-0.023499282 0.036608275 0.16611636
-0.027586695 0.034690246 0.16388214
-0.031054676 0.031953007 0.16359413
-0.031951427 0.026634969 0.16480646
-0.010318629 0.029455181 0.18333727
-0.014041068 0.027015863 0.18387666
-0.017273786 0.024214979 0.18431717
-0.020588143 0.020024728 0.18377522
-0.024252241 0.014926963 0.18394226
-0.027911089 0.012492061 0.18406844
-0.012012326 0.032412555 0.18168521
-0.014629791 0.029863119 0.18274888
-0.032557413 0.011145669 0.17901385
-0.011205936 0.036477827 0.17652163
-0.014797934 0.037068058 0.1753974
-0.033577193 0.01206169 0.17362812
-0.012258831 0.037077762 0.17068529
-0.015048951 0.036743961 0.17133704
-0.033805039 0.018644948 0.17018327
-0.033810373 0.014094244 0.16893587
-0.016502948 0.036910087 0.16714507
-0.02062016 0.036941558 0.16686881
-0.032164387 0.022896763 0.16624561
-0.033240505 0.019318977 0.1656253
-0.017949758 0.037299618 0.16268128
-0.021145903 0.035907693 0.16238853
-0.025898229 0.034944791 0.16174743
-0.031532917 0.028581217 0.16193134
-0.031832226 0.024463993 0.16183814
-0.022256607 0.036070332 0.15795419
-0.026437305 0.034875572 0.15771583
-0.030276097 0.031159086 0.15766239
-0.031093366 0.027340708 0.15650994
-0.026897665 0.035134569 0.1526641
-0.030474031 0.032487202 0.15237749
-0.031719241 0.029344039 0.1522527
-0.028419228 0.035019025 0.1490438
-0.03079005 0.033012353 0.14907834
-0.0082561933 0.021257389 0.18338019
-0.011520334 0.017926656 0.18313187
-0.015166231 0.014966152 0.18320927
-0.019314189 0.011423257 0.18321586
-0.02315608 0.0075357612 0.18384829
-0.011568928 0.024504052 0.18441275
-0.014542006 0.020928528 0.18393272
-0.017544238 0.01737746 0.18347579
-0.020059675 0.014426899 0.18310454
-0.034328878 0.011692448 0.16715664
-0.014455375 0.037521634 0.16450351
-0.032575119 0.016306544 0.16178223
-0.033499338 0.012747306 0.16226053
-0.011293825 0.036845457 0.16095871
-0.014631815 0.03712628 0.16032445
-0.03135176 0.021927251 0.15851653
-0.031437173 0.017810831 0.15857309
-0.032920193 0.01344783 0.15866259
-0.016445164 0.0372774 0.15627283
-0.019933864 0.036293231 0.15581095
-0.03123093 0.023946039 0.1550853
-0.031908978 0.020497508 0.15433604
-0.016953405 0.03725671 0.15188271
-0.020952098 0.036161769 0.15124154
-0.025558749 0.035382897 0.14980334
-0.032115217 0.025813349 0.15036997
-0.032790665 0.021665759 0.14973581
-0.021483749 0.035859987 0.14728248
-0.025796626 0.03475634 0.14616665
-0.029823828 0.032248531 0.14544806
-0.031856794 0.026992008 0.14532992
-0.029193642 0.03142263 0.14117175
-0.0060712914 0.01907495 0.18331221
-0.0095248967 0.015903898 0.18321359
-0.012234368 0.011962728 0.18337381
-0.016344674 0.0088243289 0.18342099
-0.032162916 0.016175725 0.15598688
-0.033217546 0.012443506 0.15590367
-0.011596509 0.036833081 0.15327731
-0.031675618 0.01697786 0.15245557
-0.032932896 0.013337011 0.1514363
-0.014598623 0.037027389 0.1491006
-0.032321438 0.017907742 0.14760894
-0.032687403 0.014869163 0.14809662
-0.016830653 0.036902025 0.14478207
-0.019945035 0.036297403 0.14525238
-0.023932092 0.034195997 0.1428445
-0.03295394 0.025205424 0.1429036
-0.033128943 0.020937119 0.14366654
-0.020583056 0.035597004 0.14016259
-0.024857905 0.034238547 0.13952619
-0.028917439 0.032279022 0.13895383
-0.032003522 0.027344299 0.13936895
-0.033243444 0.022757832 0.13831061
-0.025487104 0.034432732 0.13488239
-0.029059231 0.032128211 0.13469175
-0.031931035 0.02839274 0.13404977
-0.03333132 0.025341475 0.13403487
-0.0033572931 0.009657653 0.18337002
-0.0075365212 0.0065611782 0.18404749
-0.010303905 0.0031982593 0.18404728
-0.0060654702 0.012422244 0.18296614
-0.0092700766 0.0089261504 0.18353111
-0.01283186 0.0058360752 0.18351114
-0.033188399 0.010797656 0.14906299
-0.032385428 0.012168936 0.14447123
-0.011976743 0.036047902 0.14242098
-0.033024278 0.017841574 0.14131352
-0.032516774 0.013466788 0.14003932
-0.013729588 0.035795063 0.1377655
-0.017852832 0.035471108 0.13758713
-0.033241864 0.019201206 0.13701805
-0.03319414 0.01545074 0.1358923
-0.019467093 0.035843644 0.13410002
-0.023438033 0.034763727 0.13220719
-0.033246286 0.021550687 0.13273203
-0.020139284 0.035531644 0.1289129
-0.024634443 0.034453753 0.1283963
-0.028427668 0.031859268 0.12855613
-0.031365864 0.028162429 0.12796187
-0.032729801 0.023461388 0.12745619
-0.024659008 0.03480522 0.1233356
-0.028472938 0.032243643 0.12304953
-0.030957732 0.028782981 0.12300253
-0.032554571 0.025143536 0.12307841
-0.026338128 0.034784071 0.11956447
-0.028535224 0.032531511 0.11939442
-0.030706089 0.030253762 0.11919796
-0.0045831976 0.0045356099 0.18443879
-0.033167161 0.011310834 0.13800067
-0.033104829 0.01261388 0.13342124
-0.013072125 0.035022486 0.13108608
-0.015823465 0.034717854 0.12990755
-0.033523086 0.01553652 0.1296593
-0.033022426 0.011569612 0.12949204
-0.016821779 0.034826569 0.12660164
-0.033295795 0.021200165 0.1261048
-0.033318825 0.017345227 0.12529099
-0.020294257 0.035721093 0.12343466
-0.022864161 0.035649907 0.12125498
-0.031501148 0.027223403 0.12049806
-0.032681968 0.022439703 0.12140518
-0.033362217 0.019239327 0.12124321
-0.020535743 0.035749771 0.11826569
-0.024641739 0.03546666 0.1171906
-0.028836533 0.03299205 0.11690003
-0.03126454 0.028709667 0.11669606
-0.031893421 0.024805808 0.11680102
-0.024170268 0.03522189 0.11360329
-0.028382765 0.032844633 0.11175913
-0.031240549 0.028976001 0.11166775
-0.028846832 0.03352005 0.10847425
-0.031519938 0.030604513 0.10817039
-0.0008181032 0.00066622451 0.18489039
-0.011256152 0.033736534 0.12379238
-0.014727177 0.034018096 0.12422234
-0.033478111 0.014689078 0.1227124
-0.033830915 0.01161966 0.12220407
-0.012457429 0.034271285 0.1203897
-0.015627597 0.034339093 0.11960548
-0.033167604 0.016228167 0.11828756
-0.034048807 0.012320736 0.11726511
-0.017701399 0.034818631 0.11494201
-0.032265261 0.021841176 0.11536503
-0.03304933 0.017653164 0.11373866
-0.018963728 0.034652539 0.11108232
-0.023783404 0.035018109 0.11071169
-0.032280412 0.027925435 0.1090039
-0.032414038 0.023405164 0.11046553
-0.033302132 0.01981689 0.10892284
-0.023996338 0.035464011 0.10716361
-0.028503351 0.03336443 0.10529089
-0.031359538 0.029455243 0.10549951
-0.032594759 0.024743836 0.10622138
-0.024327753 0.034926835 0.10311264
-0.027787739 0.032459326 0.10070223
-0.030428827 0.029299244 0.1015206
0.0036420524 -0.004314261 0.18443245
-0.012235725 0.034263626 0.11736906
-0.01295283 0.034172151 0.1127907
-0.033159796 0.014931526 0.11105627
-0.03398465 0.011432708 0.11125553
-0.016050164 0.034537937 0.10862464
-0.033307232 0.01644434 0.10706818
-0.03332255 0.012970285 0.10712755
-0.017663481 0.034729347 0.10402501
-0.020939499 0.034889225 0.10337389
-0.032122571 0.022362262 0.10289896
-0.033173498 0.019065328 0.10295725
-0.022675805 0.034169838 0.0995031
-0.026173469 0.033628691 0.099372804
-0.030181527 0.027475361 0.098895431
-0.031382997 0.023637943 0.098603725
-0.032587677 0.01960285 0.098633468
-0.023992896 0.033937354 0.09548831
-0.027166009 0.032609008 0.095346153
-0.030176498 0.028857579 0.094736516
-0.030987628 0.025130395 0.09402138
-0.02763501 0.033060495 0.090461373
-0.030617774 0.029884195 0.08984375
-0.012414782 0.03443186 0.10679543
-0.033935186 0.011039463 0.10524225
-0.01324765 0.034732066 0.1020205
-0.032897003 0.015945293 0.10069323
-0.033575632 0.011221749 0.10037827
-0.016141739 0.03426218 0.097348392
-0.019489804 0.033839867 0.097131491
-0.031895746 0.021322744 0.096287906
-0.032679211 0.0175015 0.096087098
-0.015118635 0.034212731 0.094160378
-0.020199811 0.033723962 0.092460573
-0.031829361 0.023136787 0.092038274
-0.032928921 0.019415947 0.091161668
-0.022885658 0.034176789 0.088502824
-0.02684232 0.033877462 0.087966323
-0.031863 0.028708935 0.08756727
-0.032425266 0.024663737 0.087522626
-0.033104815 0.020768804 0.086634755
-0.022821203 0.033500388 0.083678901
-0.027623478 0.033461716 0.084383368
-0.031050863 0.030374542 0.084116578
-0.032564126 0.025976498 0.083151817
-0.028048106 0.032953385 0.079377472
-0.030451883 0.030606678 0.07942903
-0.010862561 0.033880025 0.095330894
-0.031936865 0.014513599 0.093469381
-0.032385014 0.010289514 0.093312621
-0.012329106 0.033488728 0.090753853
-0.015912026 0.033008832 0.089886904
-0.032607369 0.015378165 0.090304792
-0.032762449 0.012098744 0.088526547
-0.014166344 0.033786058 0.086437702
-0.016974987 0.033403642 0.086243153
-0.032873563 0.017592145 0.085126221
-0.033316635 0.014040409 0.084897339
-0.01914436 0.033360835 0.081701875
-0.023751426 0.032405455 0.079502881
-0.031997561 0.023843978 0.080148458
-0.033136323 0.01877494 0.080484509
-0.021326926 0.033117108 0.077983141
-0.025108978 0.032269064 0.076094747
-0.030093489 0.029404037 0.075815022
-0.031653859 0.024142332 0.076204896
-0.032411348 0.02053774 0.077095926
-0.025753718 0.032094263 0.072685003
-0.029621117 0.029610883 0.0718413
-0.031624593 0.02606719 0.072228074
-0.027254174 0.03199831 0.068951905
-0.029805806 0.029988939 0.068607688
-0.010387831 0.033719096 0.088168263
-0.011190827 0.033956032 0.083724976
-0.033705566 0.011532924 0.082367778
-0.013268711 0.034524884 0.079343796
-0.016131951 0.03392864 0.079466045
-0.033034407 0.016484601 0.077086389
-0.034194484 0.013227465 0.078075469
-0.014334449 0.034737967 0.074947953
-0.017814998 0.033901207 0.075004876
-0.021574102 0.032815561 0.074561834
-0.032536764 0.018476687 0.073933482
-0.033866804 0.014379284 0.073589921
-0.018524885 0.033715624 0.070232093
-0.022817593 0.032794751 0.070462048
-0.031932235 0.023352459 0.069873095
-0.03238019 0.019979851 0.069035232
-0.024963314 0.032174408 0.065794349
-0.029729618 0.030069426 0.065862477
-0.031625513 0.025320442 0.065522671
-0.026507556 0.031639416 0.062206328
-0.029128388 0.029729601 0.061005056
-0.030834537 0.026826059 0.060620487
-0.033971976 0.010503909 0.074101985
-0.0112369 0.03457731 0.072629213
-0.032414421 0.016158219 0.070478141
-0.033641081 0.012091538 0.070780814
-0.012137219 0.034148872 0.068348765
-0.016223976 0.033622086 0.068145633
-0.032194901 0.016904155 0.066715419
-0.032987934 0.012646737 0.067082942
-0.016424127 0.032951999 0.063750565
-0.021005582 0.032375172 0.063283503
-0.03073325 0.021997515 0.060753822
-0.031275548 0.018207971 0.062485218
-0.032267675 0.013991191 0.062978745
-0.018543858 0.033019774 0.059774995
-0.022428967 0.032083344 0.05847019
-0.027122434 0.030179491 0.058060169
-0.030613611 0.024001792 0.05777216
-0.031038983 0.020106301 0.057721853
-0.02239329 0.032029755 0.0540241
-0.027089836 0.030115407 0.053613365
-0.030129179 0.026796883 0.053257406
-0.031237816 0.022919955 0.053320229
-0.024218144 0.032315951 0.051046193
-0.027253632 0.030826831 0.049381375
-0.030784756 0.027092896 0.048793554
-0.028547904 0.031150747 0.046480298
-0.030822344 0.028791759 0.046289444
-0.033215843 0.010942336 0.064420342
-0.011055478 0.033727061 0.062178195
-0.014636286 0.033654392 0.0611552
-0.03140435 0.013236918 0.059665263
-0.032974321 0.010043031 0.061014891
-0.01160456 0.033215493 0.05719924
-0.016215229 0.033524372 0.057791293
-0.031181376 0.017938837 0.056496918
-0.030402321 0.014791744 0.055225849
-0.018060803 0.033549272 0.05310148
-0.021150924 0.033007018 0.052555919
-0.031239236 0.020013101 0.05207777
-0.022414468 0.032991271 0.048384309
-0.026308604 0.032289252 0.048022568
-0.031926058 0.022974679 0.047910094
-0.023305159 0.032615867 0.043770075
-0.02721996 0.031491105 0.043263555
-0.031026104 0.027662031 0.043017864
-0.031365581 0.023582194 0.043376803
-0.02817609 0.030005021 0.039281428
-0.030396458 0.028718796 0.039728761
-0.031520881 0.011101047 0.056731761
-0.013609179 0.033099052 0.054053307
-0.030855689 0.012573185 0.05309993
-0.010012982 0.03281226 0.05123806
-0.014463915 0.033037182 0.050311387
-0.03075595 0.017874602 0.04895401
-0.030767038 0.012762903 0.04839623
-0.015566346 0.032938268 0.045773089
-0.019897314 0.033001784 0.044909418
-0.031486955 0.01946437 0.04457581
-0.031423159 0.014678496 0.044532478
-0.016342178 0.033127263 0.041965425
-0.021083312 0.032588169 0.04069531
-0.031370033 0.021376329 0.039917529
-0.031414516 0.016556943 0.041175723
-0.021547161 0.032231625 0.036939561
-0.026285795 0.030593399 0.036476254
-0.030280137 0.027274419 0.036053717
-0.031724311 0.021956613 0.035908997
-0.023078389 0.032224175 0.033569992
-0.026191995 0.030309059 0.031591058
-0.029592339 0.027185449 0.030924201
-0.031876195 0.024127187 0.031888247
-0.030051321 0.027802477 0.028391182
-0.012616752 0.032850761 0.042892277
-0.032257736 0.012562994 0.04234761
-0.014020369 0.032963078 0.038815439
-0.031843744 0.014459371 0.037748456
-0.032566614 0.010753939 0.036127687
-0.015245768 0.032501385 0.034623206
-0.019343099 0.032323204 0.034343839
-0.031749628 0.01974168 0.03277576
-0.031992093 0.015846938 0.032904267
-0.020455388 0.031667702 0.030031085
-0.023688197 0.030702984 0.029775202
-0.031627111 0.020997275 0.02924633
-0.031389508 0.017143682 0.028818071
-0.021470336 0.031074557 0.025543332
-0.025849745 0.030105758 0.025612056
-0.030008685 0.02793261 0.025254667
-0.031936951 0.02395761 0.024901032
-0.025945749 0.029962128 0.020991504
-0.029427633 0.027597981 0.020425439
-0.031313416 0.024730511 0.020756006
-0.013285561 0.032637391 0.032544374
-0.032399543 0.01323976 0.031206369
-0.013846873 0.03267153 0.028615773
-0.018488269 0.031502359 0.027314663
-0.031056061 0.019368596 0.025760531
-0.03219761 0.014841815 0.027119219
-0.032894593 0.010943021 0.026314199
-0.015216022 0.031997889 0.023614645
-0.018773589 0.031627886 0.023632169
-0.022771753 0.030200511 0.022524238
-0.031295702 0.019764025 0.022937894
-0.032770108 0.016468707 0.022764742
-0.020645974 0.031569079 0.019375563
-0.02443745 0.030339964 0.018746078
-0.030277368 0.026270976 0.016844749
-0.031886194 0.022212656 0.018759251
-0.033093646 0.017849838 0.018101096
-0.025226116 0.029980944 0.014843464
-0.028880408 0.027660601 0.014497101
-0.03172344 0.023401687 0.01395154
-0.032580148 0.019154942 0.013603806
-0.026127025 0.02958251 0.01006496
-0.029320652 0.028013645 0.010932326
-0.031439405 0.025408097 0.010488868
-0.011474011 0.032885458 0.025260687
-0.012261223 0.031984873 0.020837545
-0.032684952 0.0099961497 0.019692838
-0.013751963 0.031777252 0.016522646
-0.017652765 0.031685684 0.01728338
-0.032917283 0.015405173 0.014273167
-0.03290632 0.012054757 0.015728831
-0.018904582 0.030886356 0.012084544
-0.022860432 0.030158952 0.01140523
-0.031990837 0.021141838 0.01020956
-0.032769188 0.018046256 0.010397613
-0.019890845 0.030596949 0.007037282
-0.02340533 0.029838024 0.007314682
-0.028444666 0.026724461 0.0068566799
-0.031471997 0.022687294 0.0074313283
-0.032920789 0.019858783 0.006662488
-0.024332318 0.029268526 0.0044400096
-0.027452653 0.026974438 0.0034849644
-0.030558851 0.0230307 0.0035152435
-0.010239044 0.031530418 0.015055776
-0.013427635 0.031066451 0.010082066
-0.015375987 0.030645844 0.0098621845
-0.031906188 0.013780657 0.0086551905
-0.032484073 0.010189695 0.0080789328
-0.013368158 0.031282548 0.0058184862
-0.016855519 0.030734001 0.0050178766
-0.032493535 0.01559543 0.0042849183
-0.032505147 0.012234237 0.0025396943
-0.0187255 0.030787352 0.00033682585
-0.022693021 0.029359262 0.00070464611
-0.026999444 0.026230339 -0.00034219027
-0.03055279 0.022110792 -4.8995018e-05
-0.032568034 0.01738736 -0.00063514709
-0.0096426457 0.03013243 0.002877593
-0.011664849 0.029966036 -0.00044286251
-0.014779337 0.030756116 -0.0013802052
