# .PCD v0.7 - Point Cloud Data file format
VERSION 0.7
FIELDS x y z
SIZE 4 4 4
TYPE F F F
COUNT 1 1 1
WIDTH 374
HEIGHT 1
VIEWPOINT 0 0 0 1 0 0 0
POINTS 374
DATA ascii
0.0059874984 -0.027433634 0.18406022
0.0092751049 -0.027893135 0.18421322
0.013217952 -0.0276102 0.18379235
-0.0066882814 -0.028935108 0.18043041
0.0015089629 -0.029132316 0.18103132
0.0051942207 -0.029591458 0.1811659
0.0091352686 -0.029616747 0.18096912
0.013076158 -0.02939512 0.1805917
0.0063607087 -0.029885123 0.17679599
0.014258355 -0.029741101 0.17625934
0.0094410246 -0.02152833 0.18503442
-0.011807189 -0.024345212 0.18460846
-0.0078378012 -0.024494853 0.18449891
-0.0038800454 -0.024238434 0.18409741
0.0005597882 -0.024360435 0.1837779
0.0048903953 -0.02374455 0.18393904
0.0093577038 -0.024567859 0.18451142
-0.011960035 -0.027754478 0.18075904
-0.0081078168 -0.028142044 0.18091497
-0.0040374016 -0.02816442 0.18062675
-0.00095939427 -0.028375626 0.1806125
-0.012192511 -0.028960347 0.17530206
-0.008219162 -0.029280169 0.17532417
-0.0042637656 -0.029078977 0.17495981
0.00036488261 -0.029609136 0.17510098
0.0048098043 -0.02982315 0.17479077
0.0089361947 -0.029672027 0.17468098
0.0127184 -0.029594269 0.1741904
-0.015024246 -0.029349754 0.17118508
-0.012374304 -0.029405849 0.17108351
-0.0084298672 -0.029776096 0.17023277
-0.0044614188 -0.029746618 0.16999522
1.1654837e-06 -0.03016397 0.17023206
0.0045305686 -0.030254245 0.1697053
0.0087655075 -0.03058878 0.16991043
0.012725096 -0.03055409 0.16966972
-0.0072228936 -0.030905485 0.16735697
-0.0044638729 -0.031302758 0.16590387
-0.00066565082 -0.031401925 0.16554463
0.0037884766 -0.031234555 0.16534317
0.0086220633 -0.03093522 0.16560495
0.012734375 -0.031097276 0.16481751
0.016530534 -0.031077556 0.16436788
-0.0021108889 -0.03219647 0.16255337
-0.0078566819 -0.018668942 0.18393782
-0.0038545004 -0.019116895 0.1840387
0.00047761522 -0.018661635 0.18393013
0.0050260732 -0.018665008 0.18383449
0.0094962083 -0.018640229 0.18477973
-0.01249969 -0.029256105 0.16822955
-0.012662465 -0.029189739 0.16450864
-0.0088175517 -0.030257516 0.16488391
-0.0060487264 -0.030781798 0.16352409
0.0058832597 -0.03061218 0.16274995
0.008534262 -0.030435767 0.16247195
0.01118615 -0.030371394 0.16227949
-0.01242753 -0.029306326 0.15965787
-0.0087133385 -0.029642906 0.15932971
-0.0048753349 -0.030435205 0.15950021
-0.00072329916 -0.03073832 0.15927935
0.0037678045 -0.030386619 0.15899736
0.0084155332 -0.029366715 0.15796193
0.012578474 -0.029974222 0.15843591
-0.0016920349 -0.030226912 0.15546188
0.001638809 -0.030166166 0.15523553
0.012297507 -0.029971771 0.15451124
-0.0078619765 -0.014861789 0.18377206
-0.0038523132 -0.014445356 0.18343809
-9.0885376e-05 -0.014966266 0.18378395
0.0041881832 -0.015240669 0.18374366
-0.014582251 -0.028464267 0.15739384
-0.010296943 -0.029710038 0.15738207
0.011022164 -0.029321346 0.15593341
-0.013804597 -0.029460669 0.15365404
-0.009121079 -0.029586146 0.15350088
-0.0051097693 -0.029720256 0.15338948
-0.00093133643 -0.029775381 0.1526753
0.003744161 -0.029550586 0.15261209
0.0082399314 -0.029296057 0.15234202
0.012237959 -0.029512167 0.15206194
-0.013056071 -0.029624922 0.14925575
-0.0091622695 -0.030000534 0.14845204
-0.0051124343 -0.02987 0.14843312
-0.0014581941 -0.030247502 0.14823326
0.0032396552 -0.030171428 0.14839017
0.0075734025 -0.030075993 0.1472097
0.011905135 -0.029668655 0.14736262
-0.003817949 -0.0079209469 0.183393
0.00059460104 -0.008777312 0.18421108
0.0042847395 -0.0092605697 0.18388924
-0.0038405482 -0.010154946 0.18313664
0.00021494713 -0.011469483 0.18384236
0.0042421082 -0.011526755 0.18366107
-0.014787452 -0.028699229 0.14668682
-0.010778761 -0.029380713 0.14593694
-0.0060769962 -0.029532909 0.14580587
-4.2902571e-05 -0.029375348 0.14535818
0.0019688308 -0.029314909 0.14520264
0.01269903 -0.029000146 0.14437926
0.015378132 -0.029331975 0.14449868
-0.013927326 -0.028407965 0.14174613
-0.009590907 -0.029421637 0.14213479
-0.0055529582 -0.029543485 0.14201605
-0.0015167876 -0.02970212 0.14192706
0.0025121283 -0.029559987 0.14159855
0.007214807 -0.029557433 0.14134532
0.011917962 -0.029092619 0.14072379
-0.013808524 -0.028970668 0.138212
-0.009763645 -0.028896842 0.1379371
-0.0057164882 -0.028917892 0.13773835
-0.0015470998 -0.029757295 0.13653052
0.0023224833 -0.030062301 0.13633338
0.0070381262 -0.030478375 0.13641936
0.01174835 -0.030200601 0.13594413
0.01578624 -0.030053258 0.1356101
0.0030779291 -0.030773776 0.13243443
0.006713633 -0.031122565 0.13196978
0.010904253 -0.031214016 0.13110748
0.015651856 -0.030713081 0.13139978
2.9978475e-05 -0.0056154216 0.18450055
-0.014666439 -0.028252959 0.13560259
-0.0098792547 -0.028973682 0.13515231
-0.0058220238 -0.02914427 0.13507456
-0.0031383506 -0.029995527 0.13467056
-0.014097214 -0.027962055 0.13169253
-0.0098597081 -0.028978126 0.13092816
-0.0060089338 -0.029101662 0.13027757
-0.0019386928 -0.029541748 0.13042051
0.0016537718 -0.030096838 0.1300469
0.005452401 -0.031597547 0.12980342
0.012871126 -0.031320743 0.1291832
0.015570453 -0.031145811 0.12889665
-0.0088692671 -0.029195206 0.12667161
-0.0059026387 -0.029640708 0.12611297
-0.0027601495 -0.029389808 0.1265085
0.0019863339 -0.029515233 0.12636054
0.0059984061 -0.030915499 0.12538239
0.010734645 -0.031415973 0.12554595
0.015309343 -0.030635426 0.12489882
0.0072311652 -0.030859556 0.1214253
0.0092655662 -0.031291828 0.12167817
0.012653839 -0.031089306 0.12133065
0.00035535597 -0.00079194136 0.18461749
-0.010865249 -0.028028931 0.12774023
-0.010499858 -0.028789453 0.12425682
-0.0066151926 -0.029611025 0.12352768
-0.0019814579 -0.029264025 0.12388986
0.001884841 -0.029335704 0.12333217
-0.013221191 -0.028321879 0.1203897
-0.010365573 -0.029167311 0.11924851
-0.0064286422 -0.030222366 0.11968005
-0.0023658792 -0.029342959 0.11873102
0.0017160582 -0.029135637 0.11834234
0.00562541 -0.029490249 0.11819059
0.01006278 -0.030288117 0.11831397
0.014819681 -0.030474493 0.11859685
-0.0065983348 -0.030234575 0.11533779
0.006005913 -0.029852629 0.11435312
0.009533044 -0.030217664 0.11357272
0.013814737 -0.030390296 0.11349303
0.00012515539 0.0049351114 0.18418467
-0.012910465 -0.028148839 0.11699355
-0.011487539 -0.028700914 0.11283559
-0.0067126304 -0.029792752 0.11234045
-0.002585656 -0.02909405 0.11270112
0.0015127371 -0.028962033 0.1123746
0.0053066546 -0.029760413 0.11168236
0.010335414 -0.030135257 0.11095667
0.013747145 -0.030096378 0.11074466
-0.010971993 -0.028467281 0.10869813
-0.0068702805 -0.029344134 0.10825062
-0.0027718251 -0.02877995 0.1075536
0.0013473917 -0.028739844 0.10750008
0.0054274881 -0.029661708 0.10689735
0.0095358379 -0.029861109 0.10685295
0.013642651 -0.029486163 0.10631657
0.006673716 -0.029674377 0.10291427
0.0087316791 -0.029636877 0.10277438
0.0017799842 0.0071171522 0.18370476
-0.011759761 -0.028469477 0.10628575
-0.0069915676 -0.029108457 0.10510945
-0.0028753234 -0.029002342 0.10480314
0.0012573174 -0.028827922 0.10492903
-0.011931369 -0.028825726 0.10216659
-0.0071276878 -0.029740078 0.10171849
-0.0030030492 -0.029804247 0.1015588
0.0011186041 -0.029811654 0.10135013
0.0050591412 -0.029755916 0.10084963
0.0095376419 -0.029688273 0.10024035
0.013477797 -0.029653225 0.10056853
-0.012093632 -0.028887954 0.098270237
-0.0073180241 -0.029826932 0.096855879
-0.0031844128 -0.029817121 0.096632361
0.00062121241 -0.029881392 0.096986473
0.0051128906 -0.029967735 0.097324729
0.0094916001 -0.029576795 0.095961571
0.013524701 -0.029813085 0.095334828
0.010500318 -0.029496789 0.092660427
0.01323901 -0.029801641 0.092122674
-0.013281507 -0.027598295 0.094720423
-0.010180417 -0.027837038 0.094270587
0.0015841557 -0.028421147 0.09417057
0.0050308504 -0.02767539 0.093338311
0.0077959043 -0.02764816 0.093170762
-0.013096422 -0.027239084 0.090900481
-0.00825895 -0.027981417 0.090301216
-0.0034030208 -0.02817893 0.090223849
0.00074994884 -0.028036492 0.08988291
0.0049041668 -0.027942641 0.089584708
0.0088787153 -0.028497629 0.089618862
0.012895972 -0.029179063 0.089063764
-0.0063277287 -0.028152108 0.086343586
-0.002187327 -0.028725283 0.085634589
0.00055850617 -0.029082963 0.084806323
0.0047196532 -0.029037748 0.084550977
0.0088803088 -0.029146008 0.084432781
0.013037816 -0.029382501 0.08442831
0.008761554 -0.030261705 0.08141458
0.012621668 -0.030335682 0.080475748
-0.01323181 -0.027010713 0.087697506
-0.013362398 -0.028001241 0.084560633
-0.0091891857 -0.028022289 0.084363759
-0.0045647048 -0.028292809 0.083918571
-0.013385383 -0.028210402 0.079265296
-0.0094151776 -0.028486185 0.078730345
-0.0045275642 -0.028891683 0.078844428
0.00036165118 -0.029826932 0.079437912
0.0045323428 -0.029919403 0.079306066
0.0086709401 -0.030246582 0.078378558
0.013171074 -0.030262623 0.077656209
-0.0039812173 -0.028815048 0.074690759
-0.00034788251 -0.029622316 0.07396692
0.0043644235 -0.029395375 0.07377243
0.0085483538 -0.02966232 0.0738011
0.012726156 -0.030158248 0.074038565
-0.014401229 -0.027982848 0.076503992
-0.013857529 -0.027320419 0.072818398
-0.0096304417 -0.028067453 0.073281407
-0.005452754 -0.028335929 0.072632253
-0.00095928408 -0.029215489 0.071337223
0.0042653959 -0.029312816 0.070648551
0.0084564332 -0.029304948 0.070426524
0.012645703 -0.029342804 0.070246518
-0.014042731 -0.02805887 0.068389058
-0.0098199872 -0.028475966 0.068557739
-0.0057962793 -0.028631227 0.068238497
-0.0007196287 -0.030068688 0.068534195
0.0041660261 -0.029181208 0.067466736
0.0083627701 -0.028602617 0.066719413
0.012565022 -0.028389063 0.066307962
-0.013495224 -0.028485265 0.064648569
-0.0097215585 -0.028880699 0.063999057
-0.0057921889 -0.029084496 0.0637815
-0.0013900037 -0.029389398 0.06339848
0.0027715026 -0.029553907 0.063208401
0.007538639 -0.028932402 0.062960029
0.012480456 -0.028208971 0.063066244
-0.014534025 -0.027897222 0.061503291
-0.010467302 -0.02880013 0.061179757
-0.0059033073 -0.029256923 0.060857892
-0.0023863246 -0.029397318 0.060809731
0.0039343727 -0.029259324 0.060359001
0.0074615097 -0.029177837 0.060618877
0.011986329 -0.02893373 0.060528815
-0.014503316 -0.027360933 0.057454109
-0.0099792341 -0.028512852 0.057473302
-0.0060357717 -0.028623667 0.05716908
-0.0015191904 -0.028585656 0.057110786
0.0021413735 -0.028328164 0.056683421
0.0069327857 -0.028481381 0.056583464
0.011058524 -0.028686099 0.055914283
-0.014324695 -0.026930554 0.054962397
-0.010758725 -0.027530041 0.053784668
-0.006169368 -0.027980141 0.053456187
-0.0022682596 -0.02779964 0.053608119
0.0026745743 -0.027596354 0.053165436
0.0062067499 -0.027588539 0.052978814
0.010076862 -0.027864933 0.052523136
0.014313318 -0.027855635 0.052299321
-0.010539677 -0.027849607 0.050425887
-0.0063185981 -0.028255718 0.049553096
-0.0020666453 -0.028031128 0.049385607
0.0023561898 -0.027927876 0.049063623
0.006425471 -0.027825339 0.048760355
0.010848386 -0.027852111 0.048561692
0.014908455 -0.028004255 0.048239291
-0.014129964 -0.028084874 0.046015322
-0.01072526 -0.028503094 0.045823276
-0.0065073315 -0.028538551 0.04459542
-0.0022349874 -0.028517757 0.044809163
0.0018198501 -0.028675828 0.044755697
0.0062745907 -0.028536558 0.044397533
0.010324448 -0.028333783 0.043999076
0.01476557 -0.028699331 0.043675244
-0.010152662 -0.029356956 0.042412519
-0.0062621343 -0.029565249 0.041890979
-0.0020061326 -0.029465165 0.041580021
0.0016021058 -0.029467821 0.041085184
0.0061428654 -0.029393945 0.040785193
0.010393611 -0.029398084 0.040364742
0.014372885 -0.029207978 0.040191174
-0.014572392 -0.027602434 0.038827777
-0.011191126 -0.028843455 0.039256036
-0.0070183878 -0.029198425 0.038727283
-0.0027531344 -0.029107435 0.038424075
0.0021409248 -0.028968828 0.037726998
0.0060543846 -0.029262338 0.037815392
0.010303741 -0.029306684 0.037117124
0.014938311 -0.029072234 0.037184417
-0.014014533 -0.028085692 0.035031617
-0.011466921 -0.028410673 0.03437078
-0.0069004935 -0.028638687 0.034152031
-0.0023364117 -0.028190222 0.033697844
0.0016575253 -0.028561132 0.03364706
0.0061297128 -0.029170837 0.033562422
0.010183431 -0.029144321 0.032726288
0.01449308 -0.028233647 0.032683551
-0.0098119769 -0.028141942 0.032749951
-0.0041040098 -0.027813895 0.032142937
0.0058372947 -0.028393202 0.030083358
0.012981256 -0.028084006 0.029422164
-0.011394578 -0.028594289 0.029008389
-0.0071053347 -0.028441582 0.02864331
-0.0028141753 -0.028328571 0.028317332
0.0014775747 -0.028222971 0.027998805
0.0055481815 -0.028348906 0.027309418
0.010031708 -0.028817143 0.027090728
0.014525228 -0.028185675 0.027043402
-0.014474921 -0.028683288 0.023895919
-0.011552466 -0.028939452 0.025078893
-0.0072538746 -0.028861029 0.02478683
-0.0029682347 -0.02813622 0.023853719
0.0020570531 -0.028490527 0.023954868
0.0060776398 -0.02890701 0.022737741
0.00987917 -0.029338105 0.022262096
0.01418741 -0.028791904 0.021771312
-0.011720112 -0.027841125 0.020768642
-0.0074088839 -0.027658531 0.020372033
-0.0031060779 -0.027034931 0.019535124
0.0010286048 -0.027447531 0.020203173
0.0045699733 -0.028075576 0.019833624
0.014130065 -0.027948108 0.018512905
-0.011869376 -0.027275257 0.016970515
-0.0075419121 -0.02724077 0.01672101
0.0015496127 -0.027800355 0.015388668
0.0053755236 -0.02845972 0.015139461
0.0095230807 -0.028715985 0.015461743
0.014046269 -0.027719021 0.015046477
0.0016669194 -0.028244939 0.011855066
0.0066837394 -0.028060403 0.010333002
0.0095921475 -0.028069291 0.010922909
-0.011993715 -0.026208298 0.013735056
-0.0076514515 -0.026277117 0.013589025
-0.0032843521 -0.025846839 0.014025629
-0.00042357508 -0.026167478 0.013120234
-0.012152483 -0.026604805 0.0097876191
-0.0078002024 -0.026776824 0.0097460747
-0.0034565693 -0.026741829 0.0094958544
0.00039143648 -0.027467608 0.0093163252
0.004909493 -0.027928643 0.0089803338
0.0098863095 -0.027796881 0.0082738996
0.013720422 -0.027161531 0.008800447
-0.011875561 -0.027285116 0.0046352148
-0.0081995949 -0.027809961 0.0048866272
-0.0036324551 -0.027492234 0.0048062801
0.0009169323 -0.027965631 0.004596293
0.0050407904 -0.02840112 0.0042133927
0.0093853269 -0.028326631 0.0039234161
0.013732029 -0.027834892 0.0032062531
0.0063573271 -0.028307931 -0.00033378601
0.0092600808 -0.028152261 -0.00063711405
0.012889662 -0.028056724 -0.00091403723
-0.013853233 -0.026959777 0.003668189
-0.0080282297 -0.027155809 -0.0010938644
