# .PCD v0.7 - Point Cloud Data file format
VERSION 0.7
FIELDS x y z
SIZE 4 4 4
TYPE F F F
COUNT 1 1 1
WIDTH 420
HEIGHT 1
VIEWPOINT 0 0 0 1 0 0 0
POINTS 420
DATA ascii
0.027936127 -0.020149009 0.1825141
0.029349156 -0.016509365 0.18178684
0.029990006 -0.013950924 0.18135953
0.02785044 -0.023635924 0.17992786
0.029983539 -0.021104978 0.18013966
0.030643897 -0.017160669 0.17926002
0.031923994 -0.014188391 0.17821559
0.028964709 -0.023675328 0.176714
0.030962247 -0.02152973 0.17575136
0.032039858 -0.018105764 0.17561156
0.032314252 -0.015152536 0.17609185
0.027411187 -0.0048749335 0.18388391
0.028923206 -0.0015705014 0.18423191
0.029839855 0.0012381766 0.18345463
0.021880221 -0.024908796 0.17965055
0.02425731 -0.022737619 0.18207854
0.025685854 -0.019187478 0.18314692
0.026512628 -0.015260069 0.18311337
0.028747579 -0.011093989 0.18247986
0.030455234 -0.0069824299 0.18205878
0.031782039 -0.0032753982 0.18170211
0.032057259 0.00087643694 0.18050879
0.023451108 -0.025658943 0.17731664
0.026307322 -0.024984833 0.17854065
0.031455711 -0.011838749 0.17847073
0.032486487 -0.0080345552 0.17743251
0.032702282 -0.0038697263 0.17618248
0.032591287 -0.00020534359 0.17669824
0.024697816 -0.026333429 0.17383739
0.027905704 -0.024947159 0.17439353
0.029906351 -0.022794452 0.17343006
0.031994678 -0.017283108 0.17297518
0.032594088 -0.01303671 0.17359066
0.032306708 -0.0083433576 0.17249593
0.032311961 -0.0052564796 0.1727584
0.02830993 -0.024979346 0.16967958
0.031274475 -0.021974009 0.16978735
0.032491155 -0.018484369 0.16972461
0.032817021 -0.01370911 0.16884765
0.029174332 -0.02495287 0.16638434
0.030659825 -0.023403961 0.16687447
0.032167122 -0.018382203 0.16557708
0.033139154 -0.015914027 0.16600832
0.017976053 -0.02026793 0.18371862
0.019641969 -0.016452318 0.18422717
0.021974776 -0.013311737 0.18402955
0.023470961 -0.0092479866 0.18353888
0.024207722 -0.004695606 0.18355894
0.026005071 -0.00092248432 0.18457016
0.020330984 -0.021644313 0.18253273
0.022423472 -0.017836181 0.18309453
0.032547515 0.00065675192 0.17404673
0.022604123 -0.026547868 0.17159015
0.032088384 -0.0074268491 0.16969809
0.032536913 -0.0038170535 0.17037442
0.032658178 0.00024945755 0.1693103
0.024884768 -0.026707537 0.16770416
0.02709139 -0.026200701 0.1672104
0.032826684 -0.01147616 0.16610017
0.032278862 -0.0083466321 0.16648483
0.032507237 -0.004348618 0.16580027
0.032968044 -0.00030746218 0.16531482
0.025519844 -0.027203318 0.16280329
0.028000966 -0.025346514 0.16296059
0.029864058 -0.022026908 0.16241619
0.031419743 -0.017907362 0.16257679
0.032047186 -0.013435066 0.16256934
0.03209487 -0.0091642421 0.16174513
0.026168209 -0.027660616 0.15880406
0.0284563 -0.025771175 0.15790015
0.030197416 -0.022072671 0.15727717
0.031173488 -0.018435914 0.15749934
0.031524144 -0.014456951 0.15841851
0.029603168 -0.024997998 0.15381327
0.030769108 -0.021901086 0.15355098
0.013647713 -0.014177416 0.18348467
0.014927316 -0.010387685 0.1830737
0.016767854 -0.0068168156 0.18309289
0.018600419 -0.0025321217 0.18287528
0.02100601 0.0018289709 0.18372741
0.016760048 -0.016860191 0.18453771
0.018289639 -0.011767785 0.18386266
0.019245455 -0.0078687398 0.1832073
0.020610889 -0.0041274517 0.18286675
0.031923462 -0.0032676011 0.16267157
0.032697093 0.00037370902 0.16241533
0.031239929 -0.0078202989 0.15869334
0.030844936 -0.0036651026 0.1583719
0.031784706 0.00029479433 0.15858358
0.026101526 -0.027769001 0.1560204
0.031178102 -0.01377911 0.15544423
0.030612735 -0.0089825559 0.15465826
0.030712321 -0.0051777237 0.15509611
0.027579706 -0.025912678 0.15163738
0.029929809 -0.022599902 0.15081197
0.030699311 -0.018247776 0.1507284
0.030801831 -0.014091951 0.15082872
0.030523475 -0.011048413 0.15142876
0.027400032 -0.025351837 0.1474036
0.029577659 -0.022446921 0.14637548
0.030654555 -0.018861011 0.14606225
0.030860258 -0.015241348 0.14692178
0.011806022 -0.009069182 0.18320784
0.013421484 -0.005163373 0.18354794
0.015650105 -0.0015504612 0.18327656
0.031367864 0.00038185157 0.15548471
0.031029876 -0.0068763602 0.1521892
0.030766129 -0.0036498988 0.15250951
0.031117097 0.00036932435 0.15158844
0.021726238 -0.026261931 0.15055141
0.03081191 -0.0088895382 0.14883861
0.031288549 -0.0042275479 0.14770803
0.03096351 -0.00041105412 0.14801368
0.025885845 -0.025574237 0.14416528
0.028889582 -0.022311263 0.14302039
0.030362224 -0.018211966 0.14309019
0.031063907 -0.014293112 0.14407593
0.031132501 -0.01013521 0.14405653
0.031455159 -0.0063960627 0.14358902
0.02730955 -0.025295533 0.13955224
0.028948758 -0.022499092 0.13936475
0.029798342 -0.018711526 0.13916183
0.030411607 -0.014358774 0.14002371
0.030983485 -0.010936734 0.14047214
0.028765796 -0.022596758 0.13548681
0.0063197492 -0.0052915486 0.18327844
0.0083390949 -0.0031914264 0.18387631
0.01027132 0.00038411957 0.18394679
0.0084825782 -0.0076747946 0.18311775
0.010152547 -0.0047034225 0.18367469
0.012500037 -0.0005832538 0.18383402
0.030637247 0.00058342237 0.14501947
0.031254336 -0.0039438079 0.14131913
0.031122267 1.0135584e-05 0.14045018
0.023069985 -0.026667297 0.13847458
0.029783078 -0.013832238 0.13733208
0.03053759 -0.0099208159 0.13735533
0.031440511 -0.0054003797 0.13693166
0.031527564 -0.00089953467 0.13614219
0.031839371 0.0025124932 0.13628793
0.024852613 -0.025200207 0.13355318
0.028223217 -0.022476299 0.1331462
0.029301837 -0.018326707 0.13409728
0.029837124 -0.014381554 0.13330099
0.03082036 -0.0104318 0.13259473
0.031866714 -0.0066874563 0.13255316
0.031927947 -0.0035797143 0.13188356
0.025358763 -0.024364747 0.12980986
0.028336044 -0.022728577 0.12855804
0.029643437 -0.019025829 0.12843812
0.030079233 -0.015159057 0.12868148
0.030813674 -0.010570629 0.12882787
0.029071014 -0.022762787 0.12369835
0.030160138 -0.019303273 0.12388182
0.004884508 -0.0017129998 0.18399033
0.031029513 0.00057094637 0.13354275
0.031815901 -0.0058167251 0.12975037
0.031464122 -0.00098141097 0.12964877
0.030977976 0.0019115917 0.12824589
0.024339404 -0.025707606 0.12738961
0.030238226 -0.013848833 0.12640887
0.030779095 -0.010663054 0.125965
0.031255089 -0.0064494624 0.12573677
0.031353854 -0.0025090901 0.12464637
0.025476145 -0.025690492 0.12335277
0.028629327 -0.023150643 0.12184277
0.030221159 -0.01943285 0.12141463
0.030075032 -0.01509857 0.12250632
0.030179748 -0.010851334 0.12193525
0.031042749 -0.0064966972 0.12175202
0.0261089 -0.025167089 0.11913955
0.028257659 -0.023178011 0.11777854
0.029930692 -0.019285139 0.11768383
0.029796092 -0.016424565 0.11869204
0.029952176 -0.020351376 0.11447102
0.031296805 -0.00063731615 0.12268311
0.031115487 0.0027180482 0.12247765
0.02209365 -0.02642867 0.11995518
0.029348856 -0.013263671 0.11911362
0.029676219 -0.010090174 0.11867028
0.030410025 -0.0063406122 0.11832154
0.030917518 -0.0021054456 0.11810726
0.031330381 0.0017361352 0.11727977
0.02372941 -0.025520002 0.11591333
0.026425159 -0.024012683 0.11507779
0.029451624 -0.014739106 0.11562562
0.029553745 -0.010567953 0.11439216
0.030356374 -0.0064874962 0.11348492
0.030918332 -0.003237186 0.11400062
0.02443934 -0.024815507 0.1119113
0.02717917 -0.022824753 0.11156446
0.029803559 -0.019465905 0.11152655
0.029633325 -0.015212141 0.11035109
0.02987141 -0.011224327 0.11050111
0.030618101 -0.0082011605 0.11042911
0.027594339 -0.022658568 0.10669941
0.029965591 -0.019955985 0.10654271
0.030465387 -0.015955007 0.10597473
0.030324314 -0.020256378 0.10302109
-0.0049253604 0.0024703988 0.18396905
0.031023558 -0.0018670578 0.11162263
0.031103486 0.0020712223 0.11086547
0.021299101 -0.025772652 0.10829026
0.0242454 -0.024407137 0.10835159
0.029854251 -0.01065483 0.10763597
0.0305911 -0.0066103651 0.10761178
0.030720811 -0.0024031745 0.10637444
0.030685613 0.0011167182 0.10633481
0.021939222 -0.025623046 0.10440588
0.025482921 -0.024123479 0.10413814
0.030469358 -0.015114091 0.10313737
0.030155793 -0.011417692 0.10369593
0.030386776 -0.0068734894 0.10289103
0.030729517 -0.0040191775 0.10306162
0.026622826 -0.023470055 0.099803805
0.029284777 -0.019983022 0.099144697
0.029761033 -0.016190669 0.099709153
0.030044213 -0.012819036 0.099960148
0.027303973 -0.022289276 0.095495582
0.02858123 -0.019838916 0.09556669
0.03116674 0.002239014 0.10497403
0.029482424 -0.0095719751 0.10025442
0.030228645 -0.0069122771 0.099826097
0.030744262 -0.0026050219 0.10056537
0.031092796 0.0019586338 0.10083485
0.024635833 -0.025085818 0.097097158
0.029268185 -0.014604964 0.096738458
0.029451717 -0.011007183 0.096574783
0.029783487 -0.0070623322 0.09613961
0.03045073 -0.0026122425 0.096380532
0.030788703 0.00077137537 0.096677721
0.021485215 -0.025915025 0.094259381
0.025592348 -0.024147 0.092681229
0.028688062 -0.020003272 0.09273833
0.029007491 -0.015667144 0.092308581
0.029264325 -0.011799216 0.091681778
0.029287226 -0.0075173299 0.09237355
0.026884377 -0.023515213 0.087956429
0.028851466 -0.020272959 0.087993681
0.029288212 -0.016478799 0.087532222
0.028511874 -0.021807585 0.083816826
0.029232185 -0.0014252029 0.092979074
0.029892307 0.0025860984 0.09329021
0.02894601 -0.0097180586 0.0899598
0.02864523 -0.0060731545 0.089642286
0.029181611 -0.0022816956 0.089273214
0.029669194 0.0015386725 0.088856816
0.023492124 -0.02511562 0.086225569
0.028713776 -0.014307195 0.085554123
0.028490942 -0.010993981 0.08583653
0.028596107 -0.0069146715 0.08483547
0.029542685 -0.0029524947 0.085311532
0.02463443 -0.024960909 0.082148969
0.027965404 -0.020166436 0.081720412
0.028575391 -0.015717996 0.081724584
0.028680151 -0.011661694 0.081044495
0.029267484 -0.008644104 0.081777811
0.025774006 -0.024550579 0.077521265
0.027702149 -0.020996507 0.077294171
0.028565355 -0.016691841 0.07710731
0.028372014 -0.021420047 0.073967576
0.029934188 0.0028726468 0.086547852
0.028636718 -0.0053241872 0.081984341
0.029624883 -0.0023986623 0.082446218
0.030253278 0.0015933132 0.08260572
0.028750742 -0.010825492 0.078177571
0.028991777 -0.00692788 0.078608274
0.029996626 -0.003008984 0.078138411
0.030451965 0.0011291085 0.07746315
0.024255086 -0.026028253 0.07594502
0.028668398 -0.015463416 0.074882329
0.02860087 -0.011840546 0.074655831
0.028380603 -0.0069999923 0.074336886
0.028863784 -0.0041844514 0.073620021
0.02278336 -0.027552588 0.07075721
0.025438551 -0.025604889 0.071167469
0.028028939 -0.0221614 0.070931315
0.028882438 -0.01704029 0.070422709
0.028679837 -0.013027399 0.069343209
0.025580509 -0.024351809 0.066701531
0.027641628 -0.022035226 0.065707624
0.028167129 -0.018265225 0.06590867
0.029413752 0.0017021783 0.073781371
0.027861547 -0.0099449977 0.071005583
0.027474642 -0.0071002394 0.071085513
0.028397189 -0.0022190949 0.071235418
0.029379997 0.0018551154 0.071071625
0.028343409 -0.011287809 0.067855954
0.027933449 -0.0075139971 0.067234337
0.028692998 -0.0028022057 0.066802025
0.029280854 0.0005393289 0.067323804
0.023568833 -0.0251754 0.063632667
0.026683977 -0.023451388 0.063167632
0.028295301 -0.017752595 0.063041747
0.028376084 -0.013712255 0.062964201
0.028540069 -0.0088226246 0.06267184
0.028609067 -0.0054534283 0.063002408
0.023672635 -0.025397146 0.059690416
0.026796101 -0.02197836 0.058803558
0.027788401 -0.018014204 0.058807313
0.02844514 -0.013730453 0.058309317
0.028814677 -0.010770464 0.059828877
0.026490614 -0.022736564 0.054458499
0.027586982 -0.018061638 0.055554509
0.029318256 0.0017889654 0.065078139
0.028994655 -0.0041618086 0.060745001
0.02861152 -0.00040866807 0.060286164
0.022884469 -0.025964238 0.056839168
0.028632607 -0.012360022 0.056188345
0.028240578 -0.0089213969 0.056264579
0.028120289 -0.0052212356 0.055954814
0.023520842 -0.025436655 0.0532763
0.02678968 -0.022393037 0.053537905
0.027691435 -0.018225605 0.052600086
0.02803365 -0.013970107 0.052443564
0.027953712 -0.009932626 0.051500738
0.024633529 -0.025259055 0.049043417
0.026980383 -0.02268507 0.048621237
0.027275175 -0.01875126 0.047944784
0.02726523 -0.015164794 0.047846973
0.026433682 -0.022657599 0.043953896
0.027779117 0.0014034063 0.056787848
0.027590374 -0.0036949888 0.053014517
0.027862478 0.00023091026 0.053523183
0.027329633 -0.012077698 0.048718214
0.027863413 -0.0085949078 0.048997045
0.027734827 -0.0047424296 0.048738718
0.02772909 -7.5503252e-05 0.048913479
0.022812309 -0.025974635 0.04594779
0.027190002 -0.017290901 0.045175135
0.027436603 -0.013614547 0.044998884
0.028245661 -0.0095116273 0.045312643
0.028273761 -0.0049031903 0.044481039
0.028151579 -0.001717451 0.045161068
0.023636214 -0.025688529 0.04171896
0.026294509 -0.022705626 0.041489363
0.027323425 -0.018546391 0.040916681
0.027827164 -0.014145527 0.040571988
0.028459601 -0.0099651683 0.04069829
0.028917585 -0.0068369173 0.041638494
0.024520712 -0.026164368 0.037004054
0.027192233 -0.023297723 0.036474347
0.027701851 -0.018902155 0.036129296
0.02801751 -0.014740411 0.037299275
0.025701072 -0.026394125 0.033635795
0.02741624 -0.023606004 0.031512022
0.028261995 -0.019644653 0.033237934
0.027982187 0.0007251054 0.046109736
0.028278256 -0.003440355 0.04177767
0.02818951 -7.5369142e-05 0.042149663
0.028377121 -0.008295103 0.037556589
0.027746679 -0.0048977807 0.037698448
0.027324393 -0.00080367085 0.037742555
0.027689127 -0.014033279 0.033854365
0.027830642 -0.0099555273 0.034139633
0.027590785 -0.0057459469 0.03367877
0.024434797 -0.027025413 0.030825615
0.027584046 -0.018815689 0.029412508
0.027565602 -0.014805169 0.030565917
0.024373073 -0.02618918 0.025971174
0.026364882 -0.023394559 0.026216805
0.027099155 -0.019395288 0.025383115
0.027333729 0.00030305237 0.035700679
0.026856348 -0.0094456291 0.030330718
0.027361732 -0.0042933039 0.032016516
0.028065521 -0.00053490791 0.0319103
0.026595647 -0.014146346 0.026754081
0.026804494 -0.0093022026 0.027478814
0.027486095 -0.0051447982 0.026936233
0.028631512 -0.00094862096 0.026793659
0.029184848 0.0024709813 0.026656389
0.022151101 -0.026454438 0.022648931
0.025874939 -0.022585243 0.02221632
0.026675275 -0.019023251 0.022485375
0.026795782 -0.014148863 0.023110569
0.026851114 -0.010236191 0.022817731
0.027151173 -0.0067007262 0.0230124
0.023540668 -0.025627896 0.019250393
0.025202353 -0.023432551 0.019204497
0.026712263 -0.018985476 0.019008577
0.026971878 -0.01491672 0.019054651
0.025975294 -0.023298986 0.015619278
0.026941948 -0.020478655 0.015102863
0.027764384 -0.0006734319 0.023147106
0.02679744 -0.0087456983 0.019981742
0.02725454 -0.0050795553 0.019992471
0.027895188 -0.0010471866 0.019386053
0.026698248 -0.014227336 0.015594125
0.027029539 -0.010047077 0.015713453
0.027076891 -0.005675321 0.015172541
0.027321516 -0.0023190798 0.01481849
0.022067314 -0.025820855 0.012942433
0.025100127 -0.023786288 0.012102604
0.026348006 -0.018803125 0.01166141
0.026303537 -0.014903229 0.011949897
0.026925212 -0.010159699 0.01133132
0.027006809 -0.0070089377 0.012213945
0.022389662 -0.025585871 0.009513557
0.025583973 -0.023834527 0.0084428787
0.026741086 -0.019953221 0.008035481
0.025983013 -0.016191429 0.0076463223
0.025460694 -0.023565162 0.0043922663
0.026354628 -0.021226786 0.003651619
0.026965741 -0.0038034609 0.012964308
0.027474731 -0.00032070745 0.013374507
0.025793307 -0.012896101 0.0093034506
0.026466131 -0.010055003 0.0086871982
0.026956925 -0.0053165178 0.0089861155
0.027406406 -0.0011800118 0.0081497431
0.025650207 -0.017738378 0.0047395229
0.025955986 -0.014241844 0.0053634644
0.026378013 -0.010359986 0.0046415329
0.026955625 -0.0059894403 0.0043067932
0.027274834 -0.0026441836 0.0040183067
0.022049395 -0.02620722 0.0012671947
0.024791496 -0.024135415 0.0010592937
0.025730146 -0.019231809 0.0010893345
0.025383905 -0.01539441 0.0012685061
0.02686061 -0.0041140076 0.0020829439
0.026375584 -0.00071900059 0.0017953515
