# .PCD v0.7 - Point Cloud Data file format
VERSION 0.7
FIELDS x y z
SIZE 4 4 4
TYPE F F F
COUNT 1 1 1
WIDTH 401
HEIGHT 1
VIEWPOINT 0 0 0 1 0 0 0
POINTS 401
DATA ascii
-0.032037586 0.026724407 0.17996588
-0.026274597 0.019116273 0.18448663
-0.027408648 0.017085249 0.18454617
-0.031839523 0.0048011905 0.18355697
-0.033577338 0.00053456333 0.18332392
-0.025749441 0.030482922 0.18176448
-0.028297104 0.026534215 0.18266577
-0.029741449 0.022308826 0.18282035
-0.031390037 0.018024603 0.18253186
-0.032316938 0.0126305 0.18152282
-0.033409119 0.0072865784 0.18062082
-0.034318235 0.0029101297 0.18109733
-0.028696351 0.032056585 0.17868686
-0.03117843 0.028561842 0.17884231
-0.032693971 0.023754006 0.17858621
-0.033224721 0.019042635 0.17753771
-0.034014948 0.013808725 0.17665321
-0.029469965 0.032165755 0.1739828
-0.032231461 0.028767265 0.17433357
-0.033185627 0.024219446 0.17356768
-0.033428319 0.019662416 0.17348093
-0.033660855 0.016095426 0.17331222
-0.031374868 0.028646141 0.17016554
-0.027138738 -0.00068046432 0.18484801
-0.021238331 0.023745416 0.18389407
-0.023088267 0.019454185 0.18462157
-0.024615083 0.015076116 0.18454206
-0.027277373 0.010746943 0.18346822
-0.028398987 0.0054031443 0.18362477
-0.031111788 0.0013045073 0.18420398
-0.023803899 0.025668569 0.1831491
-0.034725115 0.0026201541 0.1788314
-0.034807254 -0.0021461071 0.17963955
-0.034546502 0.011407433 0.17428792
-0.03443525 0.007970633 0.17505369
-0.035153955 0.0032780487 0.1741187
-0.03542044 -0.0015102336 0.17405635
-0.033212099 0.018958163 0.17069432
-0.033821307 0.01354573 0.17067918
-0.034950241 0.0084111784 0.17001
-0.035744615 0.0037387293 0.16911641
-0.035842765 -0.00046934281 0.16978657
-0.028248612 0.032831617 0.16791832
-0.031768508 0.028939659 0.16774219
-0.032751568 0.0243364 0.16788411
-0.033548951 0.019700449 0.16699517
-0.034594815 0.014537656 0.16626385
-0.035637092 0.009476969 0.1652272
-0.036086094 0.004860634 0.16597676
-0.029628072 0.032842398 0.16330737
-0.032032255 0.029285101 0.16341779
-0.032948837 0.024693443 0.16260386
-0.033967517 0.020326139 0.16214782
-0.035023406 0.015922122 0.16262397
-0.035975862 0.012544086 0.16265115
-0.031053659 0.032462075 0.15917468
-0.032511275 0.02976127 0.15831932
-0.033371445 0.025915578 0.15861279
-0.01570927 0.016459554 0.18334532
-0.017610002 0.012194594 0.18320164
-0.020127317 0.0081771174 0.18346521
-0.022915261 0.0034458479 0.18367863
-0.024811378 -0.0016858028 0.18438128
-0.018754954 0.019368349 0.1840134
-0.020471841 0.011731091 0.18282765
-0.022805868 0.0093200635 0.1834408
-0.024344208 0.005769101 0.18329728
-0.035238884 -0.0033049742 0.17045251
-0.035692014 -0.0015235338 0.1670385
-0.035466578 0.0072626034 0.16263992
-0.03527683 0.0035461718 0.16275394
-0.035735145 -0.0010805009 0.16219544
-0.034071501 0.018603843 0.15962777
-0.034037918 0.014901493 0.15924963
-0.034548488 0.0095518157 0.15907896
-0.034573879 0.0040601352 0.15886378
-0.03584487 -0.00089729484 0.15861732
-0.028236642 0.033109728 0.15722084
-0.033087824 0.024407431 0.15632829
-0.033418693 0.020187803 0.15600768
-0.032968037 0.01554605 0.15497333
-0.033246554 0.011701707 0.15523553
-0.029254004 0.032115821 0.15242499
-0.031522315 0.029696474 0.15214103
-0.032639883 0.025147591 0.15144956
-0.03295299 0.020805757 0.15095532
-0.031177435 0.028941635 0.14797401
-0.032599062 0.025324332 0.14774767
-0.014039706 0.010683943 0.18338168
-0.016037352 0.0061742645 0.1837962
-0.018273171 0.0017621377 0.18395022
-0.03393979 0.0068725101 0.15607345
-0.034062948 0.0031929724 0.15580034
-0.035350572 -0.0010017017 0.15550962
-0.032725602 0.013865269 0.15246612
-0.033399783 0.0093295649 0.1527589
-0.034308787 0.0041529574 0.15157315
-0.035296183 -0.00055530667 0.152069
-0.032901932 0.019210115 0.14857638
-0.033130053 0.015339007 0.14879435
-0.033601798 0.010492229 0.14762053
-0.034428068 0.0054384237 0.147852
-0.029496342 0.03043519 0.14514658
-0.032158047 0.025266357 0.14535105
-0.032973439 0.020562012 0.14465588
-0.033225413 0.015919337 0.14452833
-0.033334013 0.012232578 0.14422902
-0.030138083 0.030002959 0.14139867
-0.031349115 0.025583873 0.14095283
-0.032122683 0.022093669 0.1408354
-0.0073729833 0.0061734556 0.18327841
-0.0098458454 0.0033253811 0.18428862
-0.011123839 -0.00083498284 0.18429443
-0.009909628 0.00895923 0.18312636
-0.0121902 0.0056238817 0.18389946
-0.014978901 -0.00084696524 0.18362752
-0.034528304 -0.0015468029 0.14878732
-0.034361977 0.0043844962 0.14499092
-0.034431566 -0.0010068864 0.14466149
-0.032859556 0.01513773 0.1415236
-0.033640403 0.010551508 0.14178601
-0.034575559 0.0052122413 0.14097306
-0.034805022 -9.6756965e-05 0.14013112
-0.028572347 0.03067537 0.13811144
-0.031272288 0.02493404 0.13815537
-0.031730119 0.020161504 0.13787165
-0.032669686 0.015679143 0.1373167
-0.034095101 0.011179687 0.13682207
-0.035234667 0.0062118322 0.13619477
-0.035537414 0.0023980914 0.13597324
-0.028608546 0.030136753 0.13371044
-0.031528112 0.02559844 0.13396841
-0.032129027 0.020790417 0.13285637
-0.033269424 0.016392026 0.1327554
-0.03461105 0.011592087 0.13252088
-0.035930675 0.0074407076 0.13254163
-0.029891776 0.029291291 0.12874615
-0.031497132 0.026078507 0.12861946
-0.032332491 0.022208607 0.12897694
-0.031559415 0.029461421 0.12565458
-0.032422606 0.02726505 0.12551716
-0.0060766223 0.0024789239 0.18450734
-0.035280157 -0.0015322873 0.1380921
-0.035416778 2.9359013e-05 0.13379693
-0.03317881 0.015382663 0.12993333
-0.034660995 0.011736287 0.1297363
-0.036203966 0.0068921358 0.12996864
-0.036177646 0.0014349567 0.1295782
-0.027385684 0.031572264 0.1272063
-0.032012217 0.024490772 0.12629783
-0.032516327 0.020686191 0.12670305
-0.032706678 0.016219078 0.12606341
-0.033900402 0.011598024 0.12537742
-0.035389408 0.0070777512 0.12515208
-0.035852857 0.0032405043 0.12528878
-0.029502828 0.031047372 0.12291002
-0.032673404 0.026405063 0.12293836
-0.032724366 0.021776367 0.12229806
-0.032548718 0.01807729 0.12173945
-0.030710083 0.030049831 0.11887681
-0.032499816 0.026849065 0.11773384
-0.033103842 0.023650417 0.11807531
-0.034945492 0.0069850436 0.12267661
-0.035969827 0.0016488405 0.12294158
-0.035674181 -0.0030850684 0.12191164
-0.032248676 0.019794753 0.11919379
-0.032401312 0.015892338 0.11971259
-0.032963995 0.011474266 0.11895365
-0.03415063 0.006818614 0.11824709
-0.035410289 0.0024828929 0.11885303
-0.03593998 -0.0019723456 0.11856449
-0.027955627 0.031757746 0.11590314
-0.032908794 0.021459151 0.11600494
-0.032561835 0.016694605 0.11453366
-0.032716509 0.012442289 0.11425149
-0.029125649 0.030376431 0.11147285
-0.031781714 0.026879698 0.1114493
-0.033286233 0.022357805 0.11098629
-0.033050798 0.018233618 0.11080521
-0.031643983 0.025328983 0.10695326
-0.032872371 0.023241695 0.10709435
0.0055861659 -0.002818645 0.18407094
-0.034659125 0.001496369 0.11543834
-0.035351537 -0.0032436261 0.11528748
-0.032702565 0.010970125 0.1120193
-0.033636346 0.0068457853 0.11209172
-0.034109645 0.0018653478 0.11081105
-0.034813497 -0.0024817232 0.11053544
-0.032880504 0.016548766 0.10819608
-0.032771051 0.011903157 0.10727823
-0.033510324 0.0070329062 0.1061976
-0.033692148 0.0035733907 0.10716838
-0.026569223 0.031455651 0.10424852
-0.03025895 0.027703796 0.1046598
-0.033212796 0.022399586 0.10452777
-0.033723537 0.017687302 0.10389656
-0.0335715 0.012698121 0.10273504
-0.029993106 0.027568074 0.10068083
-0.032437649 0.022335241 0.099203646
-0.033613846 0.017825495 0.099930942
-0.034380276 0.0022004107 0.10521573
-0.035141692 -0.0029902719 0.10545152
-0.033877149 0.01182206 0.10011971
-0.034189906 0.0075481953 0.10090941
-0.034764364 0.002281337 0.10099286
-0.035287373 -0.0024924921 0.1003561
-0.029718429 0.027618621 0.097547174
-0.032012887 0.023398403 0.096724749
-0.032646775 0.017585753 0.09623152
-0.03331193 0.012852377 0.096683264
-0.034266461 0.0077393651 0.097068727
-0.034704644 0.0030109975 0.09700644
-0.026441863 0.031571854 0.09284848
-0.030157099 0.028038466 0.0930233
-0.032516483 0.022926489 0.092942536
-0.032943659 0.018133415 0.091894925
-0.0327341 0.012530181 0.092638612
-0.031133153 0.028467108 0.088037729
-0.032570019 0.023455467 0.087744713
-0.032848295 0.019802975 0.088145912
-0.031623304 0.028239958 0.084115922
-0.03217664 0.0069732945 0.093419254
-0.033482231 0.001823918 0.093108892
-0.034267187 -0.0027135015 0.093644977
-0.031652715 0.011774563 0.089155376
-0.032066494 0.0070910845 0.089388072
-0.033350043 0.002375436 0.088705659
-0.034698498 -0.0023562619 0.08906287
-0.02901696 0.030606749 0.085103333
-0.032491222 0.023305215 0.085066795
-0.032498579 0.017394172 0.086432517
-0.032273937 0.012649895 0.085362554
-0.032521009 0.0086286869 0.085532069
-0.026323002 0.031950861 0.083010674
-0.029527932 0.02959027 0.081900954
-0.031884197 0.023779016 0.082124174
-0.032401122 0.018179111 0.081269145
-0.033024713 0.0137604 0.080889225
-0.029813174 0.028993536 0.077729464
-0.031535316 0.024850402 0.077311695
-0.03267438 0.020206647 0.078110695
-0.032680064 0.025696501 0.073909998
-0.034687959 -0.0022555925 0.086080909
-0.032678261 0.0070273085 0.083094716
-0.033812966 0.0027940422 0.083135784
-0.035234943 -0.0018838486 0.082555294
-0.033224653 0.012184151 0.078478575
-0.033219621 0.0080465376 0.078427017
-0.033949602 0.0032896725 0.077587485
-0.034992903 -0.0018085279 0.077360094
-0.028604286 0.030379741 0.075321972
-0.031996787 0.023607656 0.074739695
-0.032438073 0.019012289 0.075108528
-0.032930259 0.013641258 0.074288309
-0.032506678 0.0096789533 0.074424744
-0.026871063 0.0323052 0.069998503
-0.029600712 0.029843356 0.071102321
-0.032091871 0.025587797 0.071166873
-0.032444727 0.020139465 0.070006847
-0.032867189 0.017219964 0.068082333
-0.029495433 0.028281279 0.06640625
-0.031131025 0.025875978 0.06624043
-0.03253001 0.011612395 0.071026564
-0.031982657 0.0077806865 0.071713984
-0.032564312 0.002432432 0.071425736
-0.03396973 -0.0020600166 0.071474016
-0.032388765 0.014040028 0.06835258
-0.032527391 0.0083938204 0.067427099
-0.033434089 0.0032522185 0.066767156
-0.034294046 -0.0011409 0.06656003
-0.028052302 0.029823661 0.06359005
-0.031167571 0.025243551 0.063279808
-0.031333152 0.020358693 0.062937856
-0.032195654 0.015117879 0.063215733
-0.03302829 0.01060522 0.063100338
-0.033692088 0.0044001257 0.063238382
-0.02821517 0.029921256 0.058849931
-0.030674977 0.025600733 0.059135556
-0.031823464 0.020787966 0.05829227
-0.032504357 0.016292434 0.058941126
-0.033125002 0.012370063 0.059404194
-0.028790027 0.029421221 0.055993795
-0.03079351 0.026158445 0.05493778
-0.031811208 0.02180613 0.055538058
-0.034858517 -0.0026086317 0.064406455
-0.033293996 0.0088225398 0.060359001
-0.033937704 0.0055048792 0.060705721
-0.034169115 2.3117289e-05 0.059749961
-0.032976542 0.014808572 0.056701005
-0.03256451 0.010465916 0.05626595
-0.032901324 0.0055899261 0.056055903
-0.033049118 0.0017037215 0.055642843
-0.027620446 0.030254304 0.05275774
-0.031104123 0.025501851 0.052861392
-0.031534716 0.02069601 0.052275717
-0.032274518 0.016478965 0.052622914
-0.031924833 0.011270558 0.051926255
-0.028494619 0.03033844 0.048374295
-0.031537145 0.02648811 0.048674464
-0.031133221 0.022097217 0.047233582
-0.031011259 0.026497962 0.044105768
-0.031918921 0.0085208099 0.053040385
-0.032167196 0.0045979382 0.05237025
-0.032997012 -3.968738e-05 0.053265452
-0.031421263 0.014468417 0.049205124
-0.031992465 0.010267922 0.048941195
-0.03232241 0.0055189407 0.048708081
-0.03293892 -0.00011594594 0.048413634
-0.026709225 0.030953486 0.044572115
-0.031231537 0.019796584 0.045548201
-0.031660791 0.01595716 0.045027614
-0.03266038 0.010979904 0.045053482
-0.03293021 0.0056979097 0.044431746
-0.0334142 0.0013436526 0.045349717
-0.028002162 0.030145176 0.041751444
-0.031244045 0.026740599 0.041219175
-0.031823069 0.0216166 0.040868402
-0.032155842 0.016382163 0.040296674
-0.032904357 0.011507186 0.040432215
-0.033542503 0.0078976844 0.041465044
-0.029156236 0.030968908 0.036795795
-0.032066502 0.027308755 0.03678143
-0.032803636 0.02251127 0.036210954
-0.032748047 0.017220696 0.037354052
-0.029482689 0.031784747 0.033612549
-0.032172576 0.02760997 0.031681299
-0.033311151 0.022613663 0.033209801
-0.033088528 0.0040536141 0.041864216
-0.033518441 0.00033081602 0.042366147
-0.032766372 0.0095410664 0.037251472
-0.032617368 0.005814583 0.037919104
-0.032504655 0.00068761874 0.03727442
-0.03364313 -0.0028353091 0.037717104
-0.032294381 0.016368233 0.033845782
-0.03234423 0.011564984 0.034027338
-0.032322489 0.0067579355 0.033798993
-0.028993431 0.032099918 0.030663073
-0.032400191 0.022035195 0.029611111
-0.032378379 0.017357746 0.030763924
-0.028990384 0.031591259 0.026637912
-0.031596512 0.027374633 0.026436925
-0.032120358 0.022819795 0.025844336
-0.031873353 0.0037952783 0.034519792
-0.032537572 0.00043728761 0.034524202
-0.031526178 0.011097076 0.030506253
-0.032176375 0.0054112426 0.031608999
-0.033413649 0.00066651125 0.031825304
-0.030952347 0.016458996 0.027035415
-0.031590175 0.010978869 0.027768493
-0.032764591 0.0062862001 0.027572632
-0.033957258 0.0013582138 0.026696205
-0.034762681 -0.0026686788 0.026278675
-0.028662592 0.030229006 0.022458971
-0.029868959 0.02800953 0.022580206
-0.031528257 0.02236525 0.022507429
-0.031294327 0.016536761 0.023490965
-0.03208553 0.011673526 0.022589982
-0.033469491 0.0065849363 0.022063673
-0.034540538 0.002383871 0.022517562
-0.027227556 0.030405667 0.019254088
-0.029828986 0.027265266 0.019050121
-0.031387001 0.022218771 0.018862247
-0.031549409 0.017434718 0.019130468
-0.032085028 0.013653436 0.019015431
-0.027721835 0.030214649 0.015254617
-0.030189499 0.027612291 0.015148103
-0.031432308 0.023891989 0.015102744
-0.032644134 0.0083780047 0.019663453
-0.034279346 0.0014460012 0.019821644
-0.031099629 0.016579719 0.015549421
-0.032374274 0.011841491 0.016143382
-0.03334906 0.0072389017 0.015743971
-0.034178153 0.0022306088 0.015570581
-0.029381972 0.027472701 0.011208951
-0.030590752 0.021880463 0.011522651
-0.030644255 0.017370388 0.011909425
-0.032182664 0.011832767 0.011059761
-0.032769356 0.0069274702 0.011291802
-0.033628192 0.0026759868 0.011837065
-0.029393476 0.027638223 0.0080173612
-0.030918621 0.023173533 0.0077731609
-0.03049382 0.018959513 0.007815659
-0.029839091 0.026169289 0.0045477748
-0.030334685 0.024557106 0.0043362379
-0.03302297 -0.00038894359 0.012401521
-0.029875835 0.014960803 0.0091009736
-0.030564466 0.013420256 0.0090702772
-0.032679636 0.0065272893 0.0087145567
-0.033500031 0.0015505832 0.0085197687
-0.03279759 -0.0029121051 0.0073667765
-0.03014138 0.020777458 0.0049432516
-0.030549107 0.016719453 0.0056159496
-0.031652737 0.012219178 0.0051165819
-0.032847382 0.0072395406 0.0041983724
-0.033261944 0.0025108699 0.0034852028
-0.02474964 0.029740129 0.00071763992
-0.028455744 0.027798641 0.0015881062
-0.030494936 0.022706138 0.0013002753
-0.030902725 0.017863767 0.00034338236
-0.031552412 0.012761226 -2.0682812e-05
-0.032840814 -8.2043e-05 0.00144732
