# .PCD v0.7 - Point Cloud Data file format
VERSION 0.7
FIELDS x y z
SIZE 4 4 4
TYPE F F F
COUNT 1 1 1
WIDTH 372
HEIGHT 1
VIEWPOINT 0 0 0 1 0 0 0
POINTS 372
DATA ascii
-0.026788473 -0.0066417791 0.18355697
-0.027273927 -0.0096168211 0.18419605
-0.027243938 -0.012978284 0.18426132
-0.02864027 0.0035992067 0.18064871
-0.02850059 -0.00032881045 0.18099502
-0.02885776 -0.0053376555 0.18116331
-0.029790811 -0.0091347806 0.18109655
-0.030617289 -0.013069977 0.18148798
-0.029933555 -0.0063609839 0.17683178
-0.030673437 -0.0098516233 0.1765849
-0.031366315 -0.012907259 0.17663002
-0.021462731 -0.0067931963 0.18513283
-0.021886418 -0.0094410945 0.18529069
-0.0237657 0.011610328 0.18309131
-0.023948345 0.0076860324 0.18357876
-0.024212327 0.0040551103 0.1838617
-0.024534447 -0.00073550671 0.18369639
-0.024443302 -0.004941233 0.18416372
-0.025159173 -0.0090999566 0.18513176
-0.026495986 0.01196619 0.18074539
-0.027395265 0.0080039501 0.180527
-0.028086815 0.004181846 0.18067837
-0.028521845 -0.00099642505 0.18000966
-0.029204812 -0.0044415887 0.178211
-0.028648393 0.012164274 0.17597911
-0.029106464 0.0082095349 0.17555898
-0.029336929 0.0042575975 0.17515105
-0.02965343 -0.00036626717 0.17513371
-0.029702017 -0.0048084431 0.17470136
-0.030219657 -0.0084781693 0.17450786
-0.030907068 -0.012830251 0.17357224
-0.029341631 0.012376806 0.17103535
-0.029845936 0.0084280297 0.17028472
-0.03012744 0.0044522923 0.17028013
-0.030102406 8.1065238e-08 0.17018595
-0.030350702 -0.0045312732 0.16977787
-0.031130128 -0.008765622 0.17031765
-0.031202879 -0.012722372 0.17015693
-0.029508131 -0.015374672 0.16874006
-0.030905485 0.0072228932 0.16735697
-0.031264085 0.0041741091 0.16624132
-0.031396613 0.00066573353 0.16554052
-0.031247633 -0.0037886174 0.16535315
-0.031633053 -0.0087663373 0.16543883
-0.031968508 -0.012558362 0.16525921
-0.030542135 -0.015238242 0.16494817
-0.032124639 0.0034368448 0.16256982
-0.03229247 0.0021089758 0.16262689
-0.031787243 -0.0098035634 0.16159648
-0.032202907 -0.012449757 0.16177249
-0.018538816 0.0078614717 0.18384495
-0.019149337 0.0038535949 0.18406188
-0.018310087 -0.00041543768 0.18395501
-0.018083248 -0.0045294398 0.18387854
-0.018502235 -0.0097844684 0.18539205
-0.021753738 0.0085061323 0.1843704
-0.021523068 0.0025450091 0.18387771
-0.021791492 0.0012142773 0.18399757
-0.029047353 0.012507415 0.1680724
-0.028960142 0.012670943 0.16433448
-0.02989723 0.0088288616 0.16460973
-0.030838046 0.0055810651 0.16415519
-0.030564155 -0.00588295 0.16271326
-0.030588014 -0.0072088907 0.16265988
-0.029170427 0.01243258 0.15955392
-0.029609339 0.0086783255 0.1595999
-0.030427542 0.0050508021 0.15927374
-0.030810151 0.00072146917 0.1593346
-0.030431015 -0.0035923691 0.15920961
-0.029825602 -0.0084165931 0.15831524
-0.030748896 -0.012374595 0.15788931
-0.030275498 0.0043567149 0.15564296
-0.030214753 0.0010258647 0.15541661
-0.030166166 -0.0016388093 0.15523553
-0.03005147 -0.012297133 0.15457314
-0.014795627 0.0078567043 0.18390709
-0.014966931 0.0038405526 0.18380827
-0.014680471 -0.00019976568 0.18429416
-0.01461288 -0.0048752502 0.18398729
-0.029182944 0.013846368 0.15778455
-0.029673968 0.009631468 0.15731835
-0.029418521 -0.0056924014 0.1562956
-0.029394252 -0.0070248242 0.15620506
-0.029432774 0.013804992 0.15363243
-0.029464245 0.0091252262 0.15340543
-0.029753055 0.0053199376 0.15289366
-0.029483454 0.0011416165 0.15205932
-0.029546397 -0.0037440162 0.15260834
-0.029439621 -0.0082400236 0.15245336
-0.02959815 -0.012217417 0.15143144
-0.029466186 0.013967255 0.14992955
-0.029094713 0.0092909774 0.14938691
-0.029259784 0.0052666334 0.14930081
-0.029348373 0.0015428733 0.14842069
-0.029241545 -0.0027419187 0.14810693
-0.029784629 -0.0076748668 0.14752007
-0.029871328 -0.011652206 0.14762527
-0.0080026388 0.0038158351 0.18345037
-0.0088631427 -0.00059616897 0.18427148
-0.01067744 0.0038285626 0.18350524
-0.011743069 0.00045074348 0.18407226
-0.011510508 -0.0042419964 0.18364954
-0.02886481 0.014114218 0.14664695
-0.028715627 0.0094193276 0.14627799
-0.028935671 0.0053847991 0.14623627
-0.029093232 0.0010371732 0.14565808
-0.028978381 -0.0026513734 0.14536983
-0.029360482 -0.005993058 0.14502341
-0.02896045 -0.012940742 0.1449613
-0.028177295 0.014348918 0.14139521
-0.028456502 0.0096220598 0.14136574
-0.029073613 0.0055652065 0.14164236
-0.02939599 0.0015226163 0.14168334
-0.029317107 -0.0025093588 0.14140508
-0.029577103 -0.0072147213 0.14136118
-0.029277563 -0.011917515 0.14087111
-0.028884582 0.0090894941 0.13789132
-0.028886268 0.0057172687 0.13771299
-0.029665947 0.0015137714 0.13676026
-0.030109713 -0.0023230137 0.13637173
-0.030647891 -0.0070389886 0.13655657
-0.030358367 -0.01174789 0.13607165
-0.02873872 -0.014503419 0.1365169
-0.030805349 -0.00307826 0.13246006
-0.031766757 -0.0066516651 0.13220719
-0.03121187 -0.010239777 0.13145855
-0.0048883641 -1.870208e-05 0.18399304
-0.028710928 0.014576941 0.13614115
-0.028513262 0.010070083 0.13519824
-0.028592298 0.0058364067 0.13462868
-0.029368453 0.0024773933 0.13412699
-0.028167486 0.010062842 0.13068807
-0.027963025 0.005643642 0.13076568
-0.028830223 0.0017391967 0.13037613
-0.030120339 -0.0016538345 0.13006639
-0.031751223 -0.0047792769 0.12996513
-0.030869825 -0.012096794 0.12999973
-0.03002521 -0.0028743243 0.12609339
-0.031135032 -0.0059997318 0.12556401
-0.031055076 -0.010735235 0.12524772
-0.029339943 -0.01418143 0.12557065
-0.03142282 -0.0072335862 0.12189454
-0.031432681 -0.009265854 0.12179554
-0.031042304 -0.012654056 0.12129146
-0.027892675 0.014521857 0.12820634
-0.027843833 0.010192096 0.12755269
-0.027644686 0.0063635004 0.12795487
-0.027974572 0.0027187492 0.12726402
-0.02807997 0.010343342 0.12390143
-0.028459975 0.0062504839 0.12399963
-0.028683288 0.0021670524 0.12396923
-0.029276745 -0.0014426616 0.12362769
-0.028367452 0.014872357 0.12012702
-0.02851459 0.010527771 0.11943936
-0.028804984 0.0064671375 0.11849844
-0.028769476 0.0023780591 0.11825329
-0.029333711 -0.0017184581 0.11850756
-0.029874189 -0.005628102 0.11851168
-0.030646205 -0.010062729 0.11861455
-0.029241545 -0.014133332 0.11753654
-0.02979362 0.00659145 0.11545163
-0.029363599 -0.0015850677 0.11465925
-0.030264974 -0.0058337958 0.11380726
-0.030640841 -0.0097113084 0.11336517
-0.030711856 -0.013116353 0.11324579
0.004526394 -0.00041860496 0.1848197
-0.028372867 0.011335986 0.11645073
-0.0283815 0.011498364 0.11256605
-0.029435124 0.0066869128 0.11296225
-0.028896742 0.002589762 0.11253452
-0.029326353 -0.0015091932 0.11243987
-0.029907856 -0.0048730955 0.11105013
-0.028941803 -0.015174445 0.11164087
-0.028038127 0.0096134301 0.10826105
-0.029318077 0.0066916193 0.10779798
-0.029252887 0.0027889831 0.10722268
-0.029519217 -0.0013174408 0.10699052
-0.030236313 -0.0054320293 0.10738897
-0.030963778 -0.0095359366 0.10779709
-0.030293636 -0.013638183 0.1070087
-0.02998771 -0.0015149424 0.10296154
-0.030098677 -0.0056315633 0.10284227
-0.030497381 -0.0093885968 0.1024977
-0.030091576 -0.013233975 0.10214376
-0.028057389 0.012013558 0.10728049
-0.029128687 0.007677462 0.1051628
-0.029064417 0.0028740091 0.10485637
-0.02799511 0.011920858 0.10243571
-0.029507825 0.0071347905 0.10151815
-0.030226912 0.0029940919 0.10192525
-0.030580197 -0.00081437809 0.10084963
-0.030106084 -0.0049288184 0.10022318
-0.030420389 -0.0092995698 0.09947902
-0.030104093 -0.013778074 0.099464595
-0.028436985 0.0099996282 0.098760784
-0.029606733 0.0072862236 0.097655118
-0.030080745 0.0028959711 0.097046077
-0.029911587 -0.0009496141 0.09649992
-0.02989018 -0.0050803279 0.096266687
-0.030270798 -0.0093602771 0.095633149
-0.03056252 -0.013308652 0.095435202
-0.029550178 -0.0056715445 0.092958033
-0.030362913 -0.0090818796 0.092169166
-0.031048588 -0.012897348 0.091115475
-0.026733246 0.012906139 0.09543854
-0.027797189 0.0085064312 0.094546795
-0.028291533 0.0046360479 0.094380379
-0.027347241 0.013123809 0.090245962
-0.027838826 0.0082633812 0.090176463
-0.028656261 0.003393406 0.090644181
-0.028644664 -0.00075917086 0.090418756
-0.028862715 -0.0046955361 0.089836955
-0.029729657 -0.0086704958 0.089470148
-0.03023483 -0.014525008 0.089115322
-0.028556585 0.0070107095 0.086738467
-0.028819647 0.0035731795 0.085790277
-0.029159598 -0.00055963051 0.084874868
-0.029180901 -0.0047208066 0.084679008
-0.029593961 -0.0088806087 0.084831655
-0.030012131 -0.013035086 0.084989548
-0.030495696 -0.0048541347 0.081020176
-0.03052691 -0.0087320879 0.080646873
-0.030532479 -0.012199261 0.080473423
-0.026933875 0.013234252 0.087629497
-0.028103368 0.013358311 0.084651768
-0.028049061 0.0093720471 0.084145248
-0.028588925 0.0047865435 0.083030939
-0.028183632 0.013599095 0.078925967
-0.027894668 0.0096645867 0.079425931
-0.028032968 0.0042067524 0.079211235
-0.029327886 -0.00035319937 0.078986585
-0.030335579 -0.0041400222 0.078186989
-0.030389786 -0.0086410334 0.077499211
-0.029670136 -0.013402862 0.077815711
-0.029183967 -0.00090874237 0.074774981
-0.029792037 -0.0043679522 0.074133515
-0.030036297 -0.0085186865 0.073125899
-0.029917257 -0.012532628 0.073066115
-0.027901411 0.013705831 0.076394439
-0.027537243 0.0094991485 0.076525807
-0.026429007 0.0066834162 0.076734424
-0.027674727 0.0025357315 0.075614572
-0.027308924 0.013857268 0.072807908
-0.026727881 0.0094559621 0.072490811
-0.026503341 0.0054359129 0.072663188
-0.027573416 0.0010283969 0.072050869
-0.029211352 -0.0035648539 0.07059145
-0.028084312 0.014041312 0.068412304
-0.027744055 0.0098433867 0.067884743
-0.027266622 0.0056465524 0.067231774
-0.02824923 0.0014159537 0.067918897
-0.029179828 -0.0034647565 0.067501009
-0.029606786 -0.0083646029 0.067643166
-0.028697746 -0.012776955 0.067019105
-0.028331637 0.0050703837 0.064076066
-0.0290871 0.0013959234 0.063118517
-0.029535873 -0.0028875454 0.06293422
-0.029414229 -0.0076946197 0.06218338
-0.029164042 -0.012026658 0.062211037
-0.030070374 -0.0080890479 0.058842182
-0.030019131 -0.010897323 0.058651388
-0.027593851 0.014154795 0.061532795
-0.027705994 0.010090536 0.061687768
-0.028220313 0.0060761706 0.061373532
-0.029238276 0.0023896932 0.060661554
-0.027953472 -0.013802348 0.059670627
-0.027113507 0.010274449 0.057007313
-0.028154612 0.0056766714 0.057229459
-0.028935008 0.001653358 0.056460202
-0.029768586 -0.0023993577 0.056778967
-0.030091627 -0.006780759 0.056343555
-0.030017955 -0.011633012 0.056249917
-0.02835335 -0.015078795 0.055151165
-0.029116018 -0.0022542309 0.052020967
-0.028903076 -0.0064875712 0.051604807
-0.029489586 -0.01071979 0.051945627
-0.026985629 0.010402692 0.053774118
-0.027375443 0.0064374707 0.05373162
-0.028109653 0.0033402713 0.053434849
-0.027480586 0.0105516 0.050075948
-0.027832441 0.0062909485 0.050194621
-0.028374195 0.0018460954 0.050035179
-0.028817756 -0.002147147 0.048614144
-0.028570943 -0.0063896324 0.048164785
-0.028558169 -0.010645879 0.048384428
-0.02801764 0.01477403 0.046163201
-0.028257558 0.01073334 0.04558903
-0.028305173 0.0064743031 0.045419574
-0.028591888 0.002399001 0.045225382
-0.029247472 -0.0020146458 0.044844449
-0.029425316 -0.0062658549 0.044800878
-0.029137475 -0.010513391 0.044310451
-0.027610557 -0.014615555 0.044289529
-0.029486571 0.0062644728 0.041815221
-0.029690981 0.0023751627 0.041290462
-0.029598355 -0.0018810207 0.040986776
-0.029722247 -0.006327258 0.040431499
-0.029819369 -0.010363398 0.039720595
-0.030789921 -0.0074030696 0.036593199
-0.030818326 -0.0095324302 0.036514163
-0.028650539 0.010971073 0.03966105
-0.029185193 0.007018852 0.038713932
-0.029360533 0.0024933747 0.037812352
-0.029320121 -0.0017729438 0.037558794
-0.029678106 -0.0053303926 0.037727773
-0.028046045 -0.014633846 0.037788391
-0.027986731 0.014732692 0.034971118
-0.028292656 0.010899482 0.034227133
-0.028814282 0.0068958569 0.034322977
-0.028620295 0.0026206106 0.033919632
-0.028874926 -0.0016617182 0.033953011
-0.029890742 -0.0059121833 0.033671558
-0.03050576 -0.010368204 0.033445477
-0.028360248 -0.013619386 0.032213688
-0.029709578 -0.0072077923 0.029179215
-0.03004493 -0.010061506 0.02936703
-0.028193951 0.012668562 0.032944024
-0.028243916 0.00560073 0.030509114
-0.028266294 0.0027403329 0.030387998
-0.028391156 -0.0022650699 0.030260205
-0.028642774 -0.004410692 0.030399919
-0.028490067 0.011398367 0.02890563
-0.028449604 0.0072939638 0.028393507
-0.028449144 0.0028492657 0.027369857
-0.028350592 -0.0012549596 0.027525425
-0.028893523 -0.0054494254 0.027181089
-0.02924272 -0.010001293 0.026444793
-0.027736137 -0.014347995 0.02652055
-0.028991666 0.014418179 0.025273621
-0.028828025 0.011556585 0.024968565
-0.028749602 0.007257144 0.024676383
-0.028448276 0.0029620815 0.024163127
-0.028281314 -0.0016780462 0.023229122
-0.029334936 -0.0055803014 0.022472382
-0.029964669 -0.0098791029 0.022885263
-0.028319938 -0.01277807 0.022176921
-0.0301302 -0.0063888244 0.018210113
-0.030471887 -0.0094456486 0.018257856
-0.027414884 0.01173508 0.020343661
-0.027291605 0.0074195643 0.020005941
-0.027109113 0.0031046504 0.019609034
-0.027554052 -0.00092526351 0.019637823
-0.027017765 0.011156617 0.016676724
-0.027151925 0.0075447392 0.01663202
-0.026450975 0.0032336104 0.015714586
-0.027688878 -0.0010791584 0.015660226
-0.029333863 -0.0048807268 0.015324056
-0.029331207 -0.010009248 0.014166415
-0.02705327 -0.013100014 0.014785469
-0.028369036 -0.0024249663 0.013028622
-0.02877336 -0.0052445875 0.011127174
-0.029028757 -0.0088511752 0.011207819
-0.026314871 0.012329374 0.014401793
-0.026388032 0.0076481812 0.013700604
-0.026419912 0.0033105419 0.013517618
-0.027121425 0.012133868 0.010310531
-0.027027676 0.0077927462 0.010000229
-0.02707151 0.0034494484 0.009829998
-0.02746531 -0.0007077491 0.0097519159
-0.028412053 -0.0051749526 0.0085876584
-0.028156552 -0.0098863672 0.0086394548
-0.025836468 -0.013744214 0.0080002546
-0.028242026 0.012352867 0.0049083233
-0.028099179 0.0080069173 0.0045474768
-0.028073685 0.0036578912 0.0043072701
-0.027851753 -0.00051509624 0.0041474104
-0.028175456 -0.0050388942 0.0039820075
-0.028213928 -0.0093852123 0.0038075447
-0.026631372 -0.012665835 0.0025737286
-0.028647576 0.011059618 0.00087249279
-0.025860379 -0.013744884 0.0011818409
-0.027923534 0.012883097 -0.0011079311
