# .PCD v0.7 - Point Cloud Data file format
VERSION 0.7
FIELDS x y z
SIZE 4 4 4
TYPE F F F
COUNT 1 1 1
WIDTH 427
HEIGHT 1
VIEWPOINT 0 0 0 1 0 0 0
POINTS 427
DATA ascii
0.021522684 -0.026846267 0.18183258
0.02493044 -0.025792569 0.18220201
0.019050699 -0.029456895 0.17841315
0.021543119 -0.028640611 0.17841938
0.026189025 -0.027921066 0.1789979
0.022891279 -0.029734904 0.17455107
0.025679901 -0.028783103 0.1745322
0.025915463 -0.02967472 0.17115617
0.015464862 -0.02340637 0.18417534
0.020004625 -0.022938389 0.18458363
0.02279111 -0.022289066 0.18416747
0.012254382 -0.027556445 0.18142962
0.016695518 -0.026703792 0.18224204
0.019628882 -0.025522042 0.18263116
0.024710212 -0.021925757 0.18255386
0.01307501 -0.029461619 0.17720023
0.016804643 -0.029186644 0.17769706
0.028837316 -0.024004854 0.17684895
0.014332195 -0.029688245 0.17248631
0.017737402 -0.030179832 0.17319191
0.02088475 -0.029577348 0.17314699
0.026584852 -0.027642142 0.1725733
0.02829898 -0.02540206 0.17228425
0.017901901 -0.030512167 0.16853437
0.021819457 -0.030195238 0.16872823
0.025576994 -0.029032212 0.16818726
0.02789839 -0.026303526 0.16774455
0.022170484 -0.029625973 0.16475251
0.025426256 -0.028946837 0.16444051
0.027822532 -0.027817516 0.1648109
-0.001530786 -0.026621325 0.18326688
0.0021680649 -0.025328269 0.18407318
0.0055736522 -0.024043545 0.18395808
0.0099465642 -0.022880552 0.1833376
0.013753537 -0.019717287 0.18365636
0.017889308 -0.019410394 0.18485796
-0.0012103468 -0.028415436 0.18022928
0.0028714347 -0.027820902 0.18075091
0.0070260311 -0.027196426 0.18061164
0.0098279743 -0.02544849 0.18250236
-0.00042419787 -0.02957923 0.17637575
0.0032275589 -0.029253285 0.17547703
0.0071640518 -0.028734136 0.17548504
0.010329941 -0.029177699 0.17526847
0.0045904736 -0.029605439 0.17057329
0.0074215466 -0.029552799 0.17029288
0.011525331 -0.029480519 0.17098787
0.0083331205 -0.030504605 0.16570014
0.01254853 -0.030250713 0.16653296
0.016945662 -0.030626118 0.16603929
0.028778762 -0.023784021 0.16531217
0.0091957189 -0.031170227 0.16271681
0.012542473 -0.030627098 0.16252303
0.01663105 -0.029763982 0.16149706
0.020862231 -0.028878458 0.16152784
0.025008 -0.028103739 0.161401
0.028330065 -0.025684923 0.16154432
0.021285225 -0.028808318 0.15684411
0.024561776 -0.028094418 0.15631127
0.027070932 -0.026432924 0.15718207
-4.1869003e-05 -0.020418115 0.18406564
0.0038664858 -0.019389872 0.18423632
0.0071542258 -0.016881697 0.18398708
0.01161545 -0.014915787 0.18352011
0.016080033 -0.014082395 0.18424967
-0.00025137793 -0.023372984 0.18422315
0.0059439633 -0.020992652 0.18398267
0.0084192045 -0.020038322 0.18388423
0.011315763 -0.018385904 0.1834023
-0.0014458038 -0.029336091 0.1731675
-0.0014607869 -0.02913902 0.16849872
0.0025350871 -0.029306423 0.16869289
-0.00079918839 -0.029526854 0.16371399
0.0027624872 -0.029417999 0.16356903
0.0058811563 -0.029877581 0.16465396
0.0031294376 -0.029836023 0.15980211
0.00706224 -0.030235929 0.15943527
0.011128061 -0.030104443 0.15918207
0.007560852 -0.029638154 0.15564296
0.011122341 -0.02920527 0.15457863
0.015885811 -0.028943742 0.15533677
0.01941858 -0.028855599 0.15522581
0.025507405 -0.026307587 0.15392646
0.027726384 -0.023582222 0.15404528
0.012053762 -0.02995564 0.15079397
0.015921615 -0.029032042 0.1500026
0.020816904 -0.028885731 0.15028128
0.02449639 -0.02771749 0.14977214
0.026527893 -0.024648067 0.1496909
0.017847011 -0.029251467 0.14675176
0.020760998 -0.029129697 0.1443637
0.023981839 -0.028258713 0.14495036
-0.0016030935 -0.016660998 0.18389571
0.0021692743 -0.015275058 0.18379122
0.0059767999 -0.01321832 0.18415123
0.0098953601 -0.011916874 0.18387514
-0.0014611995 -0.0302752 0.15840468
0.0022691367 -0.029639935 0.15694234
-0.0003512511 -0.029954355 0.15391883
0.0028773202 -0.029639684 0.1532408
0.0065396503 -0.029680306 0.15302655
0.00965288 -0.029779159 0.1525459
0.0038762921 -0.030117705 0.14948276
0.0069896206 -0.030277677 0.14874649
0.010609291 -0.030150827 0.14870775
0.013900672 -0.030029014 0.14820385
0.007732125 -0.030602908 0.1445677
0.011125632 -0.03068161 0.14424059
0.015793005 -0.029735353 0.14425039
0.019297866 -0.029653406 0.1427443
0.024874423 -0.027039152 0.14275354
0.027267803 -0.024251889 0.14350295
0.011652999 -0.03056022 0.1405209
0.015847286 -0.030312313 0.13953251
0.020347983 -0.029801397 0.13823873
0.024266249 -0.02806741 0.13811642
0.026839178 -0.024744913 0.13875058
0.020550795 -0.030514359 0.13462484
0.023850674 -0.029182285 0.13414657
-0.0004633558 -0.0088539217 0.1834504
0.0034870869 -0.0077143465 0.18446544
0.0072893412 -0.0063338876 0.18436927
0.00045601837 -0.011120936 0.18334401
0.0039993892 -0.010841877 0.183934
0.0084959771 -0.0094168009 0.18396086
0.0011061551 -0.029160507 0.15057465
-0.0028884402 -0.029578909 0.14566705
0.0018620752 -0.029533267 0.1464251
0.0050920439 -0.029921697 0.14588904
-0.0016214056 -0.029955961 0.14232141
0.0023257704 -0.029731333 0.14153662
0.0059003108 -0.029964373 0.14173019
0.0064994623 -0.02952713 0.13713351
0.010258779 -0.029745953 0.13710344
0.013469297 -0.030032398 0.13680899
0.027641686 -0.023283573 0.13594884
0.011112446 -0.02933147 0.13311899
0.014848006 -0.029729741 0.13337946
0.019724738 -0.029879332 0.1317004
0.024124555 -0.027314702 0.13134485
0.026688162 -0.024062309 0.13210747
0.015741251 -0.029171947 0.12913671
0.019376518 -0.029503649 0.12776411
0.023854667 -0.027891945 0.1271213
0.025617439 -0.024994167 0.12659231
0.019887976 -0.029077122 0.12443671
0.023820737 -0.028156172 0.12285572
0.0022353949 -0.0045634434 0.18483782
0.00019277446 -0.029347561 0.13948089
-0.0019899961 -0.029266484 0.13536787
0.0015470926 -0.029108865 0.13513038
0.0046978919 -0.02898097 0.13434419
0.0021782992 -0.029189048 0.13066059
0.0057305754 -0.029075075 0.13046968
0.0094513278 -0.029073359 0.13057342
0.012801005 -0.028991712 0.13012412
0.0063591064 -0.029716104 0.12610289
0.0096085174 -0.028689506 0.12616676
0.013714243 -0.028484756 0.12590313
0.026978552 -0.022956047 0.12535742
0.014249256 -0.027898392 0.12198231
0.018098526 -0.028465116 0.12154624
0.022961421 -0.02796476 0.1208694
0.026550576 -0.025128841 0.12147021
0.018886231 -0.0283795 0.11719412
0.022913925 -0.028212653 0.11639547
0.026206812 -0.025826877 0.11625826
0.023343198 -0.028737362 0.11209744
0.024877764 -0.028051682 0.11148465
0.00019487699 -0.0002534517 0.18448216
-0.00056554377 -0.028358487 0.13185507
0.00053533539 -0.029043309 0.12819523
0.0039154924 -0.028955393 0.12774113
0.001243053 -0.02905038 0.12352616
0.0049471888 -0.02971267 0.12399086
0.0093882391 -0.028451001 0.12303513
0.0023717899 -0.029592272 0.12011191
0.0057569379 -0.030234672 0.11984086
0.0095505128 -0.029174617 0.11978906
0.013293195 -0.028097928 0.11939961
0.016091788 -0.027360536 0.11819458
0.0063358769 -0.03017492 0.11518574
0.0093580037 -0.029266909 0.11399233
0.013395508 -0.028304061 0.11433053
0.017386645 -0.028474474 0.11492145
0.026894424 -0.023572195 0.11425585
0.010262061 -0.029986583 0.11092556
0.013803014 -0.029218577 0.10989636
0.017830409 -0.028793663 0.11011773
0.021643745 -0.028809341 0.1104182
0.025889069 -0.02513426 0.1093998
0.027034262 -0.02237279 0.10943586
0.017773014 -0.028978195 0.1063478
0.022242039 -0.02876889 0.10572559
0.025265299 -0.02698984 0.10553265
0.023359101 -0.028672658 0.10180354
0.024591198 -0.028085161 0.1016705
-0.0015436639 0.0047846599 0.18430224
-0.0017623575 -0.028355315 0.12190193
-0.00026841648 -0.028678082 0.11738044
0.0035820263 -0.029336836 0.11635607
0.0013455674 -0.029067254 0.11292982
0.0045961388 -0.02981323 0.1124692
0.0054273307 -0.029873287 0.10818338
0.0091505842 -0.02986683 0.10800499
0.012831523 -0.029400669 0.10725987
0.0061626653 -0.029709768 0.10367322
0.0091360547 -0.029745771 0.10355711
0.013463167 -0.029483769 0.10358143
0.017372847 -0.028276358 0.10271722
0.020274406 -0.028205141 0.10250193
0.025976852 -0.025267724 0.1023618
0.027880352 -0.023195444 0.10250926
0.013159849 -0.029123552 0.099261165
0.017179254 -0.028063079 0.099533916
0.021563187 -0.027461119 0.098316908
0.025321102 -0.025972333 0.097914815
0.027994271 -0.024232393 0.097881734
0.022505604 -0.027058149 0.094300866
0.024131399 -0.027481802 0.094135761
-0.0013204804 -0.028735947 0.11185151
-0.00066962186 -0.029026644 0.10711139
0.0039575621 -0.02954001 0.10586762
0.00036099739 -0.029239338 0.10193592
0.0044285469 -0.029757619 0.1017437
0.0089961458 -0.029695394 0.10052007
0.0040833545 -0.029786959 0.097711205
0.0089303609 -0.029368892 0.096838892
0.012886907 -0.028748814 0.095903993
0.016999077 -0.027882006 0.096367657
0.019593954 -0.026969973 0.096357226
0.0094945841 -0.029267902 0.092375576
0.012990889 -0.029421423 0.091526985
0.017067429 -0.028452972 0.091902733
0.021136843 -0.027960826 0.092426777
0.025181018 -0.025480855 0.091489136
0.027492173 -0.02339389 0.091094434
0.013328137 -0.029922204 0.087259412
0.017458037 -0.029406279 0.087089181
0.021443816 -0.028698498 0.08741647
0.02494264 -0.026351899 0.086459935
0.026998963 -0.024020946 0.086092949
0.022024764 -0.02906438 0.082699835
0.02434196 -0.027655924 0.082722545
-0.0017399946 -0.0283617 0.095038593
0.002334605 -0.0285675 0.094711125
0.0040676361 -0.02853127 0.090473354
0.0072667114 -0.028585384 0.090759337
0.0051526926 -0.02893603 0.086834431
0.0082084583 -0.028725231 0.085795224
0.012749245 -0.029469756 0.084502399
0.015638631 -0.029278878 0.084192514
0.0096491203 -0.029462967 0.081566334
0.012399642 -0.029381368 0.081054628
0.016648315 -0.028374519 0.080706179
0.020492079 -0.028131625 0.079970598
0.02494554 -0.025888342 0.080052018
0.027222477 -0.023074158 0.080338478
0.01261246 -0.029764421 0.077664375
0.017058238 -0.028267045 0.07649982
0.020544417 -0.02788211 0.075833142
0.024811447 -0.026329264 0.076106191
0.026944753 -0.024662364 0.075564623
0.021779692 -0.028563023 0.071706176
0.023583654 -0.027875738 0.071252942
-0.0025705155 -0.028333552 0.088098884
0.001038813 -0.028241016 0.088666499
-0.0016351519 -0.028612576 0.083904386
0.001870079 -0.028602585 0.083576918
0.0054894206 -0.02886894 0.083524883
0.0032188846 -0.028782576 0.078061581
0.006661626 -0.028998764 0.079069495
0.0080220066 -0.029056728 0.074863851
0.01195555 -0.0295265 0.074077785
0.015620975 -0.028230865 0.074212193
0.012046702 -0.029848795 0.069647551
0.016723616 -0.029466841 0.070541918
0.019719884 -0.028564453 0.070162892
0.024923423 -0.025651202 0.069721341
0.026841249 -0.023313249 0.068677783
0.016635139 -0.029679617 0.065601468
0.020801697 -0.02889026 0.065173566
0.024188556 -0.026577376 0.064441085
0.021873388 -0.02815078 0.060756862
0.023230717 -0.027781934 0.060853899
0.00056498125 -0.027899444 0.077534616
-0.0027645584 -0.028350003 0.072509348
0.00093500502 -0.027961344 0.072349072
0.005405921 -0.028259624 0.072167456
0.0014940053 -0.02879508 0.067938268
0.0055411141 -0.028534701 0.068102181
0.0090346839 -0.029335413 0.067050815
0.0060972553 -0.028892722 0.064223528
0.010513587 -0.028580768 0.062887669
0.01525995 -0.028448422 0.061527193
0.025054038 -0.02471298 0.060757399
0.026874192 -0.022779072 0.062697291
0.010904705 -0.02847771 0.058994055
0.01474845 -0.028115543 0.05780828
0.019764578 -0.027546406 0.058323979
0.02369383 -0.025355028 0.05712533
0.026448335 -0.022632852 0.058320165
0.015066925 -0.028549334 0.05484879
0.019345287 -0.027511718 0.053388119
0.022933463 -0.025604453 0.053662419
0.0004795501 -0.028999779 0.065165579
0.0013557719 -0.028624728 0.062529564
0.0051661865 -0.02861236 0.060908675
0.0055526788 -0.028439164 0.057152212
0.0094748531 -0.028897386 0.056851089
0.026239149 -0.021651121 0.05497098
0.010005766 -0.02841215 0.052608788
0.014279373 -0.028696878 0.052311301
0.017234435 -0.028600346 0.051433325
0.023032505 -0.025406878 0.051096082
0.024915762 -0.023095742 0.051001906
0.01488413 -0.028725803 0.047671795
0.018789668 -0.028529434 0.047964692
0.022289084 -0.026866252 0.047580004
0.024396302 -0.023985833 0.047473133
0.019828219 -0.028247451 0.042557836
0.021991968 -0.027302479 0.042745113
0.00041650422 -0.027653813 0.058802545
0.00044805463 -0.028155856 0.054754019
0.0046103406 -0.028141683 0.053789616
-0.0024010995 -0.029110394 0.050884843
0.00035661273 -0.028969854 0.04998529
0.0052012932 -0.028572271 0.049929678
0.0089763841 -0.027891038 0.049001336
0.012169599 -0.027507843 0.048837245
0.0010143509 -0.029665641 0.046390891
0.0048563713 -0.029194698 0.045333862
0.0096355211 -0.028574912 0.045405507
0.013098727 -0.027946057 0.044509768
0.016667459 -0.027767478 0.044240594
0.023141293 -0.024946522 0.043760777
0.025102966 -0.021513233 0.04426825
0.0061237267 -0.029610489 0.041816175
0.0093559669 -0.028861746 0.040774822
0.013641897 -0.028146319 0.040457606
0.017710678 -0.028003378 0.040296674
0.022272574 -0.026287194 0.039808273
0.024758682 -0.023100695 0.040081084
0.010865924 -0.029139722 0.03730309
0.013957158 -0.028494403 0.036874771
0.018112622 -0.028310189 0.035744667
0.021979313 -0.027057989 0.035067022
0.024507239 -0.024180986 0.035615146
0.018046513 -0.028403493 0.032637358
0.022182105 -0.027421692 0.030974984
0.00018932112 -0.029669449 0.04329294
0.00053258706 -0.029210785 0.039504409
0.004303196 -0.029211592 0.038752019
0.007682872 -0.028771011 0.038039565
0.0054758266 -0.028731678 0.034459114
0.0089542251 -0.02850165 0.033970356
0.012936217 -0.02797831 0.033205807
0.02564236 -0.021941841 0.032968819
0.010088628 -0.027905852 0.029541075
0.012988353 -0.027422305 0.030051291
0.017894186 -0.027548624 0.028817177
0.022318894 -0.026617777 0.028854311
0.024901714 -0.023863249 0.028862
0.018391786 -0.027659262 0.023966968
0.021780752 -0.027371664 0.02467519
0.023989746 -0.024723927 0.02372694
0.021713274 -0.027083356 0.019831896
-0.00019110553 -0.028530816 0.036319733
-0.00035633799 -0.028930776 0.033176959
0.0032795942 -0.028547572 0.03286171
0.0069809398 -0.027748076 0.030499756
-0.00013002567 -0.029480826 0.028692961
0.0041962028 -0.028721608 0.028347969
0.0081243534 -0.027807707 0.0275172
0.012524433 -0.026520982 0.026924729
0.015411705 -0.026173657 0.025423825
0.025787853 -0.021187903 0.026358128
0.0051769721 -0.02902966 0.023965776
0.0085342992 -0.027916113 0.02322644
0.012679981 -0.027240694 0.023368359
0.0162389 -0.027245516 0.022424996
0.022703309 -0.025581116 0.020889521
0.025112953 -0.022354674 0.022946954
0.013719823 -0.027979055 0.018398643
0.017141286 -0.027846383 0.018388808
0.021393247 -0.026403628 0.017787457
0.023683682 -0.022991104 0.018052697
0.014407814 -0.028516544 0.014398098
0.017894713 -0.02828012 0.01392597
0.02114673 -0.027241549 0.013635695
-0.0005791029 -0.02880539 0.024700522
-0.00058354065 -0.02838983 0.021296263
0.0031808782 -0.028282601 0.020443678
0.0073521319 -0.02776481 0.019922614
0.0042481562 -0.027534993 0.015775502
0.0077770548 -0.027230574 0.016321659
0.011344019 -0.027445959 0.016114414
0.024340728 -0.020941909 0.014174223
0.0083182976 -0.026952634 0.012991071
0.012762889 -0.02774596 0.01136297
0.015958901 -0.02756317 0.010405958
0.022107592 -0.024841389 0.010271192
0.024039818 -0.022383057 0.010282159
0.013071512 -0.027673092 0.0077015758
0.017040556 -0.027217217 0.0066766739
0.020883001 -0.025962453 0.0065795183
0.023832612 -0.022902375 0.0064621568
0.020854816 -0.026140409 0.0034707785
-0.0015805196 -0.02743989 0.014435291
0.0020353496 -0.027372736 0.014149487
8.2301907e-05 -0.028212296 0.009201169
0.0030015688 -0.027638374 0.0096516609
0.0071816677 -0.026918119 0.0097726583
0.010470362 -0.026841434 0.0092728138
0.0035785544 -0.028275535 0.0046325326
0.0074958876 -0.027637525 0.0046435595
0.011472845 -0.027160177 0.0048331022
0.014792047 -0.026456151 0.0038480163
0.024389595 -0.021569995 0.0037668347
0.0080159986 -0.027398974 0.00020521879
0.012252958 -0.026956711 -0.00020825863
0.016295325 -0.026645266 0.00017398596
0.02048713 -0.025437454 0.00019353628
0.023565196 -0.022152411 -0.00033819675
-0.0019195108 -0.027742831 0.0036813021
0.0014859708 -0.028407887 0.0033043623
0.0024998207 -0.027992468 -0.0014232397
