# .PCD v0.7 - Point Cloud Data file format
VERSION 0.7
FIELDS x y z
SIZE 4 4 4
TYPE F F F
COUNT 1 1 1
WIDTH 383
HEIGHT 1
VIEWPOINT 0 0 0 1 0 0 0
POINTS 383
DATA ascii
0.038573086 0.015903136 0.18055165
0.039333463 0.016600365 0.1791997
0.031727731 0.010819701 0.18370751
0.031889915 0.015422647 0.18359232
0.035873294 -0.013693074 0.18181157
0.035624921 -0.009112509 0.18232453
0.035586476 -0.0046476726 0.18233728
0.035196066 0.00070482458 0.18184155
0.035868168 0.00607047 0.18201157
0.036096573 0.010659309 0.18193951
0.036361516 0.015631026 0.18202287
0.037211835 -0.018850643 0.17810115
0.037554979 -0.014086818 0.17769408
0.037916303 -0.0094758179 0.17770922
0.037763298 -0.0048845746 0.17739829
0.038203359 0.00048335994 0.17742842
0.038784802 0.0058448128 0.17754847
0.038789034 0.010431038 0.17733726
0.039008021 0.014816469 0.17704651
0.038772464 0.020364458 0.17686367
0.037698388 -0.0096568987 0.17395172
0.037708282 -0.0050506592 0.1737437
0.038441181 0.00033411366 0.17396346
0.038586915 0.005664872 0.17290035
0.039225399 0.010431694 0.17240781
0.03966862 0.014826143 0.17226148
0.039850712 0.02018184 0.17213011
0.039678991 0.011634151 0.16877943
0.039609134 0.015469799 0.16855603
0.040096998 0.020804906 0.1677134
0.028499186 -0.013518308 0.18356949
0.028564811 -0.0089486791 0.18396536
0.028943062 -0.0047560264 0.18400311
0.028842926 0.00050223002 0.18317676
0.028269112 0.0060506291 0.1831432
0.027704298 0.010916346 0.18392053
0.031690836 -0.014248221 0.18260351
0.032198489 -0.010748276 0.18320757
0.037005305 -0.014383165 0.17190322
0.037235796 -0.0098027792 0.17092779
0.037348509 -0.0051834919 0.17078578
0.037449539 0.00020243577 0.17060071
0.038150787 0.0055537969 0.16989434
0.038394451 0.0086283442 0.16990924
0.03696382 -0.01466305 0.16640213
0.037409544 -0.010017687 0.16647667
0.037998319 -0.0053758826 0.1666458
0.038217664 2.1280528e-05 0.16653931
0.038200855 0.0054107457 0.16627753
0.03841269 0.0098289941 0.16598129
0.038872838 0.014406303 0.16577616
0.03962189 0.019218931 0.16565135
0.038179934 -0.017893206 0.16367298
0.038123727 -0.014805967 0.16349322
0.038262963 -0.010167653 0.16337028
0.038262248 -0.0055568498 0.16269642
0.038205624 -0.0009456707 0.16198561
0.038161039 0.0041325781 0.16185313
0.03789711 0.0098941494 0.16220176
0.038557053 0.014803642 0.16167247
0.039037526 0.019394243 0.16085607
0.020850182 -0.0091939112 0.1833685
0.020822167 -0.0045299074 0.18313187
0.021173775 0.00013953354 0.18312779
0.021065235 0.0055750208 0.18280542
0.022229195 0.011012317 0.18326351
0.025180221 -0.0099296076 0.18424803
0.025209606 -0.0037399798 0.18397516
0.024351895 0.00011293696 0.18326566
0.024001539 0.0047527915 0.18283173
0.036643386 -0.015002558 0.15975845
0.036838174 -0.010344988 0.15967196
0.037653267 -0.005685214 0.15981138
0.037032783 -0.0010853282 0.15844929
0.037137449 0.0048173624 0.15861571
0.03703934 0.009790251 0.15887511
0.037399769 0.014028566 0.15845674
0.036922693 -0.015020637 0.15554121
0.036677599 -0.010756124 0.15518117
0.036676288 -0.0060950411 0.15496549
0.036201417 -0.0012112933 0.15530673
0.036289155 0.0044003478 0.15416026
0.036211371 0.0096183885 0.15369892
0.036795795 0.014275571 0.1538741
0.037869811 0.018918684 0.15437761
0.037542105 0.019822175 0.14977953
0.016881585 -0.0044937013 0.18345511
0.017319202 0.00019526371 0.18350083
0.017251074 0.0053135464 0.1830878
0.036774039 -0.016882587 0.15343565
0.036743641 -0.0091048609 0.15305734
0.036658525 -0.0044409395 0.15278569
0.036432981 -0.0013148545 0.15295616
0.036600947 0.0017784105 0.15246084
0.037070751 -0.016284423 0.14987415
0.037080944 -0.010829296 0.14963043
0.037082314 -0.006155238 0.14941657
0.036842525 -0.0014871417 0.14904052
0.036756933 0.0039637345 0.1487323
0.036754966 0.0094148088 0.14848047
0.03686136 0.014085369 0.14833784
0.03737545 0.018210778 0.14787385
0.036776066 -0.016258636 0.14529848
0.036737204 -0.010744138 0.14489424
0.037519574 -0.0061524194 0.14462659
0.037902117 -0.0017084724 0.14414799
0.037361383 0.002966305 0.14356384
0.037178755 0.0083640385 0.14336309
0.037617564 0.013890797 0.14323962
0.037920237 0.018566517 0.14323282
0.037684917 0.001254631 0.14009872
0.037513852 0.010636086 0.1395523
0.037538886 0.015326204 0.13935542
0.03756398 0.020014824 0.13915855
0.0091885924 -0.0036685164 0.18332422
0.010642111 0.00028714212 0.18401414
0.010479867 0.0049963896 0.1836938
0.012247562 -0.0044718995 0.18337861
0.013381064 0.00025106093 0.18384233
0.012990594 0.0049457089 0.18338421
0.035718262 -0.016952064 0.14209408
0.035409927 -0.011612777 0.14148098
0.036442041 -0.0072963615 0.14152107
0.036585271 0.0091385487 0.14086807
0.035552084 -0.016923459 0.13756076
0.035054684 -0.011438427 0.13696629
0.035293698 -0.0067151156 0.13691661
0.036355138 -0.0019810146 0.13743508
0.036872864 0.0029186101 0.13733321
0.036997974 0.0079982448 0.1372529
0.036666155 0.013497723 0.13670731
0.036151886 0.018203242 0.13613695
0.036019444 -0.016311482 0.13405666
0.03591907 -0.010805944 0.13373601
0.035876036 -0.0084464382 0.13359857
0.036437273 -0.0018596447 0.13292867
0.037309051 0.0027551928 0.13272953
0.03773737 0.0080097597 0.13224685
0.037475109 0.013504909 0.13181296
0.037089586 0.018218292 0.13132817
0.037795186 0.0078686308 0.12848133
0.037723422 0.011801144 0.1282523
0.0061153173 0.00033544403 0.1840418
0.035510302 -0.017512225 0.13120925
0.035915017 -0.011936313 0.13133118
0.035954654 -0.006771306 0.13143101
0.03623873 -0.0026818051 0.13025182
0.03675735 0.0016375703 0.12994307
0.034341156 -0.016669637 0.12715623
0.035304129 -0.011610189 0.12683836
0.035867035 -0.0071770218 0.12684312
0.035679936 -0.0024427532 0.12649608
0.036022305 0.0024684814 0.12579486
0.037362516 0.00676102 0.12576336
0.037727654 0.012665795 0.12591934
0.037178159 0.018037247 0.12566876
0.036811411 0.0076490543 0.12203842
0.037451863 0.012630658 0.1216284
0.037097573 0.017613152 0.12050748
0.034314215 -0.017641716 0.12508214
0.034577966 -0.012471477 0.12376565
0.035309613 -0.007322852 0.12357122
0.03469336 -0.0025858174 0.12291828
0.034909606 0.00058593194 0.12292856
0.034303606 -0.017857822 0.11946315
0.03513658 -0.012266114 0.11980736
0.035827041 -0.0074845725 0.12008762
0.035224199 -0.0027404523 0.1194402
0.034991622 0.0020155439 0.11905849
0.035770833 0.006532596 0.1188615
0.036502182 0.01149228 0.11855602
0.036702394 0.017419195 0.11814284
0.034795105 -0.015647426 0.1158362
0.035271645 -0.012072831 0.11553323
0.035843253 -0.0075387829 0.11452758
0.035337389 -0.0029460082 0.11468375
0.03537333 0.0015972197 0.11377525
0.035764813 0.006560789 0.11359239
0.036714792 0.011329768 0.11406523
0.036978543 0.016670907 0.11419255
0.036801457 0.011193594 0.1102441
0.037047923 0.01625528 0.1094166
-0.0057214499 0.0004737803 0.18437517
0.034572482 -0.01375879 0.11252773
0.035631478 -0.0094360653 0.11226809
0.03544265 -0.0030689223 0.1118443
0.03534472 0.0033002549 0.11148655
0.034104705 -0.013267541 0.10853124
0.035815835 -0.0080165025 0.10842788
0.035854995 -0.003227981 0.10824269
0.035791695 0.0015564669 0.10798204
0.036090732 0.0063433475 0.10798711
0.036583483 0.011091238 0.10715806
0.036745429 0.015455885 0.10659212
0.036126673 -0.0066307639 0.10368991
0.036149621 -0.0034320971 0.10356379
0.036017179 0.0013625713 0.10325074
0.035710037 0.0061636767 0.10300493
0.035643578 0.010953465 0.10254455
0.036061823 0.015961593 0.1022085
0.033760965 -0.014233386 0.10562885
0.034531295 -0.013935735 0.10184723
0.035510242 -0.0087629948 0.10206163
0.036168218 -0.0035581256 0.10062736
0.036008537 0.001243701 0.10029399
0.035155416 0.0060594208 0.099936843
0.035418451 0.010849571 0.099425375
0.035805345 0.014852693 0.099534869
0.034737289 -0.014168123 0.097061634
0.035704613 -0.0083446708 0.096782565
0.035794079 -0.0039414824 0.096971869
0.03521651 0.0011128035 0.096739054
0.034835875 0.0059268302 0.096239686
0.035147727 0.010960193 0.095823944
0.035932779 0.015523912 0.095642269
0.034823895 -0.010282578 0.093972862
0.034974992 -0.0030340871 0.093764126
0.035386682 0.011131676 0.092117429
0.036044538 0.015690854 0.090951502
0.032971025 -0.015282376 0.090799034
0.033446193 -0.0099103414 0.090253174
0.033572376 -0.0039980919 0.089753091
0.033586562 0.00088801567 0.090545058
0.033662796 0.0057302653 0.090387881
0.034442604 0.0098982248 0.089994967
0.035413623 0.013723975 0.089364409
0.033766866 -0.01549763 0.086402297
0.033813536 -0.0098292567 0.086186767
0.03387785 -0.0039497749 0.085544586
0.033965945 0.00065210985 0.084833741
0.034020483 0.0055074408 0.084660769
0.034254611 0.010360455 0.084624171
0.034814119 0.015208015 0.084836602
0.035000682 0.0053645461 0.081394494
0.035437226 0.0098702107 0.080725431
0.03533572 0.015059223 0.080720425
0.033639431 -0.015650285 0.083292603
0.033550739 -0.010786841 0.083009362
0.03362298 -0.005919537 0.082849503
0.034250259 -0.015824558 0.079729855
0.034185171 -0.010953901 0.079464555
0.034357905 -0.0052662254 0.079347491
0.034786582 0.00042166526 0.079428434
0.03495729 0.0052500754 0.078337014
0.035341561 0.010503637 0.077898026
0.035239637 0.014971638 0.077925026
0.033700764 -0.016044648 0.075257599
0.033467889 -0.010350026 0.074825287
0.033979714 -0.0054513314 0.075008452
0.034367919 -0.00025980582 0.073920012
0.034418404 0.0055192909 0.074358642
0.034614921 0.009972861 0.073807895
0.035220325 0.014814002 0.073050678
0.033364534 -0.016157575 0.072963595
0.033091128 -0.01165512 0.073060989
0.033586264 -0.0063632824 0.072706282
0.033836007 -0.0007363655 0.070614934
0.033183217 0.0046715639 0.070680916
0.034295738 0.0098655242 0.070510268
0.033098936 -0.016368371 0.06867522
0.032988608 -0.011464233 0.068373561
0.032996655 -0.0065570367 0.068164647
0.033698261 -0.0016803223 0.067480087
0.033514023 0.0040377467 0.067084074
0.033609509 0.0097568911 0.0669083
0.033666492 0.014656732 0.066738248
0.033247769 -0.016563507 0.064696252
0.033175826 -0.011648428 0.064424038
0.033227801 -0.006730773 0.064250052
0.033939838 -0.0015082363 0.063763738
0.034134626 0.0032292041 0.062933862
0.033907652 0.0090400297 0.062270641
0.033769667 0.014509207 0.062281013
0.032787025 -0.01673324 0.061244011
0.033232033 -0.011789998 0.061383009
0.033451557 -0.0068597854 0.061342955
0.033487022 -0.0023689107 0.060659647
0.033817708 0.0045869774 0.060104728
0.033981681 0.0086861048 0.060056806
0.033638358 0.014424277 0.059531748
0.032304764 -0.016904138 0.057761431
0.032963455 -0.011554647 0.057538033
0.033421874 -0.0069957119 0.058226109
0.033111334 -0.0020722118 0.057762146
0.033109605 0.0028601042 0.057545662
0.033150911 0.0077506467 0.056328773
0.033505023 0.012901859 0.055944443
0.031832874 -0.012464072 0.053862035
0.031868517 -0.0071730097 0.053868771
0.031751871 -0.0022266568 0.053559422
0.031881809 0.0027242 0.053449035
0.031932652 0.0076328828 0.052236319
0.032337368 0.011756649 0.052384198
0.03210187 0.016701506 0.051978707
0.031920075 -0.012315105 0.049961746
0.031996667 -0.0073518851 0.049808681
0.032248855 -0.0023881146 0.049798727
0.032307982 0.0025690212 0.049631774
0.032006681 0.007522007 0.049171448
0.031986713 0.012476562 0.048939943
0.032687247 -0.017236684 0.046163499
0.032902837 -0.012524508 0.045536518
0.032841504 -0.0075582699 0.045271218
0.032803476 -0.0025920928 0.045025229
0.032900155 0.002375023 0.044889152
0.032850564 0.0073391474 0.044633508
0.032713354 0.012301834 0.04430604
0.032883227 0.017048938 0.043977499
0.034116507 0.00554054 0.041551769
0.032959819 -0.012815546 0.039274812
0.032813787 -0.0078354347 0.038938761
0.03285408 -0.0028508944 0.038756847
0.032713771 0.0021295748 0.038425863
0.032763958 0.0073095723 0.037980437
0.032756209 0.012092059 0.038032055
0.032499313 0.01707389 0.037603974
0.032348394 -0.01636686 0.03468287
0.032740712 -0.013019295 0.03486675
0.032492757 -0.0080293659 0.034444928
0.032146752 -0.0038724751 0.033976972
0.032542109 0.0069586276 0.03384161
0.032459676 0.011951922 0.033558011
0.031980455 0.01528292 0.033014238
0.032253444 -0.013134891 0.03233695
0.032162189 -0.0081317127 0.032045543
0.031993508 -0.0026913532 0.032202363
0.031901121 0.0019148304 0.03245908
0.032097399 0.0068795173 0.0313465
0.03198868 0.011881726 0.03104049
0.03301847 -0.013305707 0.02872014
0.03297627 -0.008295361 0.02846992
0.03199172 -0.0035194741 0.028044939
0.032000482 0.0017519849 0.028285146
0.032401145 0.0067281588 0.027339876
0.03278178 0.011739468 0.027447343
0.03237164 0.016750021 0.026886344
0.033589602 -0.016830647 0.025074959
0.032913208 -0.013507864 0.024357498
0.032750368 -0.0093265027 0.024040222
0.032585979 0.0082503166 0.023149371
0.033477426 0.011546014 0.022234082
0.032950222 0.01547741 0.022435009
0.030668974 -0.0025823959 0.024131775
0.03073144 0.0016106605 0.024005353
0.032182992 -0.013683667 0.020513654
0.031778038 -0.008397934 0.020403385
0.030711472 -0.0035525621 0.020980954
0.03091228 0.001668015 0.020120382
0.031746387 0.0062737889 0.020097375
0.032983482 0.011454431 0.019050598
0.031302869 -0.013865341 0.016525507
0.031184494 -0.0099715283 0.015535295
0.030902386 -0.0053646234 0.017983675
0.030840397 0.0029646675 0.015411377
0.031680703 0.0066436394 0.01511085
0.032456756 0.011347102 0.015362322
0.031554282 0.016427049 0.015452445
0.031188905 -0.013970534 0.014262855
0.03041482 -0.0077772276 0.014055669
0.029879272 -0.003593585 0.014592171
0.030100346 0.00067998603 0.014148295
0.030980289 0.0045702732 0.013294697
0.031211197 -0.014171227 0.0099368691
0.030625284 -0.0091177328 0.0092129707
0.030199826 -0.0040548691 0.0086286068
0.031129301 0.0010332125 0.0092210174
0.03147912 0.0061033084 0.0093100667
0.031450033 0.011166272 0.0090699196
0.030748904 0.016232764 0.0082454681
0.031536281 -0.014402551 0.0049827099
0.030764222 -0.0093051745 0.0049681664
0.031429112 0.00086957728 0.005120337
0.031716228 0.0062560528 0.0042670965
0.031519353 0.011426591 0.0042048693
0.030939341 0.014946886 0.0033653975
0.031499386 -0.014464873 0.0036371946
0.030409336 -0.0093872929 0.0030140877
0.029821038 -0.0042884299 0.0028311014
0.030320108 0.00076965749 0.0019578934
0.031082273 0.0041704825 0.0024839044
0.030742347 0.010100571 0.001934886
0.030402362 0.016034199 0.0013855696
0.029420614 0.00067139172 -0.001031518
