# .PCD v0.7 - Point Cloud Data file format
VERSION 0.7
FIELDS x y z
SIZE 4 4 4
TYPE F F F
COUNT 1 1 1
WIDTH 448
HEIGHT 1
VIEWPOINT 0 0 0 1 0 0 0
POINTS 448
DATA ascii
0.029862655 0.023581879 0.18334597
0.032965381 0.020528108 0.18123925
0.032702032 0.023232661 0.18168607
0.030817866 0.026485113 0.18089142
0.033428587 0.023840286 0.17756516
0.032588586 0.02707256 0.17647943
0.024821149 0.021678519 0.18476841
0.032215148 0.01041463 0.18194753
0.030761814 0.01368673 0.18312407
0.029764082 0.017958105 0.18377107
0.0281951 0.021373488 0.1836859
0.025849123 0.025086418 0.18249765
0.032811284 0.010563722 0.17970079
0.032714926 0.01404692 0.17954612
0.033031423 0.018438334 0.18079692
0.027335882 0.02772421 0.17939261
0.033210646 0.015259754 0.1753746
0.033206385 0.019148987 0.17533082
0.03336519 0.02277272 0.17426509
0.029596858 0.02843402 0.17441607
0.033536382 0.01899606 0.17137361
0.032776423 0.02332568 0.16975218
0.031369161 0.027214665 0.16952148
0.026453689 0.012911318 0.18450359
0.024531204 0.015908511 0.18415517
0.023242045 0.019359514 0.18422681
0.021524813 0.022910252 0.18384618
0.031737421 0.0010729646 0.18089795
0.03103702 0.0043948973 0.18189734
0.029917305 0.0079661682 0.18272454
0.028052399 0.010923678 0.18365851
0.022861201 0.025767559 0.18254632
0.032812193 0.001476869 0.17788321
0.03300472 0.0050640428 0.17787471
0.03278479 0.0086634522 0.178078
0.032392506 0.0058782692 0.17377818
0.033174537 0.0092128068 0.17353562
0.033258293 0.012855663 0.17363113
0.024872661 0.028662307 0.17153707
0.033355366 0.010348936 0.16916105
0.033952821 0.014307711 0.16935688
0.033310927 0.018578192 0.16786563
0.03238127 0.021681812 0.16724974
0.030087862 0.028739471 0.16669023
0.026331875 0.029339608 0.16722822
0.033784039 0.01405155 0.16507506
0.032874584 0.01848175 0.16439676
0.031785537 0.022648901 0.16305175
0.031407885 0.026336979 0.16342142
0.028225569 0.029323246 0.16273385
0.030781023 0.025964618 0.15920526
0.029257163 0.028185144 0.15862864
0.027011588 -0.0014206897 0.18442157
0.025619596 0.0021282528 0.18449134
0.02495853 0.0061292779 0.18403548
0.022939704 0.0098061608 0.18347663
0.01967233 0.013734444 0.18362117
0.019131705 0.018053077 0.18452314
0.030427106 -0.00091049541 0.18169945
0.028649539 0.0026034061 0.18307456
0.032370176 -0.00025999267 0.17534807
0.032630187 0.0031805513 0.17512903
0.032698095 -0.0026810719 0.17197287
0.032388389 0.00019186549 0.17083162
0.032311171 0.0041241497 0.17125383
0.032833595 0.0073567717 0.17080376
0.032286882 0.0045678113 0.16669303
0.032713853 0.0081634447 0.16699609
0.032683466 0.0086755119 0.16295812
0.032557517 0.012803926 0.16154855
0.03215912 0.018110754 0.16194963
0.031092497 0.020518664 0.16175836
0.026364991 0.029994201 0.16153413
0.031804059 0.012858806 0.15855193
0.031346433 0.017736172 0.15690506
0.030982576 0.021579983 0.15678921
0.03041202 0.025726568 0.15611142
0.027073894 0.028409719 0.15596014
0.031515803 0.018938126 0.1524564
0.03147459 0.021914095 0.15155518
0.03056005 0.025641406 0.15157989
0.027901508 0.027471295 0.1519019
0.032115068 0.023302253 0.14844748
0.031284545 0.025448836 0.14790273
0.020135574 -0.00016758498 0.18384483
0.018153671 0.0033215017 0.18327138
0.016879136 0.0075049847 0.18379053
0.014996494 0.011419008 0.18383467
0.013720626 0.015931586 0.1839706
0.021268748 0.0046181604 0.18387434
0.01933689 0.0081155254 0.18333575
0.018116711 0.011200809 0.18319216
0.031831242 -0.0018025255 0.16789666
0.031726424 -0.00056875311 0.16443571
0.032083441 0.0029407796 0.16431552
0.031984076 -0.00019657239 0.15978646
0.031635769 0.0035125054 0.15982044
0.031738285 0.0074980208 0.15948969
0.031404849 0.0041881464 0.15549263
0.031112609 0.0074060848 0.15483499
0.030982532 0.011667831 0.15487188
0.030710718 0.014443954 0.15536216
0.02408663 0.028928664 0.15405628
0.031462774 0.0081324633 0.1515556
0.031172562 0.01156484 0.15033722
0.030749749 0.016133737 0.1504299
0.031392474 0.020192701 0.14896622
0.025832906 0.028196696 0.14950156
0.031758472 0.012615751 0.14668787
0.03091182 0.016531345 0.14517683
0.031855535 0.021507872 0.14569318
0.030810233 0.025819205 0.14512268
0.027003147 0.027870532 0.14480925
0.031955693 0.01868999 0.14059263
0.03227764 0.021680612 0.14068085
0.031140681 0.025526607 0.14081025
0.028499547 0.027378824 0.1411407
0.032684084 0.021986073 0.13656306
0.030941822 0.02532636 0.13684678
0.016499769 -0.0013291948 0.18339041
0.015043857 0.0020675324 0.18361154
0.013201737 0.0055053812 0.18426487
0.011307391 0.0095343105 0.18400708
0.031834409 -0.0025995737 0.15735698
0.032061491 -0.0010902416 0.1538409
0.031580474 0.0027204193 0.15339592
0.031895936 0.00027294271 0.14990512
0.031782486 0.0032681767 0.1489343
0.031635776 0.0071691577 0.14904124
0.031625934 0.0043045683 0.14509279
0.031815574 0.0074331802 0.14438936
0.032042176 0.011481714 0.14395696
0.03185273 0.014907409 0.14297545
0.025193647 0.028550215 0.14267126
0.032152973 0.011819141 0.13951939
0.031988133 0.016051192 0.13879985
0.026392229 0.028237747 0.13807514
0.03235561 0.017238012 0.13580978
0.032138716 0.020177927 0.13326687
0.030971497 0.025249109 0.13401872
0.028206699 0.027623367 0.1338191
0.032631312 0.022325749 0.130182
0.031159706 0.025003407 0.12960118
0.028915411 0.027180277 0.12913463
0.0089276899 -0.00039940421 0.18424779
0.0079621701 0.0035938213 0.18465465
0.0060402122 0.0071651414 0.18414503
0.011629035 0.00068027619 0.18373573
0.0088104745 0.0089677144 0.18365577
0.031244086 -0.0025409544 0.14665985
0.031139227 0.0012261486 0.14582425
0.031170789 -0.0020397156 0.14166027
0.03106432 0.0022990657 0.1420342
0.031346623 0.0054833889 0.14141509
0.031510979 -0.00043458119 0.13812035
0.030983407 0.002722431 0.13726848
0.030719204 0.0065108328 0.13741636
0.031013317 0.0095415534 0.13748384
0.030800007 0.0069274683 0.13264695
0.030888895 0.010761112 0.13296235
0.031147519 0.015193863 0.13243604
0.025812522 0.028475527 0.13180393
0.031029046 0.010934741 0.12854326
0.030947454 0.014773306 0.12811941
0.030974174 0.018865177 0.12729457
0.029617831 0.025932653 0.12649679
0.026275359 0.027793093 0.12690824
0.030519994 0.016106607 0.12455511
0.030276505 0.020324139 0.123588
0.029968446 0.023970239 0.12224385
0.027464498 0.02691415 0.12250799
0.03044045 0.024176437 0.11781025
0.0046988465 0.002293796 0.18494061
0.031209359 -0.0026470935 0.13541266
0.03110305 0.0012093568 0.1350655
0.030943319 -0.0017089723 0.13163367
0.031084232 0.0021834392 0.13109151
0.031263944 0.0057312003 0.13097367
0.031273339 0.0033446942 0.12651736
0.031538092 0.0063875667 0.12657666
0.031188389 0.010237791 0.12589723
0.023739442 0.027964812 0.1243211
0.031532671 0.0071839145 0.1223028
0.03079793 0.010495299 0.12188318
0.030158142 0.014217596 0.12159392
0.029882252 0.018629108 0.12089425
0.025751647 0.027648857 0.12038678
0.029461676 0.015442437 0.11775911
0.030071037 0.018740868 0.1167379
0.030698488 0.023118388 0.11555624
0.027071141 0.027118044 0.11574197
0.031380456 0.020328119 0.11097288
0.030841887 0.023768935 0.11149925
0.027843669 0.026987739 0.11190528
0.030633898 0.023558557 0.10738492
0.030036338 0.025511175 0.1074478
0.00054277305 0.00031984504 0.18469986
0.030152868 -1.2389384e-05 0.12763211
0.030040631 -0.002709087 0.12361413
0.030500317 0.0010223864 0.12405246
0.030538933 0.0015686387 0.11986804
0.031180881 0.0054588583 0.11962503
0.030322723 0.0092352135 0.11868244
0.030925024 0.0063659856 0.11449724
0.030109471 0.009727085 0.11476773
0.029769417 0.013832108 0.11538434
0.029326668 0.016719319 0.11412907
0.023391629 0.02752554 0.11331093
0.031518787 0.007212759 0.11131597
0.030707847 0.010278359 0.11021262
0.030367227 0.0140634 0.11034226
0.030258665 0.017714087 0.111274
0.026901465 0.026548555 0.10907364
0.023134885 0.027312584 0.10915375
0.031297572 0.014478624 0.10591686
0.03118352 0.018444274 0.10614169
0.030786637 0.022473298 0.10573936
0.027660258 0.025743973 0.1049155
0.030872397 0.018369008 0.10219431
0.02965817 0.02256215 0.10160458
0.028470717 0.025425311 0.10026431
-0.0050235693 -0.0019533453 0.183873
0.030024931 -0.00055580959 0.11688697
0.029815817 0.00046782475 0.11271769
0.030128211 0.0037680282 0.11314279
0.030546119 0.0051999507 0.10801202
0.030837474 0.0087662814 0.10794115
0.031123331 0.0067503271 0.10401046
0.030971522 0.0096352538 0.10371774
0.031077534 0.013333838 0.10289133
0.025174391 0.026439555 0.10274351
0.022886531 0.027756628 0.10222089
0.031050142 0.0095117977 0.099809885
0.030894106 0.013894147 0.10014385
0.029522844 0.017693289 0.097929716
0.029179936 0.021612158 0.098280728
0.026629085 0.026502576 0.098554432
0.024369661 0.02804938 0.098012507
0.029715231 0.018641029 0.094739914
0.02968384 0.02204667 0.094382524
0.02851826 0.026004355 0.094558418
0.02591335 0.027901286 0.092927396
0.029868782 0.022737503 0.090777993
0.028652662 0.025620062 0.089802861
-0.0072565619 -0.0010791251 0.18370476
0.029726479 -0.00098328479 0.11020803
0.02966203 -0.0006617466 0.10697162
0.030144887 0.0034344555 0.10522932
0.029659662 0.00055218022 0.10233271
0.030541386 0.0045046047 0.10163116
0.030014496 0.0016055787 0.098680317
0.030652583 0.0051836371 0.097748637
0.030093089 0.0089718858 0.0958938
0.029834142 0.013337412 0.096440613
0.029974137 0.0058663292 0.093907118
0.030004004 0.0097905248 0.092412829
0.029941617 0.013215463 0.092028201
0.029762695 0.017102361 0.092348754
0.030256126 0.013471996 0.087583899
0.030314179 0.017646952 0.087664306
0.030020464 0.021763328 0.088062286
0.028188709 0.026017625 0.086840928
0.024896266 0.028066222 0.086147785
0.03016294 0.018191643 0.083699465
0.030018859 0.021992965 0.082955837
0.028687134 0.02553698 0.082875013
0.026150627 0.027715217 0.083111048
0.028765053 -0.0027492819 0.099992454
0.028736891 -0.0018630484 0.095217943
0.02900737 0.0021320283 0.094519615
0.028864402 0.0032644542 0.090233326
0.028939649 0.0072845588 0.090129614
0.029273095 0.0047688317 0.086336374
0.02896921 0.0081162117 0.085722089
0.029596513 0.012802892 0.084626615
0.029066108 0.0095147621 0.082196057
0.029220754 0.012329753 0.080897212
0.029048119 0.016541373 0.080748141
0.028858822 0.019753233 0.079031527
0.026882663 0.026408907 0.07933259
0.023432314 0.028098442 0.080403388
0.029473331 0.013242186 0.0776034
0.02862951 0.017106356 0.076691568
0.028356278 0.020941652 0.075929523
0.027295865 0.024996825 0.076239467
0.024976019 0.027099764 0.07689184
0.029450126 0.018260548 0.072013199
0.028933184 0.021214999 0.07170397
0.027533207 0.024523024 0.071531177
0.02864993 0.023777233 0.067924142
0.028781069 -0.0023642033 0.088532448
0.028587734 0.00055928156 0.088215232
0.02937091 -0.0018294416 0.083812952
0.029296519 0.0019823946 0.083944857
0.028926564 0.0049800966 0.08275193
0.029355962 0.002485848 0.079009175
0.029229095 0.0070140543 0.079389513
0.028973261 0.0076932358 0.074997485
0.029285768 0.011459484 0.074202776
0.028476859 0.015462047 0.074038744
0.022800479 0.027304068 0.073558986
0.030003415 0.012609814 0.070005596
0.029753523 0.016403986 0.070403874
0.029057577 0.019499281 0.069000483
0.02579964 0.025704119 0.069073021
0.023348086 0.026994247 0.06834662
0.029922331 0.01704859 0.066147506
0.029323528 0.020982875 0.065611601
0.02742365 0.024895255 0.064894974
0.024452562 0.026543707 0.064067304
0.028743718 0.021364022 0.061123967
0.027859747 0.024016913 0.061168909
0.029364871 0.00087030325 0.076506317
0.029109512 -0.0027564922 0.072737396
0.028688753 0.0014228141 0.072356224
0.028588701 0.005553063 0.072495043
0.029300934 -0.0015156493 0.068928123
0.028884193 0.0015342636 0.068027854
0.028453942 0.0055052591 0.06802088
0.029348578 0.009589118 0.068256676
0.028760377 0.0066714906 0.064112663
0.028409723 0.010207617 0.063009501
0.028548542 0.015161892 0.061892927
0.023439504 0.027110249 0.06232512
0.028332356 0.01061227 0.059462428
0.027972763 0.014947627 0.057916403
0.027555628 0.020034291 0.057247579
0.026128687 0.023989357 0.057218671
0.022843188 0.026533309 0.05853337
0.027375262 0.019582206 0.053152561
0.026133284 0.023087781 0.052112579
0.02937334 0.00064959936 0.065543413
0.02834411 -0.0022346079 0.061697543
0.028580384 0.0011282656 0.061461091
0.02866279 0.0050063934 0.061453402
0.028376084 0.0021593785 0.056868911
0.028836958 0.0057301754 0.057560086
0.028303586 0.0095111625 0.056432486
0.02867437 0.012902417 0.056349039
0.027464084 0.009997136 0.052278578
0.028229289 0.014290679 0.052500665
0.028231699 0.017876385 0.052343607
0.023503305 0.024381598 0.053275645
0.022497596 0.024419872 0.050310135
0.028163092 0.014911345 0.047520041
0.028320091 0.01850138 0.047420979
0.027208714 0.022611644 0.047733188
0.024282871 0.024486899 0.046727479
0.027773598 0.019663867 0.043119848
0.026775874 0.022583775 0.042315722
0.028151272 -0.00017889403 0.05801928
0.028560055 0.00060127676 0.054466188
0.028089941 0.004587335 0.053736329
0.02854781 0.00039853901 0.049869895
0.027887523 0.0047342437 0.049951434
0.027381724 0.0088672116 0.04916501
0.026886549 0.011901147 0.048192143
0.02849536 0.001767152 0.046415389
0.028202264 0.0049067871 0.045652509
0.027755313 0.0090725655 0.044932008
0.027481861 0.013222259 0.044548035
0.021446615 0.025284631 0.043966472
0.0281845 0.0094176484 0.04144007
0.027630331 0.013445229 0.040624142
0.027723256 0.017840389 0.040119588
0.026958069 0.021884121 0.039421558
0.022877909 0.025263034 0.039410114
0.028088259 0.01450873 0.036821961
0.027987026 0.017976452 0.035401046
0.027253009 0.022442356 0.035400033
0.024652949 0.024811938 0.035623431
0.028065071 0.018674092 0.032530487
0.027607474 0.022248123 0.030816793
0.025347978 0.02446169 0.031920195
0.02793413 0.023031771 0.027490616
0.028290587 -0.0013559051 0.047338605
0.028322382 3.6679208e-05 0.043603063
0.028483329 0.0039210436 0.042888939
0.027669623 0.0011235513 0.039138496
0.028089387 0.0045555658 0.038777173
0.028267188 0.0086463541 0.038419008
0.027520293 0.011789361 0.038228989
0.028074464 0.0057326537 0.034646213
0.027914336 0.0089416336 0.034031391
0.027640393 0.012693344 0.033696413
0.022515414 0.025873169 0.033574224
0.027782995 0.010035042 0.029409111
0.027214816 0.013268866 0.02941829
0.027864054 0.017506482 0.029224992
0.02800058 0.020819131 0.028939009
0.023821436 0.025315471 0.028657675
0.028090352 0.018573005 0.024433315
0.02792519 0.02195462 0.024378598
0.025065467 0.024653766 0.024627984
0.027470091 -0.002012684 0.040064573
0.027815603 -0.00074774306 0.037395537
0.027813742 0.0025755158 0.035500407
0.028362129 -0.00040771998 0.032903135
0.028061045 0.003798001 0.032725155
0.027504798 0.0084352419 0.030753672
0.028942021 -0.0003765393 0.028111398
0.028391127 0.0042553833 0.028327644
0.027716048 0.0078977291 0.027926207
0.026845168 0.012638529 0.026552916
0.022101181 0.026097026 0.025178194
0.027544403 0.008485809 0.023536742
0.027305441 0.012503512 0.023101807
0.02753232 0.016360737 0.022735775
0.023155382 0.02486337 0.021473646
0.027451387 0.013632524 0.018874466
0.027697591 0.017078226 0.018225789
0.026681485 0.021513591 0.01830709
0.023270791 0.023239423 0.016730785
0.027904065 0.018278725 0.014418185
0.026578816 0.020967111 0.014251888
0.028250378 -0.00083215162 0.024098575
0.028023044 0.0022224141 0.024901867
0.02779885 -0.00075923279 0.021007419
0.027423846 0.0036015869 0.021112323
0.026812913 0.0073462129 0.019562304
0.026652228 0.0029169121 0.017380357
0.026261443 0.0081390189 0.015525818
0.026499797 0.011800194 0.015479207
0.020528732 0.023691066 0.01482296
0.026799414 0.012400679 0.011635363
0.027096771 0.016524311 0.0111655
0.025251491 0.021026073 0.010074973
0.02125646 0.022809289 0.010334849
0.026464775 0.01683039 0.006747961
0.025596865 0.019700304 0.0061782598
0.027442617 -0.0021833275 0.018575907
0.027354047 -0.0014083795 0.014684796
0.026801582 0.0026431219 0.014641285
0.025835708 0.0055853282 0.014257431
0.027320806 -0.00027625449 0.0093188882
0.026669396 0.0028199335 0.0092873573
0.025925782 0.0069939443 0.009381175
0.025977813 0.010135039 0.0094189644
0.026065426 0.0079165585 0.0047333241
0.026068971 0.011759183 0.0048797131
0.02576223 0.015044975 0.0039929152
0.023849107 0.021036483 0.0042245388
0.020485684 0.023162583 0.0034426451
0.025205731 0.016234951 -0.00051909685
0.024145607 0.019958206 -0.00097978115
0.026305821 -0.0021042619 0.0038852692
0.02617638 0.0019546179 0.0032350421
0.026033156 0.0057586809 0.0032242537
