# .PCD v0.7 - Point Cloud Data file format
VERSION 0.7
FIELDS x y z
SIZE 4 4 4
TYPE F F F
COUNT 1 1 1
WIDTH 398
HEIGHT 1
VIEWPOINT 0 0 0 1 0 0 0
POINTS 398
DATA ascii
-0.022254089 -0.016774133 0.18471858
-0.018942654 -0.019972639 0.18440872
-0.016013987 -0.023557426 0.18449277
-0.0128549 -0.025972031 0.18389559
-0.028186923 -0.01315516 0.18086487
-0.026967658 -0.015911002 0.18216595
-0.024735089 -0.019117815 0.18270609
-0.021655302 -0.022533428 0.18262812
-0.018361567 -0.025724858 0.18232435
-0.015056388 -0.027977979 0.18156558
-0.011890524 -0.028529054 0.18006748
-0.029119972 -0.013927685 0.17813739
-0.028430138 -0.017176608 0.17774054
-0.026624193 -0.020740649 0.17823175
-0.023363629 -0.023966391 0.17796409
-0.019926745 -0.027011599 0.17750841
-0.016321229 -0.02896443 0.17642611
-0.012843376 -0.029284738 0.17643818
-0.027776767 -0.017932143 0.17388636
-0.026910961 -0.02098464 0.17330468
-0.023928618 -0.024266182 0.17299619
-0.020105718 -0.026975833 0.17306343
-0.017868705 -0.02845131 0.17251644
-0.023989964 -0.023823706 0.16917312
-0.02540502 -0.0089393351 0.18403882
-0.023189714 -0.012124622 0.18484241
-0.019813284 -0.014374287 0.18495253
-0.016552383 -0.017236575 0.18438292
-0.01320916 -0.020307915 0.18425381
-0.010703489 -0.023937393 0.18445861
-0.027972525 -0.010608817 0.18110949
-0.025996335 -0.012965266 0.18317226
-0.0091121551 -0.028596539 0.17946035
-0.029140443 -0.011686049 0.17569861
-0.028896187 -0.015390227 0.17509308
-0.010628388 -0.029264979 0.17391118
-0.029143251 -0.012743679 0.17065173
-0.02833942 -0.016245324 0.1713261
-0.027518973 -0.019361639 0.17080376
-0.019891469 -0.02662673 0.17003965
-0.01597009 -0.028890368 0.17048094
-0.012060315 -0.029541662 0.16909599
-0.028723696 -0.016577851 0.1664528
-0.02719927 -0.020727333 0.16764802
-0.024178429 -0.024312025 0.16709042
-0.020067532 -0.026631512 0.16648903
-0.016423186 -0.028334744 0.16576391
-0.028955381 -0.017855361 0.16294304
-0.027509727 -0.020742876 0.16233456
-0.02445947 -0.023991682 0.16236949
-0.02089107 -0.026137302 0.16147316
-0.027295021 -0.021269636 0.15879378
-0.025899006 -0.022682127 0.15869594
-0.01925981 -0.0081776399 0.18446073
-0.016211677 -0.011267032 0.18469837
-0.013340038 -0.013575759 0.18466648
-0.010059392 -0.016731266 0.18422383
-0.0069597522 -0.020349674 0.18435419
-0.028850799 -0.0095250597 0.17220023
-0.02913833 -0.010055562 0.16849756
-0.010075498 -0.029924296 0.16697574
-0.02937218 -0.012423282 0.16475007
-0.015167609 -0.028174983 0.16259819
-0.011586932 -0.029368104 0.16296843
-0.02964397 -0.012883476 0.16006047
-0.028994581 -0.015851498 0.16010755
-0.018683584 -0.026159387 0.15870455
-0.015219884 -0.027124695 0.15840465
-0.011489671 -0.02911935 0.159096
-0.029764757 -0.01324027 0.15614089
-0.028707683 -0.016465548 0.15557718
-0.027486166 -0.020100638 0.15592885
-0.024318757 -0.023078671 0.15588799
-0.019984854 -0.025066489 0.15458575
-0.016592199 -0.026858628 0.15397274
-0.028337419 -0.017224165 0.15176323
-0.027083609 -0.019922143 0.15078467
-0.024439776 -0.022682739 0.15041199
-0.02109031 -0.02456145 0.15079427
-0.026910087 -0.021208052 0.14738554
-0.025471134 -0.022595419 0.14724973
-0.016336355 -0.0052444418 0.1842373
-0.013519205 -0.0076153674 0.18381125
-0.0096179629 -0.010383487 0.18434876
-0.0066786399 -0.013352867 0.18413544
-0.029207047 -0.0092757428 0.15751693
-0.011131055 -0.028649312 0.15586698
-0.0296629 -0.012033504 0.15360108
-0.028992781 -0.014194034 0.15338272
-0.014603994 -0.027374558 0.15222821
-0.01156655 -0.02888995 0.15158871
-0.029558517 -0.012667854 0.15012932
-0.028918706 -0.015524423 0.14912459
-0.028312452 -0.018920604 0.14889771
-0.020246789 -0.025740795 0.14880496
-0.016289733 -0.027702259 0.14816746
-0.012630738 -0.028507669 0.14765757
-0.028592318 -0.016592331 0.14456439
-0.027634641 -0.019673629 0.14490622
-0.024973027 -0.023185721 0.14485171
-0.021112777 -0.025671454 0.14437258
-0.017018544 -0.028184026 0.14323011
-0.027209973 -0.019729018 0.14068192
-0.024956554 -0.022928145 0.14013898
-0.022097589 -0.025445499 0.1392028
-0.019359566 -0.027782816 0.13941285
-0.0086851632 -0.0033023388 0.18378329
-0.0061110863 -0.0069610602 0.18453816
-0.0032480571 -0.0098064616 0.18430761
-0.010430058 -0.0049971319 0.18321279
-0.0083499588 -0.0077030775 0.18379572
-0.028996941 -0.0099695753 0.14651844
-0.010866228 -0.028568702 0.14476097
-0.028816659 -0.010932274 0.14172161
-0.028744938 -0.014058217 0.14247429
-0.011892848 -0.028750278 0.14044148
-0.028660385 -0.015086524 0.13790947
-0.026997538 -0.018484499 0.13733712
-0.025317933 -0.021932103 0.13740051
-0.01705371 -0.028572541 0.13717094
-0.013388495 -0.02905247 0.13582623
-0.028831113 -0.015708614 0.13336003
-0.027237913 -0.018869895 0.13313451
-0.024843719 -0.022205602 0.1334635
-0.022080299 -0.025146835 0.13335219
-0.01857195 -0.028035628 0.13292745
-0.014827687 -0.029315744 0.13161874
-0.027768811 -0.019364897 0.12824932
-0.025274688 -0.02235106 0.12809208
-0.022324638 -0.025115563 0.12776998
-0.018987035 -0.027577553 0.12895358
-0.026886923 -0.02188004 0.12501323
-0.0015945761 -0.0020873006 0.18495443
-0.0043255491 -0.004380208 0.18487734
-0.029323656 -0.0098597603 0.13552585
-0.028738208 -0.012820773 0.13460845
-0.010650284 -0.029183403 0.13422802
-0.028786108 -0.0107676 0.13162601
-0.028778072 -0.013768951 0.13056269
-0.012183093 -0.029177997 0.12880319
-0.0090078646 -0.029312439 0.12947682
-0.029251859 -0.015978597 0.12746257
-0.028826227 -0.018151417 0.12608939
-0.018971791 -0.027430229 0.12599507
-0.015057681 -0.028748985 0.12551302
-0.01145987 -0.029601663 0.12539113
-0.029216267 -0.016424214 0.12249845
-0.028422866 -0.019469991 0.12272283
-0.025602525 -0.022618862 0.12245446
-0.022243079 -0.024748296 0.12176198
-0.018880676 -0.027161095 0.12194908
-0.015740458 -0.028844936 0.1218738
-0.028251905 -0.019422462 0.1179623
-0.025758168 -0.021830728 0.11801893
-0.023358917 -0.023760343 0.11806142
-0.028011186 -0.0095092123 0.12373412
-0.028462587 -0.012403498 0.12414953
-0.012824016 -0.028927665 0.12298501
-0.0099170785 -0.029132027 0.12186608
-0.028654441 -0.013779508 0.11971653
-0.018416205 -0.026557758 0.11842996
-0.014423314 -0.028656209 0.1184603
-0.010887612 -0.029508196 0.1176492
-0.028604915 -0.014784853 0.11571932
-0.028515937 -0.018665098 0.11509037
-0.024999565 -0.021783363 0.11489594
-0.021885693 -0.024325944 0.11526465
-0.018845256 -0.026815027 0.1149714
-0.015116737 -0.028621795 0.11385936
-0.027889989 -0.018831093 0.11068362
-0.024950337 -0.021143962 0.11080801
-0.021868415 -0.024044169 0.1097452
-0.019032411 -0.026736828 0.10921007
-0.016470131 -0.028816612 0.10913682
-0.022701515 -0.024916284 0.10613865
-0.019796509 -0.02733323 0.10613394
-0.017669149 -0.029061472 0.10574812
0.0043503083 0.0037940522 0.18378854
-0.028018355 -0.0093345642 0.12073934
-0.028212132 -0.010079264 0.11699754
-0.028353676 -0.011941766 0.11239016
-0.013161969 -0.028744476 0.11049366
-0.010258173 -0.029255586 0.11116344
-0.028245596 -0.01386416 0.10820383
-0.027946915 -0.016264793 0.10800576
-0.024838179 -0.020871304 0.10765147
-0.02293776 -0.022832995 0.10754591
-0.014185136 -0.029100377 0.10695022
-0.011152835 -0.029214865 0.10686612
-0.0283821 -0.014497718 0.10334826
-0.028143778 -0.018182443 0.1043269
-0.025664631 -0.021525938 0.10464156
-0.023057874 -0.02427135 0.10335189
-0.019350329 -0.026744984 0.10256302
-0.015760882 -0.028999221 0.10251307
-0.027658496 -0.018860713 0.098985851
-0.025799749 -0.021118505 0.098833978
-0.022920396 -0.023992587 0.099030674
-0.019493021 -0.026754597 0.099708974
-0.017292483 -0.028425533 0.099239886
0.0024074158 0.0076555908 0.18401024
-0.028496005 -0.0092380419 0.11124104
-0.028216671 -0.0099753793 0.10656965
-0.0096626105 -0.029631428 0.10516447
-0.02844895 -0.011883704 0.1018911
-0.013934871 -0.029028762 0.099372268
-0.010432682 -0.029545367 0.10035688
-0.028527498 -0.013352495 0.097839952
-0.027908988 -0.016376199 0.096812487
-0.024583781 -0.021962671 0.096305132
-0.02211242 -0.024047049 0.096557379
-0.019232366 -0.02635357 0.096340597
-0.015253412 -0.028472189 0.09570539
-0.011059043 -0.02935078 0.096363544
-0.027558511 -0.018116578 0.09243679
-0.025873549 -0.0211145 0.092689514
-0.022907872 -0.023980981 0.092413902
-0.019600686 -0.026500043 0.091707468
-0.016150311 -0.028652055 0.090937793
-0.027307196 -0.018408936 0.088055134
-0.026143646 -0.02134135 0.087272763
-0.023529258 -0.024325885 0.087052822
-0.020320356 -0.026331579 0.08676815
-0.017519068 -0.02813421 0.087302387
-0.025813151 -0.022517914 0.083500862
-0.024338989 -0.023971124 0.083380938
-0.02804747 -0.0091959862 0.094829619
-0.0091985306 -0.028878935 0.093414187
-0.027848952 -0.010773503 0.09040916
-0.027389856 -0.013576951 0.090850711
-0.010399872 -0.028853487 0.089249372
-0.027481724 -0.015234657 0.086284816
-0.026792672 -0.019652262 0.084446251
-0.01843093 -0.02700487 0.085237861
-0.015196268 -0.028383167 0.085230649
-0.011701176 -0.028983783 0.084325075
-0.027473565 -0.017241446 0.081444919
-0.026238937 -0.020500785 0.081366897
-0.022959551 -0.023961956 0.080936491
-0.019095838 -0.025761727 0.080668092
-0.016170811 -0.02785391 0.080878139
-0.025807956 -0.020898025 0.077145934
-0.023389744 -0.02344759 0.076628506
-0.020472098 -0.024761032 0.077212274
-0.024916887 -0.023064695 0.07313484
-0.028442316 -0.0097504575 0.083917022
-0.027852222 -0.012809971 0.083076358
-0.0094188116 -0.029327992 0.082100093
-0.028716147 -0.011453579 0.078800678
-0.028209608 -0.013971098 0.079973698
-0.014381683 -0.027940137 0.077704251
-0.011023786 -0.028998911 0.077676415
-0.02793829 -0.014943477 0.074586868
-0.026936231 -0.018655773 0.075199366
-0.021904876 -0.024047589 0.073702753
-0.019185347 -0.025574896 0.074552596
-0.015467143 -0.027281251 0.073564768
-0.01258772 -0.028620197 0.073180735
-0.027973797 -0.016186537 0.071010113
-0.026457211 -0.019823857 0.07035017
-0.023614382 -0.023851397 0.070435941
-0.020060839 -0.025950659 0.069536984
-0.016749635 -0.027375588 0.068543673
-0.023783153 -0.023217617 0.065653861
-0.021145495 -0.025508031 0.065247655
-0.028593579 -0.0090159029 0.073177218
-0.028372865 -0.012706508 0.072211862
-0.01359134 -0.02752525 0.070143223
-0.0099671055 -0.028645527 0.07141453
-0.028903581 -0.010237928 0.068405926
-0.028090708 -0.014171355 0.068148375
-0.027012013 -0.016971953 0.066745043
-0.014242072 -0.027348056 0.066393256
-0.01076084 -0.028575465 0.066802621
-0.029179217 -0.011086964 0.064600825
-0.028324442 -0.014163191 0.063859224
-0.026550215 -0.018291023 0.063140392
-0.024431329 -0.021680167 0.062548459
-0.019753985 -0.024988919 0.061903954
-0.015287722 -0.027161188 0.062307477
-0.012148101 -0.028445892 0.062888026
-0.02842007 -0.015355739 0.059863448
-0.026797151 -0.018272184 0.058150351
-0.02393431 -0.021368034 0.05809164
-0.020405846 -0.024371734 0.057950258
-0.017104223 -0.026518779 0.058609664
-0.023643222 -0.021921039 0.055135012
-0.021637067 -0.023886804 0.054965615
-0.0093635432 -0.029086741 0.06410408
-0.029464141 -0.0095432699 0.061778188
-0.02915643 -0.012878041 0.061578274
-0.011198857 -0.028747398 0.060529172
-0.02922651 -0.010762658 0.058238089
-0.028991679 -0.013789586 0.057211399
-0.016577905 -0.027103979 0.05674994
-0.012536852 -0.027883302 0.055581033
-0.0092208609 -0.028632913 0.055461407
-0.028451027 -0.015155352 0.052678347
-0.026850808 -0.018046709 0.052865088
-0.024313558 -0.021179676 0.052470326
-0.021360684 -0.024770752 0.052666008
-0.017527143 -0.02663146 0.051728249
-0.026419519 -0.018390428 0.048615754
-0.024193419 -0.021377923 0.047453105
-0.021818882 -0.024685951 0.047286868
-0.018868439 -0.026757454 0.047556221
-0.011143369 -0.02739463 0.051871538
-0.028631534 -0.0090460107 0.050494552
-0.028571375 -0.012438202 0.050098598
-0.011968022 -0.026790269 0.048492908
-0.028839674 -0.0097128404 0.046876669
-0.02850488 -0.013599388 0.045532644
-0.026713781 -0.017235072 0.045393705
-0.024665339 -0.020421987 0.044486761
-0.017104317 -0.026696788 0.044374108
-0.012666252 -0.027245395 0.044493079
-0.029002938 -0.013904912 0.04128325
-0.027247971 -0.018054664 0.040872931
-0.024650685 -0.021213202 0.040790379
-0.021763789 -0.024332894 0.040736318
-0.017722335 -0.026325868 0.040168762
-0.014318798 -0.027054211 0.041349351
-0.029109688 -0.015507205 0.038187206
-0.028007086 -0.018027095 0.03632158
-0.025234889 -0.02155447 0.036168516
-0.021965656 -0.024291933 0.03558737
-0.018526398 -0.02626643 0.036143184
-0.028100654 -0.019256601 0.033574164
-0.025557358 -0.021729456 0.033347845
-0.023224587 -0.023399314 0.032744348
-0.010704194 -0.027585834 0.042261183
-0.029359674 -0.0097636282 0.038851321
-0.029677227 -0.012136731 0.039566278
-0.012489167 -0.027390039 0.03787899
-0.0092228632 -0.027919374 0.036134958
-0.029569805 -0.013519322 0.034837306
-0.016665295 -0.026312642 0.032701731
-0.013177766 -0.027228804 0.033454657
-0.029579511 -0.014050927 0.030680776
-0.027905339 -0.017571349 0.029580832
-0.024677567 -0.0206505 0.028798878
-0.020957157 -0.023019299 0.029056609
-0.018647922 -0.025462922 0.030048251
-0.026635267 -0.01840307 0.025543332
-0.024986248 -0.019776521 0.025242805
-0.012532419 -0.026877802 0.030061901
-0.030292574 -0.010128371 0.029139221
-0.029147629 -0.012930771 0.027309716
-0.020435166 -0.022365971 0.025750697
-0.015949769 -0.02540626 0.027322531
-0.01279127 -0.027286772 0.027065933
-0.0092961313 -0.02811286 0.026198864
-0.030241836 -0.0098132985 0.024611473
-0.029115932 -0.012688055 0.023552775
-0.027480103 -0.016731674 0.023764014
-0.024111122 -0.020329986 0.023359597
-0.020790908 -0.02289502 0.023614645
-0.017564563 -0.025468428 0.023561954
-0.013713863 -0.027685378 0.022198021
-0.028750634 -0.014151219 0.019964933
-0.027301641 -0.016953707 0.018891335
-0.024539616 -0.020014489 0.018630624
-0.021598974 -0.0231578 0.018562436
-0.018363191 -0.025996489 0.018067062
-0.015179863 -0.02824524 0.017929733
-0.022174174 -0.023545282 0.014944434
-0.01923576 -0.025671011 0.014184475
-0.029327735 -0.010681156 0.020213366
-0.0085992794 -0.028047169 0.01973772
-0.028546974 -0.012148095 0.016732931
-0.027559854 -0.014737615 0.015153944
-0.013204802 -0.028214738 0.014272749
-0.010420775 -0.028251611 0.014742374
-0.026407078 -0.015865894 0.01202029
-0.024037424 -0.019214345 0.012306154
-0.0216153 -0.022815835 0.010774851
-0.018301582 -0.025915332 0.010861039
-0.015114838 -0.027591504 0.011310458
-0.023928311 -0.019307273 0.0081577897
-0.021645118 -0.022692598 0.0074511766
-0.018124349 -0.025279799 0.0065617561
-0.015965259 -0.027290128 0.0084871054
-0.027490592 -0.0084393285 0.013000786
-0.027664402 -0.010213931 0.009706378
-0.026666306 -0.013543156 0.0093221664
-0.0115894 -0.02712648 0.0083370209
-0.0088075651 -0.027280018 0.007874608
-0.027571276 -0.012144925 0.0046738386
-0.026345648 -0.015070708 0.005761981
-0.024198681 -0.018500075 0.0048593879
-0.020940106 -0.021862334 0.0041577816
-0.017833551 -0.024888253 0.0038858056
-0.013535237 -0.027054563 0.0040253401
-0.0096040554 -0.027069774 0.0035191774
-0.026617825 -0.015336518 0.00020325184
-0.024380598 -0.01896134 0.00038707256
-0.021303559 -0.022029856 0.00016760826
-0.026969917 -0.0083610369 0.0027071238
