# .PCD v0.7 - Point Cloud Data file format
VERSION 0.7
FIELDS x y z
SIZE 4 4 4
TYPE F F F
COUNT 1 1 1
WIDTH 388
HEIGHT 1
VIEWPOINT 0 0 0 1 0 0 0
POINTS 388
DATA ascii
-0.012089286 0.038472891 0.1806666
-0.016432837 0.038409293 0.18102339
-0.012024261 0.039021313 0.17921549
-0.01656777 0.039692461 0.17852777
-0.0069832494 0.031664968 0.18384859
-0.011220588 0.032217085 0.18444347
-0.015692808 0.033804655 0.18405068
0.017794671 0.034824014 0.18066466
0.013959241 0.03474921 0.18043837
0.009321521 0.034357667 0.18087965
0.0045244959 0.034835458 0.18072954
-0.0009034102 0.034966528 0.18130046
-0.0060704681 0.035882533 0.18202031
-0.010529387 0.036127746 0.18221021
-0.014755207 0.036373138 0.18252033
0.018528003 0.03650707 0.17746186
0.014120028 0.036639273 0.17711338
0.0095104286 0.036768436 0.17698085
0.0049089887 0.036728382 0.176741
-0.00047269047 0.037544608 0.17700973
-0.0058445702 0.038759708 0.17753252
-0.01023205 0.03894347 0.17721936
-0.015014566 0.03907007 0.17730218
0.011192787 0.037707627 0.17402911
0.0035243058 0.037285984 0.17340159
-0.00032218502 0.037737012 0.17351204
-0.0058320756 0.038830757 0.17236745
-0.010232326 0.039602041 0.17243254
-0.014825344 0.03988117 0.17239842
-0.019988175 0.039145887 0.17185056
-0.010098863 0.039557219 0.16877154
-0.014702275 0.039716601 0.16866153
-0.019307643 0.039407909 0.16824728
0.013835949 0.027989151 0.18344903
0.0089833708 0.027834654 0.18380585
0.0045617535 0.02855891 0.18336746
-0.00050066289 0.028753698 0.18312138
-0.0058286772 0.02789557 0.18363231
-0.010616227 0.028612614 0.1846754
0.013893102 0.031510234 0.18202206
0.0092569636 0.030658066 0.18217698
0.0050199507 0.03163588 0.18213671
0.00077074673 0.031704426 0.18243179
0.014387027 0.036898792 0.17183557
0.0095770517 0.037258744 0.17161572
0.0053488468 0.037160516 0.17135584
-0.0002025827 0.037491679 0.17062813
-0.0040186155 0.038253665 0.17003223
0.014644828 0.037450135 0.16671801
0.010000089 0.037976742 0.16684598
0.0053717797 0.038160324 0.16675147
-2.2729482e-05 0.038311243 0.16660035
-0.0054167728 0.038911521 0.16674075
-0.0099977031 0.039135993 0.16576061
-0.014610544 0.039313436 0.16566306
-0.020260051 0.039092958 0.16556245
0.01788613 0.038347721 0.16378301
0.014798773 0.038309991 0.16361547
0.010167031 0.03828156 0.1633825
0.0052551986 0.038485825 0.1625537
0.00049301458 0.038565457 0.16233295
-0.0044601201 0.038405538 0.16186741
-0.010264818 0.038617849 0.16219836
-0.014657516 0.038746059 0.16092914
-0.019079145 0.039232373 0.16081566
0.0037498083 0.020950437 0.18317384
-0.00014389121 0.02147758 0.18331394
-0.005581269 0.021919787 0.18332931
-0.011045648 0.022357998 0.18424961
0.010706145 0.025080564 0.18422315
0.0045119687 0.025271177 0.18404934
-0.00012033278 0.024864137 0.18358085
-0.0039854986 0.02461344 0.18324471
0.01498023 0.037239492 0.16015166
0.010320591 0.037611187 0.16018206
0.0060751108 0.038018048 0.15979406
0.0010721129 0.037758946 0.15893
-0.0048214919 0.037584484 0.15891153
-0.0094758049 0.0375669 0.15905419
-0.012852311 0.037616789 0.15819305
0.015014731 0.037089944 0.15565252
0.010556717 0.037192762 0.15528339
0.0058878758 0.037621915 0.15535507
0.0012497013 0.036719382 0.1545386
-0.0038901432 0.036204219 0.15502033
-0.0096186204 0.036291957 0.15375257
-0.014274052 0.037118137 0.15408912
-0.018914562 0.038297355 0.15466341
0.0068363738 0.037543833 0.15162742
0.002173184 0.037458777 0.15135583
-0.014147948 0.037161112 0.15040517
-0.018791378 0.037509322 0.14996016
0.0092043076 0.018973649 0.18313164
0.0045113959 0.01787746 0.18315238
-0.00019769896 0.017499983 0.18361109
-0.0053190435 0.017919719 0.18349543
0.016887113 0.036662638 0.15336114
-0.0045894305 0.036358953 0.1525417
0.016282868 0.037112296 0.14990234
0.010818269 0.037432909 0.14986765
0.0059462977 0.037521899 0.14917049
0.0012789392 0.037317634 0.14881811
-0.0039629894 0.036659658 0.14866665
-0.0094140647 0.036513865 0.14831805
-0.01407726 0.036879539 0.14811689
-0.018709872 0.037712991 0.14758158
0.016184866 0.036985815 0.1452592
0.01105718 0.037015915 0.14491075
0.0063484353 0.037872672 0.14528018
0.001708467 0.037896097 0.14414373
-0.0029650549 0.037262797 0.14349672
-0.0085060922 0.037246644 0.14340326
-0.01388948 0.038030148 0.14352205
-0.018564042 0.038172662 0.14340591
-0.010636333 0.037734985 0.13970482
-0.013761222 0.038064957 0.13978967
-0.019224983 0.038324893 0.1397194
0.004453891 0.0092602372 0.18340451
-0.0006938306 0.010254562 0.18421972
-0.0050260676 0.0097286701 0.18415654
0.0048042303 0.012860119 0.18303454
-0.00025127572 0.013419151 0.18386537
-0.0049495879 0.013485909 0.18368405
0.017155506 0.036176145 0.14216647
0.011226417 0.035978973 0.14138258
0.0065140822 0.036409557 0.14146295
-0.0075754072 0.036779881 0.1410732
0.016907731 0.035943151 0.1378307
0.011427789 0.035379767 0.13719082
0.0067111407 0.03544718 0.13702247
0.0019820337 0.036300063 0.13739693
-0.0027324944 0.036877036 0.13758126
-0.0079995021 0.037334263 0.13748616
-0.013668328 0.037134111 0.1363152
-0.018164415 0.036325336 0.13595438
0.017094694 0.036116481 0.13416001
0.011608754 0.036132276 0.13344514
0.0072834664 0.036039591 0.1331836
0.0021794331 0.036599517 0.13286611
-0.0027574128 0.037482202 0.13285056
-0.0080113783 0.03804487 0.13246202
-0.013504848 0.037511766 0.13183874
-0.01821699 0.037217975 0.13141835
-0.0086551458 0.037780821 0.12843552
-3.8164326e-05 0.0067461133 0.18461698
0.017243365 0.036058187 0.13126367
0.011740393 0.035907924 0.13071728
0.0066936207 0.035992086 0.13054702
0.0023122025 0.036068439 0.12963802
-0.0016380581 0.036784947 0.12996244
0.017294744 0.03501755 0.12727785
0.011929664 0.035486639 0.12678984
0.0071783927 0.035821259 0.12681073
0.002443508 0.03563422 0.1264638
-0.0024684886 0.036022186 0.12579501
-0.0067994366 0.037144065 0.12591428
-0.012521859 0.037680984 0.12627587
-0.018034507 0.037464917 0.12587234
-0.0076473835 0.03651005 0.12182325
-0.012356273 0.037227154 0.12115896
-0.017612275 0.037225008 0.120599
-0.00010259456 0.00075083971 0.18471357
0.017710064 0.034799278 0.12450397
0.012088857 0.034866691 0.1234718
0.0073245582 0.035254896 0.12353233
0.0025792986 0.035003901 0.12313893
-0.00058848161 0.035073996 0.12304538
0.017837515 0.03479135 0.11981142
0.012255878 0.035428226 0.1200161
0.0074840416 0.035851598 0.12010497
0.002734632 0.035509706 0.11964494
-0.0020168733 0.035094857 0.11913252
-0.0065317298 0.035638034 0.11876613
-0.011465165 0.036659837 0.11789769
-0.01741891 0.036770582 0.11819202
0.018019069 0.035193264 0.11623079
0.012483151 0.035593152 0.11529857
0.007746669 0.035925806 0.11435324
0.0031714241 0.035572827 0.11413461
-0.0015990002 0.035499454 0.11386669
-0.0065612602 0.035816431 0.11362988
-0.011329784 0.036805511 0.11413175
-0.016671341 0.036963701 0.11418188
0.0071042967 0.03677237 0.1110447
-0.0080108671 0.036387801 0.11008471
-0.010779205 0.037116051 0.11000502
-0.01593085 0.037061453 0.1092459
-0.019143291 0.036837935 0.10991365
0.0010558878 -0.0089405775 0.18533468
-0.0004807259 -0.0052614808 0.18464655
0.013901313 0.03498584 0.11238885
0.001473446 0.035595357 0.1118837
-0.0033021674 0.035508156 0.11160547
0.01330961 0.034542322 0.10812432
0.0082691023 0.035829544 0.10789078
0.0032242541 0.036030114 0.10837084
-0.0015606297 0.036093533 0.10820335
-0.0061389836 0.036604047 0.10812849
-0.011403094 0.037033081 0.10727894
-0.015837442 0.036852956 0.10616511
0.0080272621 0.035918117 0.10317576
0.003465612 0.036547065 0.10287482
-0.0013298815 0.036508024 0.10263103
-0.0061232592 0.036239982 0.10221773
-0.010710596 0.036281526 0.10260612
-0.015745163 0.036333144 0.1028415
0.0036253226 0.036975503 0.099258065
0.01536001 0.034127474 0.10555571
0.013915245 0.035086393 0.10225815
0.0091654668 0.036135197 0.1008532
-0.011650714 0.035863757 0.099721372
-0.015653059 0.035817862 0.099508405
0.014149084 0.035253823 0.097447813
0.0085439635 0.036170602 0.096893132
0.0037698136 0.036180854 0.095697999
-0.0010853478 0.036064148 0.09638375
-0.0058973874 0.035844088 0.096004665
-0.010711703 0.036044359 0.095940828
-0.015522282 0.036280692 0.095903873
0.0092505561 0.035488844 0.093101144
0.0039000646 0.0360744 0.09264195
-0.00091772462 0.035537422 0.092021585
-0.0057482715 0.035871446 0.092059612
-0.010867192 0.036536753 0.091538489
-0.015324685 0.037108064 0.09057796
0.015260831 0.033542752 0.091229737
0.010192574 0.034040391 0.090050101
0.0040141349 0.034794986 0.089682281
-0.00082426262 0.034652829 0.089359522
-0.0056625893 0.034591436 0.089098096
-0.0088918274 0.035420954 0.08958447
0.015489659 0.0339728 0.086559236
0.0098204343 0.034119129 0.086419582
0.0043730931 0.034472704 0.085443079
-0.00066370075 0.034700215 0.085394204
-0.0055129039 0.034689426 0.085170865
-0.010361831 0.035347104 0.085458875
-0.015167705 0.036281407 0.084959269
-0.0013172191 0.035074413 0.08163023
-0.0056625935 0.035513997 0.080970466
-0.010187435 0.035802126 0.080791593
-0.015039782 0.035954833 0.080694973
0.015634168 0.034050763 0.083607614
0.010780112 0.033765435 0.083173811
0.0059094494 0.03401655 0.083151102
0.015810434 0.034612596 0.080009997
0.010947465 0.03438127 0.079616249
0.0052688075 0.034246564 0.079261184
-0.00017130682 0.035056174 0.079070866
-0.0048297248 0.035364747 0.078166246
-0.010081074 0.035365641 0.07743001
-0.014943722 0.035544515 0.077354431
0.016457397 0.034197986 0.075154662
0.01115864 0.033656299 0.075007796
0.0054573128 0.033719301 0.074805796
0.00034173275 0.034579039 0.073894501
-0.0050923256 0.034352422 0.073817611
-0.0099730333 0.034695148 0.07387042
-0.014813839 0.035273612 0.073092639
0.0016030526 0.035563171 0.069970429
0.015870148 0.033899188 0.072145104
0.01162585 0.033396423 0.071972728
0.0063954787 0.033198059 0.071893632
0.00053512939 0.034104586 0.071632862
-0.0049745133 0.033993959 0.070488155
-0.0098652085 0.034020245 0.070293963
0.016394658 0.033700287 0.068127215
0.011239349 0.033554018 0.068224549
0.0065536154 0.03357923 0.068367839
0.0011100254 0.035116196 0.068574488
-0.0043917811 0.034415841 0.067634225
-0.0097573316 0.033782482 0.067044735
-0.014657012 0.033639908 0.066717327
0.016561255 0.033300877 0.064738333
0.011634515 0.033600628 0.064760685
0.0067478875 0.033960998 0.064009905
0.0018383495 0.034249485 0.063818455
-0.0033693493 0.034490287 0.062959492
-0.0089772185 0.034273267 0.062148809
-0.014292951 0.033969223 0.06211859
0.016707158 0.033432126 0.061757624
0.011776353 0.033642888 0.061710477
0.0068703005 0.033913791 0.061197281
0.001964946 0.034273148 0.060754955
-0.016060185 0.034138739 0.059860587
0.011992482 0.032919884 0.057003319
0.007041038 0.033433974 0.057200968
0.0020995184 0.033917367 0.057374358
-0.0027845495 0.033496022 0.055784523
-0.0077191172 0.03410852 0.056063175
-0.01298065 0.034221232 0.056132436
0.016758347 0.031800151 0.05402267
0.01216644 0.032029688 0.053175926
0.0071970755 0.032678604 0.053484559
0.0022508157 0.032694042 0.053281963
-0.015874956 0.032539666 0.052368701
0.012292941 0.032579184 0.050497174
0.0073319757 0.032743633 0.050415516
0.0024060374 0.032966733 0.049599528
-0.0025387323 0.033095121 0.049228191
-0.0074892594 0.03284359 0.048808873
-0.012696973 0.032553434 0.04894346
0.01727427 0.032893896 0.045996785
0.012513199 0.033236027 0.045808911
0.0075450419 0.033332705 0.045672834
0.0026025611 0.033518672 0.045012355
-0.0023445927 0.033657551 0.044462979
-0.0073045446 0.033330321 0.043979704
-0.012086409 0.032960594 0.044255853
-0.017255034 0.032942057 0.0440166
0.011852537 0.034013629 0.042217612
0.0077085597 0.034078121 0.042091966
0.0027403242 0.03402245 0.041831493
-0.0022282091 0.034036934 0.041628957
-0.0071949577 0.033928752 0.041325212
-0.012989837 0.033508122 0.040727258
0.013061863 0.033497393 0.039128721
0.0078551071 0.033775687 0.038683295
0.0028787914 0.033597708 0.038320482
-0.0020972968 0.03333658 0.037889242
-0.0070789745 0.033529639 0.037835479
-0.01183557 0.03303957 0.037675261
-0.017073765 0.03249073 0.037596464
0.016360633 0.032505393 0.034813702
0.01302055 0.032705963 0.034837723
0.0080137895 0.033068061 0.034924984
0.003027604 0.03271544 0.03441596
-0.0019660881 0.032667994 0.034161568
-0.0069423979 0.032975674 0.033673406
-0.011590651 0.032622397 0.032859564
-0.015283494 0.031875849 0.032926798
0.013126967 0.032479703 0.032526374
0.0081142755 0.032788992 0.032570481
0.003127479 0.032105803 0.031783342
-0.0018782513 0.032240868 0.031681597
-0.0068811988 0.032393456 0.031594753
-0.013548336 0.032167375 0.031118751
0.013298335 0.033232629 0.028900683
0.0082902769 0.033158779 0.0286237
0.0032888642 0.032757699 0.028070211
-0.0017129267 0.032142162 0.027335882
-0.0067299409 0.032615364 0.027521193
-0.011739443 0.032851279 0.027506173
-0.016749267 0.032441199 0.026944995
0.01682435 0.033745706 0.02520746
0.013495817 0.03326875 0.024659455
0.008479164 0.033073127 0.024278641
-0.0074139861 0.032718241 0.023297608
-0.011545933 0.033536792 0.022284806
-0.016581461 0.032987654 0.022061408
0.01369425 0.031897545 0.020269752
0.0086541837 0.031900883 0.020057678
0.0037964294 0.031440377 0.021150351
-0.0016713169 0.03114289 0.020316839
-0.0062339595 0.032097161 0.02005291
-0.011454093 0.033126235 0.019172966
-0.016487073 0.032337844 0.01828289
0.013024068 0.031287551 0.016476512
0.010491882 0.03147471 0.016529739
0.0028455416 0.030674696 0.017681301
-0.0013187666 0.030578732 0.01633954
-0.0066432161 0.031582415 0.015025973
-0.011346734 0.03221488 0.015153825
0.014393394 0.030461194 0.0141958
0.0085534835 0.030592203 0.014385998
0.0038323936 0.030128777 0.014003217
-0.00088537007 0.030305982 0.013738036
-0.0045687621 0.03082484 0.013160646
-0.015525962 0.030314265 0.012254179
0.014183081 0.030889573 0.0096583962
0.0091180513 0.030625105 0.0092133284
0.0040496374 0.030432403 0.0088304877
-0.0010312189 0.030985832 0.0090961456
-0.006101436 0.03123796 0.0091003776
-0.011166046 0.031246064 0.0088926554
-0.016232079 0.030835031 0.0083204508
0.014406388 0.031714499 0.0049200058
0.0093022427 0.030867159 0.005058229
0.0025295513 0.030666232 0.0045959949
-0.00086489593 0.031102717 0.0048347116
-0.0062549068 0.031587303 0.0041542649
-0.011426418 0.03148061 0.0041710138
-0.015729943 0.031321645 0.003521204
0.0093990872 0.030831814 0.0028368235
0.0046195285 0.030553341 0.0032684207
-0.00077129982 0.030448914 0.0020709038
-0.0041672839 0.030773282 0.0022125244
-0.01010096 0.03099972 0.002161026
