# .PCD v0.7 - Point Cloud Data file format
VERSION 0.7
FIELDS x y z
SIZE 4 4 4
TYPE F F F
COUNT 1 1 1
WIDTH 453
HEIGHT 1
VIEWPOINT 0 0 0 1 0 0 0
POINTS 453
DATA ascii
-0.027024982 0.036700979 0.18019283
-0.016924608 0.035082478 0.18229043
-0.020443246 0.033525463 0.18295223
-0.024850316 0.032215927 0.18303818
-0.028413184 0.030254917 0.18196753
-0.017301274 0.037286762 0.1789377
-0.021878313 0.037459839 0.1802184
-0.026132472 0.036444608 0.18075529
-0.029979452 0.033177149 0.17924789
-0.018207446 0.03868198 0.17517677
-0.022070155 0.03845682 0.17546317
-0.026734363 0.037840895 0.17537904
-0.030344607 0.034558076 0.17475745
-0.022416605 0.038927764 0.17148465
-0.026473925 0.037626002 0.17088121
-0.029544473 0.035671886 0.17105949
-0.018602511 0.026660822 0.18390155
-0.023184652 0.026094891 0.18445873
-0.026431955 0.024560332 0.18373129
-0.0013633082 0.037127249 0.18013546
-0.0047757076 0.035843462 0.1812467
-0.0093475543 0.034391675 0.18193749
-0.01380005 0.032727905 0.18266666
-0.019002892 0.029759016 0.18401578
-0.022680352 0.028641503 0.18407026
-0.02858405 0.026651654 0.18260416
-0.0022477312 0.038234573 0.17765805
-0.0053591598 0.03775119 0.17730826
-0.010074785 0.037068032 0.17761379
-0.013924895 0.03666532 0.17850319
-0.031652089 0.029118672 0.17802626
-0.031806774 0.026844487 0.1757794
-0.0068119233 0.037688337 0.17370602
-0.010418054 0.037956808 0.17301112
-0.014936663 0.038440991 0.17374235
-0.031368151 0.02896267 0.17153424
-0.011892734 0.038503192 0.1688697
-0.016653927 0.039524689 0.16929537
-0.021727892 0.038988072 0.16795459
-0.026096839 0.037023492 0.1672492
-0.030122489 0.033214029 0.16783798
-0.016473018 0.039599564 0.16520774
-0.021453002 0.038096134 0.16421226
-0.025324797 0.035432719 0.16335359
-0.029165735 0.033551302 0.16435146
0.0018663537 0.030882437 0.18314779
-0.0025472054 0.02955563 0.18378952
-0.0069972705 0.028772086 0.18380097
-0.011668995 0.026842672 0.18343827
-0.016071267 0.023782492 0.18351799
-0.020735692 0.022319516 0.1846402
0.0010255612 0.034842648 0.18111432
-0.0034041079 0.032367438 0.18251815
-0.0064554391 0.031656884 0.18269208
0.00016071741 0.037858907 0.17578053
-0.0050956672 0.037403561 0.17500362
0.0030430704 0.038444825 0.17125726
-0.00032335334 0.038003944 0.17098531
-0.0048379237 0.037753873 0.17129427
-0.0084686195 0.038049132 0.17062232
-0.001736817 0.038428072 0.16672856
-0.0049526272 0.03815674 0.16630661
-0.0096055651 0.038348965 0.16712704
-0.03144737 0.027570516 0.16521874
-0.0059218369 0.038856436 0.16327024
-0.01004723 0.038346663 0.16220313
-0.015149083 0.038470808 0.16189972
-0.021063842 0.037364691 0.16183862
-0.025453214 0.035186559 0.16065717
-0.029063169 0.032549597 0.16079885
-0.031974711 0.029352905 0.16093308
-0.015401038 0.037859157 0.15805864
-0.020233933 0.037004136 0.15683112
-0.024958383 0.035621718 0.15640783
-0.029049385 0.032957692 0.15614116
-0.031363081 0.030294955 0.15679127
-0.021451166 0.037230711 0.15261412
-0.02537417 0.035874132 0.15184966
-0.027844202 0.034505531 0.15224686
0.00052660238 0.022755491 0.18335116
-0.0037754606 0.020953324 0.18312025
-0.0082844719 0.019630592 0.18320918
-0.01348338 0.017971259 0.18323329
-0.018684171 0.016245019 0.18412757
-0.00036852621 0.026855776 0.18410811
-0.0055025094 0.025074046 0.18404934
-0.0095736505 0.022803407 0.18349913
-0.013872868 0.02105416 0.18329886
0.0019616624 0.037442826 0.16811416
0.00069062598 0.038045369 0.16480738
-4.8810616e-05 0.038141664 0.16000938
-0.0041747298 0.037677482 0.15979204
-0.0077163661 0.037614666 0.15917969
-0.00098226592 0.037993528 0.15614089
-0.0046136379 0.037368134 0.15527654
-0.0091100149 0.03735701 0.15560719
-0.013924068 0.037926104 0.15514511
-0.030081011 0.031647548 0.1527518
-0.031849258 0.028518876 0.15437832
-0.0096002463 0.037469171 0.15094912
-0.014036799 0.037682056 0.1506781
-0.019007299 0.036885068 0.15000281
-0.02457808 0.036012337 0.14925802
-0.028951097 0.032809373 0.1493049
-0.030789262 0.029275425 0.15138656
-0.014217129 0.037810843 0.14619726
-0.019531632 0.03686801 0.14467576
-0.024905887 0.036193646 0.1452516
-0.028875967 0.033618618 0.14444834
-0.021804988 0.037281636 0.14059263
-0.024844941 0.036582634 0.1398719
-0.027621828 0.03507822 0.14044088
-0.02591439 0.03748177 0.13694456
0.001349791 0.020759258 0.18339571
-0.0026447778 0.018181758 0.18310931
-0.0067855245 0.015873771 0.1834662
-0.011577359 0.014062218 0.18319237
0.0031360649 0.037425674 0.15739006
0.001741997 0.037884869 0.15363017
-0.0027631391 0.037268318 0.15295729
5.4721721e-05 0.03772255 0.14952669
-0.0040586749 0.037624329 0.1493372
-0.0080112293 0.037529435 0.14896387
-0.030695476 0.026741903 0.14750326
-0.0052267015 0.037352059 0.14543211
-0.008984495 0.037720162 0.14515117
-0.013554283 0.038127981 0.14363343
-0.017113859 0.037890002 0.14276499
-0.031245589 0.028487314 0.1430358
-0.013904491 0.037539639 0.13994047
-0.01873477 0.037340209 0.13881463
-0.029132733 0.033603162 0.13859802
-0.031263161 0.030039893 0.13737172
-0.0201324 0.037798963 0.13584834
-0.024298806 0.037374523 0.13414648
-0.028639026 0.034546755 0.1339547
-0.031086035 0.031624604 0.1342212
-0.02562215 0.037404567 0.13020641
-0.027838906 0.035247911 0.12958097
-0.00089402171 0.0096835373 0.18334723
-0.0044574649 0.0089589879 0.18405601
-0.0083403345 0.0070032342 0.18411613
-0.00088820839 0.013884944 0.18302384
-0.0052469741 0.012021548 0.18368095
-0.009629284 0.010319948 0.1835227
0.0032825405 0.036735188 0.14652616
-0.0016604336 0.036834434 0.14620003
0.0023564044 0.036416344 0.14169809
-0.0027566142 0.036405865 0.14215684
-0.006967464 0.035929728 0.14112276
-0.0031799879 0.036155727 0.13727492
-0.0074938796 0.035608776 0.13724297
-0.011561493 0.035897449 0.13707799
-0.031458419 0.026490849 0.13659343
-0.0044834036 0.03700595 0.13369018
-0.0078618666 0.035945509 0.13327223
-0.01254019 0.036003154 0.13293695
-0.017656868 0.036176961 0.13231218
-0.021136159 0.036541842 0.13144854
-0.029615425 0.032487489 0.13066912
-0.031058524 0.029631954 0.13099104
-0.013408212 0.035843153 0.12857994
-0.017373228 0.035904132 0.12825474
-0.022530837 0.03624253 0.1272831
-0.0289024 0.033891406 0.12700722
-0.030920211 0.030742461 0.12693977
-0.018855598 0.03575772 0.12467238
-0.023780011 0.035593238 0.12263662
-0.027449645 0.034256451 0.1218152
-0.030632861 0.03149109 0.122594
-0.024002593 0.036559224 0.11873984
-0.026691347 0.035721827 0.11802888
-0.002393885 0.0057027526 0.18428102
0.0029971888 0.036702219 0.13579699
-0.0014795717 0.036437679 0.13518012
0.0019131796 0.036275789 0.13176787
-0.0026052948 0.036897317 0.13128603
-0.0072807134 0.036668487 0.13104686
-0.0040151896 0.036736153 0.12671065
-0.0076007778 0.036615331 0.12673002
-0.011742781 0.036168162 0.12650168
-0.015663551 0.036103852 0.12608457
-0.031296272 0.028529996 0.12553513
-0.0079132747 0.036314018 0.12251544
-0.01227238 0.035995312 0.12193376
-0.016795106 0.035667986 0.12197179
-0.021226022 0.035680499 0.12133288
-0.029447252 0.033083212 0.1195612
-0.03108122 0.030181451 0.12065339
-0.017276485 0.035452593 0.11703682
-0.021821983 0.03612699 0.11682534
-0.02786883 0.034473717 0.11564744
-0.030451003 0.030140819 0.1158492
-0.022227962 0.03611315 0.11260027
-0.027269704 0.035381556 0.11149967
-0.029316474 0.033696536 0.10931563
-0.00019102637 0.03562852 0.12797916
0.0033229776 0.03491576 0.12429413
-0.00076800305 0.035497073 0.12368912
-0.0052582044 0.035973217 0.12359852
-0.0019421363 0.035421953 0.11923677
-0.0066309785 0.036214784 0.11966741
-0.010895017 0.035651647 0.11889839
-0.0070400066 0.036016516 0.11464149
-0.01161435 0.035735298 0.11524868
-0.015501624 0.035530224 0.11473441
-0.030761046 0.028176151 0.11360252
-0.0076191071 0.036940508 0.11124319
-0.011731435 0.035997763 0.11017674
-0.01662299 0.035927664 0.11074018
-0.021325888 0.03603274 0.10999662
-0.030491792 0.030032698 0.10996217
-0.01330762 0.036669523 0.10655719
-0.017041283 0.036862459 0.10619789
-0.021499164 0.036333933 0.10610372
-0.026442301 0.035378795 0.10590208
-0.029568657 0.032086544 0.10493284
-0.018461652 0.037163857 0.10227847
-0.021465849 0.036100637 0.10226166
-0.026277117 0.034491289 0.10151553
-0.029407494 0.033177096 0.10148293
0.0019988318 -0.0060396781 0.18400878
0.001134092 0.035222568 0.11709076
-0.00069705769 0.035468202 0.11268449
-0.0045711584 0.035649158 0.11255395
-0.0018839706 0.035281081 0.10807365
-0.0059467666 0.035990648 0.10766929
-0.010621653 0.036284421 0.10759807
-0.0068025161 0.03655953 0.10359764
-0.011293612 0.036773242 0.10393512
-0.01569573 0.036580004 0.10315317
-0.030739991 0.029025316 0.10345596
-0.031471897 0.026575331 0.10191238
-0.0079310052 0.036975704 0.099565685
-0.011424091 0.036967386 0.10041535
-0.015880549 0.035973586 0.098830402
-0.020895466 0.035039425 0.098416448
-0.025287308 0.034217548 0.098422647
-0.030308986 0.031341054 0.098434389
-0.032250296 0.027884442 0.097606122
-0.021104351 0.034840774 0.09486866
-0.025599975 0.034338228 0.094141781
-0.02990737 0.032213274 0.093690157
-0.026208254 0.034077495 0.090140879
-0.029203895 0.032947946 0.090077817
0.0027651228 0.034839142 0.11124104
0.00094255526 0.035569355 0.10713136
-1.5144236e-05 0.035812724 0.10238737
-0.0049113417 0.036470052 0.10110402
-0.0013606157 0.035947148 0.098220587
-0.005787258 0.036290586 0.096903741
-0.010916633 0.03612959 0.096731544
-0.015632682 0.035024133 0.096118629
-0.0063514174 0.035949487 0.093489349
-0.011216304 0.035937078 0.092365801
-0.0157221 0.03563451 0.09260875
-0.020264685 0.034962188 0.092069447
-0.03224954 0.02772695 0.091451168
-0.012207588 0.036018085 0.088020027
-0.015943456 0.036116879 0.087605715
-0.020713978 0.035662726 0.087911606
-0.02539058 0.035023861 0.088062286
-0.030038439 0.032488916 0.087396383
-0.032290339 0.03007216 0.086779594
-0.020909335 0.03552587 0.083363354
-0.02574861 0.035237946 0.083137453
-0.029897779 0.033214916 0.082465887
-0.03245458 0.030807285 0.083359838
-0.026709244 0.03426617 0.078404784
-0.029808823 0.033342537 0.078523576
0.0031517828 0.035407491 0.099716187
0.0021565435 0.034697123 0.09523052
-0.0014216918 0.034475796 0.094209909
0.0010900646 0.034466468 0.090919614
-0.0031328481 0.034411587 0.090147913
-0.0081503522 0.034375705 0.089816868
-0.0050787209 0.034463704 0.085769892
-0.0093062297 0.034601305 0.085976005
-0.015386998 0.035667315 0.084565878
-0.010884126 0.034582876 0.081119537
-0.014657997 0.034827478 0.081182182
-0.019832155 0.034226518 0.079958439
-0.023386337 0.03448154 0.079718351
-0.032051332 0.02852853 0.079580843
-0.015156271 0.034778763 0.077312231
-0.019517206 0.033808138 0.076204598
-0.024618071 0.033618372 0.075364947
-0.029421158 0.032651052 0.07488519
-0.032332417 0.031079819 0.076494157
-0.021459412 0.034726348 0.072328269
-0.024687154 0.034181882 0.07141459
-0.028950984 0.032683615 0.070939004
-0.031869538 0.030262977 0.071720839
-0.02558407 0.034567073 0.068213701
-0.027881613 0.033768494 0.068220317
0.0029432354 0.034545887 0.088510394
0.0024383701 0.034982245 0.08358109
-0.0021669744 0.034722891 0.083883047
0.0017816806 0.03493423 0.079668999
-0.0027716896 0.034833893 0.078981102
-0.0075270324 0.03458273 0.079505622
-0.0090328194 0.034494948 0.074451327
-0.014354394 0.035037104 0.074562252
-0.017794363 0.034091122 0.0739429
-0.014281606 0.035348285 0.070099413
-0.019242015 0.034957215 0.0706141
-0.02301668 0.034537494 0.069548726
-0.030422065 0.031252664 0.069034815
-0.03207561 0.027639836 0.068291664
-0.015228481 0.035099365 0.065874815
-0.019880127 0.035183158 0.065707862
-0.024462081 0.034821879 0.065486193
-0.029286183 0.032586385 0.065406859
-0.032269515 0.029664662 0.064246893
-0.024580792 0.033813491 0.060730577
-0.02851069 0.032484446 0.06046474
-0.031470373 0.030191544 0.060334861
0.0033974722 0.034525719 0.077437162
-0.0006048372 0.03474512 0.076080322
0.0032953015 0.034308109 0.072716951
-0.0017975923 0.033774227 0.0726161
-0.0062112971 0.033865545 0.071785688
0.0028372128 0.03485997 0.0686391
-0.0017514806 0.034245387 0.067838311
-0.0064950832 0.033466838 0.067911983
-0.010486968 0.034102809 0.066946089
-0.0034288252 0.034437504 0.064314604
-0.0070541105 0.033574697 0.064107776
-0.012485491 0.033937439 0.062513471
-0.017299233 0.034136344 0.061595619
-0.012207882 0.034055267 0.058523834
-0.017719757 0.033342034 0.058014393
-0.023192689 0.032644864 0.056684911
-0.02848088 0.030715324 0.056326091
-0.031417809 0.027964111 0.057595432
-0.017619606 0.033404678 0.054934382
-0.022461325 0.032480389 0.052947283
-0.02792385 0.03073857 0.052573681
-0.030612458 0.028405119 0.054616451
-0.027114375 0.031968765 0.049498379
-0.0011440245 0.033597462 0.061015844
-0.0061375499 0.033628095 0.061124444
-0.0025192732 0.033105429 0.056868911
-0.0063724867 0.033773422 0.057367563
-0.010349779 0.033541188 0.055840373
-0.031429909 0.025884729 0.054978371
-0.012580985 0.033530019 0.052974224
-0.016424526 0.033555053 0.052057505
-0.020271227 0.033755034 0.05177772
-0.031062888 0.02709307 0.051243007
-0.01756374 0.033978716 0.048087835
-0.022213919 0.033669699 0.048291683
-0.027688745 0.031757299 0.047323585
-0.031046862 0.028368663 0.046812057
-0.022879995 0.033739474 0.043452144
-0.026730999 0.032575298 0.042475224
-0.029943641 0.030747294 0.043070734
0.00092027336 0.033268791 0.058151841
-0.00072335731 0.03336823 0.054508686
-0.0057047615 0.03260795 0.053186178
-0.000428834 0.033825576 0.050009429
-0.0059275385 0.032910313 0.049901605
-0.010200669 0.032409735 0.049384058
-0.00113557 0.034504507 0.04629612
-0.0054959459 0.033570889 0.045245349
-0.011129621 0.033083137 0.045177102
-0.015294139 0.032632768 0.044535875
-0.03142225 0.026861828 0.04323411
-0.0076569989 0.034377672 0.041476011
-0.010876185 0.033582948 0.040694118
-0.016244886 0.033049405 0.040264845
-0.020724243 0.033056106 0.040217042
-0.024671976 0.03264999 0.03960067
-0.030554967 0.028606027 0.039742827
-0.012614206 0.033852447 0.037172079
-0.015933227 0.033286754 0.036599696
-0.021183735 0.033152938 0.035857975
-0.026215758 0.032438852 0.035655499
-0.030258618 0.02914587 0.035240948
-0.022184696 0.033041421 0.032175124
-0.026010197 0.03240161 0.030279458
-0.030084945 0.02999825 0.031003177
-0.027718831 0.032475285 0.027642131
-7.1463175e-05 0.034285344 0.042996049
-0.00057363324 0.033974178 0.039409399
-0.0051941071 0.034231909 0.03932178
-0.0091325119 0.033949528 0.038387954
-0.0056603979 0.033810832 0.034342468
-0.010398658 0.033142559 0.03387022
-0.01503033 0.032497592 0.0330742
-0.011728404 0.032461304 0.029453158
-0.015098253 0.031864949 0.02993381
-0.020147096 0.032077953 0.028984308
-0.03109389 0.028813569 0.028502762
-0.021505807 0.032008633 0.024768949
-0.025628693 0.03250815 0.024667859
-0.029928694 0.029865364 0.024650574
-0.026839744 0.030883623 0.019690037
0.00011498481 0.033562321 0.036212683
0.00038732402 0.033925317 0.032979369
-0.0049585407 0.033305235 0.031406283
-0.0082498491 0.032611407 0.030719042
0.00018621981 0.034319177 0.028623462
-0.0047207335 0.033656638 0.028149009
-0.0093278075 0.032098837 0.027199686
-0.014515181 0.03071809 0.026718855
-0.0054510734 0.033157736 0.023942709
-0.009871481 0.03206848 0.023474455
-0.014768104 0.031166676 0.023134887
-0.019264154 0.031320658 0.022998452
-0.029592367 0.028633008 0.020806909
-0.016419772 0.03184633 0.018517852
-0.019813951 0.031944465 0.018239021
-0.024929119 0.031607676 0.01843375
-0.029534154 0.028077966 0.017576218
-0.02128814 0.03246757 0.01433599
-0.025218379 0.031883474 0.013571739
-0.02932594 0.029210009 0.012855172
0.00079094712 0.033353671 0.024465621
0.00078072771 0.032662734 0.02122283
-0.0040557021 0.032358181 0.020387769
-0.0085343039 0.031198433 0.019484401
-0.01251871 0.030943897 0.019889593
-0.0018268442 0.031696126 0.017411888
-0.0095138578 0.030679721 0.015565038
-0.013885059 0.031006511 0.016019285
-0.014457978 0.031242488 0.011612415
-0.019300144 0.031665102 0.011215329
-0.030708466 0.02780316 0.0096687078
-0.015633134 0.030941786 0.0077961087
-0.019682825 0.030988207 0.006855607
-0.024758007 0.031245073 0.0074896216
-0.029395748 0.029327026 0.0068137646
-0.025200078 0.030398482 0.0036491156
-0.028862959 0.028241854 0.0029491782
0.002633729 0.031827256 0.018398762
0.0017753365 0.031624343 0.014412165
-0.0033957167 0.03142602 0.014394462
-0.0065949177 0.030319445 0.014424443
0.00033442024 0.031727619 0.010288119
-0.0033683926 0.031289533 0.0094537139
-0.0082084546 0.030357026 0.0094857216
-0.011824213 0.030307446 0.0094189644
-0.009360116 0.030692566 0.0050039887
-0.013313423 0.030592587 0.0043603182
-0.017612975 0.030197965 0.0041288733
-0.015055805 0.030222608 0.00046187639
-0.018922968 0.030310959 -0.00022614002
-0.023627214 0.029677287 -0.00024199486
-0.028318245 0.027170978 -0.0013977885
0.0023271656 0.030439056 0.0029451847
-0.0022738809 0.030524386 0.0032209754
-0.0068123462 0.030584024 0.0034274459
