# .PCD v0.7 - Point Cloud Data file format
VERSION 0.7
FIELDS x y z
SIZE 4 4 4
TYPE F F F
COUNT 1 1 1
WIDTH 372
HEIGHT 1
VIEWPOINT 0 0 0 1 0 0 0
POINTS 372
DATA ascii
-0.031253219 -0.0077487421 0.18355697
-0.031819582 -0.011219624 0.18419605
-0.031784594 -0.015141331 0.18426132
-0.033413649 0.0041990741 0.18064871
-0.03325069 -0.00038361218 0.18099502
-0.033667386 -0.0062272646 0.18116331
-0.034755945 -0.010657243 0.18109655
-0.03572017 -0.015248306 0.18148798
-0.034922481 -0.0074211475 0.17683178
-0.035785675 -0.01149356 0.1765849
-0.036594033 -0.015058469 0.17663002
-0.025039852 -0.0079253949 0.18513283
-0.025534153 -0.011014611 0.18529069
-0.02772665 0.013545383 0.18309131
-0.027939737 0.0089670382 0.18357876
-0.028247714 0.0047309618 0.1838617
-0.028623521 -0.00085809117 0.18369639
-0.028517187 -0.0057647717 0.18416372
-0.029352367 -0.010616615 0.18513176
-0.030911982 0.013960555 0.18074539
-0.031961143 0.0093379412 0.180527
-0.032767951 0.0048788204 0.18067837
-0.033275485 -0.0011624958 0.18000966
-0.03407228 -0.0051818532 0.178211
-0.033423126 0.014191654 0.17597911
-0.033957541 0.0095777903 0.17555898
-0.034226418 0.0049671973 0.17515105
-0.034595668 -0.00042731169 0.17513371
-0.034652352 -0.0056098499 0.17470136
-0.035256267 -0.0098911971 0.17450786
-0.036058247 -0.014968626 0.17357224
-0.034231901 0.014439607 0.17103535
-0.034820259 0.0098327007 0.17028472
-0.03514868 0.0051943413 0.17028013
-0.035119474 9.4576109e-08 0.17018595
-0.035409153 -0.0052864854 0.16977787
-0.036318481 -0.010226559 0.17031765
-0.036403358 -0.014842767 0.17015693
-0.034426153 -0.017937116 0.16874006
-0.036056399 0.0084267091 0.16735697
-0.036474764 0.004869794 0.16624132
-0.036629379 0.00077668903 0.16554052
-0.036455572 -0.0044200537 0.16535315
-0.036905229 -0.010227393 0.16543883
-0.037296593 -0.014651421 0.16525921
-0.035632491 -0.01777795 0.16494817
-0.037478745 0.0040096524 0.16256982
-0.037674546 0.0024604718 0.16262689
-0.037085116 -0.011437491 0.16159648
-0.037570059 -0.014524717 0.16177249
-0.021628618 0.0091717169 0.18384495
-0.022340894 0.0044958605 0.18406188
-0.021361768 -0.00048467729 0.18395501
-0.021097124 -0.0052843471 0.18387854
-0.021585941 -0.011415213 0.18539205
-0.02537936 0.0099238213 0.1843704
-0.025110245 0.0029691772 0.18387771
-0.025423408 0.0014166568 0.18399757
-0.033888578 0.014591984 0.1680724
-0.033786833 0.014782766 0.16433448
-0.034880102 0.010300338 0.16460973
-0.035977721 0.0065112426 0.16415519
-0.035658181 -0.0068634418 0.16271326
-0.035686016 -0.0084103718 0.16265988
-0.034032166 0.014504677 0.15955392
-0.03454423 0.010124713 0.1595999
-0.035498798 0.0058926023 0.15927374
-0.035945177 0.00084171403 0.1593346
-0.035502851 -0.0041910973 0.15920961
-0.034796536 -0.0098193586 0.15831524
-0.035873711 -0.014437027 0.15788931
-0.035321414 0.005082834 0.15564296
-0.035250545 0.0011968422 0.15541661
-0.035193861 -0.0019119442 0.15523553
-0.035060048 -0.014346655 0.15457314
-0.017261565 0.009166155 0.18390709
-0.017461419 0.0044806451 0.18380827
-0.017127216 -0.00023305995 0.18429416
-0.017048359 -0.0056877919 0.18398729
-0.034046769 0.016154096 0.15778455
-0.034619629 0.011236712 0.15731835
-0.034321606 -0.0066411351 0.1562956
-0.034293294 -0.0081956275 0.15620506
-0.034338236 0.016105823 0.15363243
-0.034374952 0.010646097 0.15340543
-0.034711897 0.0062065939 0.15289366
-0.034397364 0.0013318858 0.15205932
-0.034470797 -0.0043680188 0.15260834
-0.034346223 -0.0096133612 0.15245336
-0.034531176 -0.014253654 0.15143144
-0.034377217 0.016295131 0.14992955
-0.033943832 0.010839473 0.14938691
-0.034136415 0.0061444058 0.14930081
-0.034239769 0.0018000188 0.14842069
-0.034115136 -0.0031989054 0.14810693
-0.034748733 -0.0089540109 0.14752007
-0.034849882 -0.01359424 0.14762527
-0.009336412 0.0044518076 0.18345037
-0.010340333 -0.00069553044 0.18427148
-0.012457013 0.0044666566 0.18350524
-0.013700247 0.00052586739 0.18407226
-0.013428926 -0.004948996 0.18364954
-0.033675611 0.016466588 0.14664695
-0.033501565 0.010989215 0.14627799
-0.033758283 0.0062822658 0.14623627
-0.033942103 0.0012100354 0.14565808
-0.033808112 -0.0030932692 0.14536983
-0.034253895 -0.006991901 0.14502341
-0.033787191 -0.015097532 0.1449613
-0.032873511 0.016740404 0.14139521
-0.033199251 0.011225736 0.14136574
-0.033919215 0.0064927409 0.14164236
-0.034295321 0.0017763856 0.14168334
-0.034203291 -0.002927585 0.14140508
-0.034506619 -0.0084171742 0.14136118
-0.034157157 -0.013903767 0.14087111
-0.033698678 0.01060441 0.13789132
-0.033700645 0.0066701467 0.13771299
-0.034610271 0.0017660665 0.13676026
-0.035127997 -0.0027101827 0.13637173
-0.035755873 -0.0082121529 0.13655657
-0.035418093 -0.013705872 0.13607165
-0.033528507 -0.016920656 0.1365169
-0.035939574 -0.0035913032 0.13246006
-0.037061214 -0.0077602756 0.13220719
-0.036413848 -0.011946406 0.13145855
-0.0057030916 -2.1819093e-05 0.18399304
-0.033496082 0.017006431 0.13614115
-0.033265471 0.011748429 0.13519824
-0.03335768 0.006809141 0.13462868
-0.034263194 0.0028902921 0.13412699
-0.032862067 0.011739982 0.13068807
-0.032623529 0.006584249 0.13076568
-0.033635259 0.0020290627 0.13037613
-0.035140395 -0.0019294736 0.13006639
-0.037043095 -0.0055758231 0.12996513
-0.036014795 -0.014112927 0.12999973
-0.035029411 -0.0033533783 0.12609339
-0.036324203 -0.0069996868 0.12556401
-0.036230922 -0.012524441 0.12524772
-0.034229934 -0.016545001 0.12557065
-0.036659956 -0.0084391832 0.12189454
-0.03667146 -0.010810163 0.12179554
-0.036216021 -0.014763065 0.12129146
-0.032541454 0.016942166 0.12820634
-0.032484472 0.011890778 0.12755269
-0.032252133 0.007424084 0.12795487
-0.032637 0.0031718737 0.12726402
-0.032759964 0.012067232 0.12390143
-0.033203304 0.0072922311 0.12399963
-0.033463836 0.0025282274 0.12396923
-0.034156203 -0.0016831051 0.12362769
-0.03309536 0.017351083 0.12012702
-0.033267021 0.012282399 0.11943936
-0.033605814 0.0075449939 0.11849844
-0.033564389 0.002774402 0.11825329
-0.034222662 -0.0020048679 0.11850756
-0.03485322 -0.0065661189 0.11851168
-0.035753906 -0.01173985 0.11861455
-0.034115136 -0.016488887 0.11753654
-0.034759223 0.007690025 0.11545163
-0.034257531 -0.0018492457 0.11465925
-0.035309136 -0.0068060947 0.11380726
-0.035747647 -0.011329859 0.11336517
-0.035830498 -0.015302412 0.11324579
0.0052807927 -0.00048837246 0.1848197
-0.033101678 0.013225317 0.11645073
-0.033111751 0.013414757 0.11256605
-0.034340978 0.0078013982 0.11296225
-0.033712864 0.0030213888 0.11253452
-0.034214079 -0.0017607254 0.11243987
-0.034892499 -0.0056852777 0.11105013
-0.033765435 -0.017703518 0.11164087
-0.032711148 0.011215668 0.10826105
-0.034204423 0.0078068892 0.10779798
-0.034128368 0.0032538134 0.10722268
-0.034439087 -0.0015370143 0.10699052
-0.035275698 -0.0063373675 0.10738897
-0.036124408 -0.011125259 0.10779709
-0.035342574 -0.015911214 0.1070087
-0.034985662 -0.0017674328 0.10296154
-0.035115123 -0.0065701571 0.10284227
-0.035580277 -0.010953363 0.1024977
-0.035106838 -0.015439637 0.10214376
-0.032733619 0.014015818 0.10728049
-0.033983469 0.0089570396 0.1051628
-0.033908486 0.0033530104 0.10485637
-0.032660961 0.013907667 0.10243571
-0.034425795 0.0083239228 0.10151815
-0.03526473 0.0034931074 0.10192525
-0.035676897 -0.00095010776 0.10084963
-0.035123765 -0.0057502878 0.10022318
-0.035490453 -0.010849498 0.09947902
-0.035121441 -0.016074419 0.099464595
-0.033176482 0.011666233 0.098760784
-0.03454119 0.0085005946 0.097655118
-0.035094202 0.0033786329 0.097046077
-0.034896851 -0.0011078832 0.09649992
-0.034871876 -0.0059270491 0.096266687
-0.035315931 -0.010920323 0.095633149
-0.035656273 -0.01552676 0.095435202
-0.034475207 -0.0066168015 0.092958033
-0.035423398 -0.010595527 0.092169166
-0.036223352 -0.015046906 0.091115475
-0.031188786 0.015057161 0.09543854
-0.032430053 0.0099241696 0.094546795
-0.033006787 0.0054087224 0.094380379
-0.031905115 0.015311111 0.090245962
-0.032478631 0.0096406117 0.090176463
-0.033432305 0.0039589736 0.090644181
-0.033418775 -0.00088569935 0.090418756
-0.033673167 -0.0054781255 0.089836955
-0.034684598 -0.010115579 0.089470148
-0.035273969 -0.016945843 0.089115322
-0.033316016 0.0081791617 0.086738467
-0.033622921 0.0041687093 0.085790277
-0.03401953 -0.00065290224 0.084874868
-0.034044385 -0.0055076075 0.084679008
-0.034526289 -0.01036071 0.084831655
-0.035014153 -0.0152076 0.084989548
-0.03557831 -0.005663157 0.081020176
-0.035614729 -0.010187436 0.080646873
-0.035621226 -0.014232472 0.080473423
-0.031422853 0.015439961 0.087629497
-0.032787263 0.015584696 0.084651768
-0.032723904 0.010934055 0.084145248
-0.033353746 0.005584301 0.083030939
-0.032880902 0.015865611 0.078925967
-0.032543778 0.011275351 0.079425931
-0.032705128 0.0049078777 0.079211235
-0.034215868 -0.00041206594 0.078986585
-0.03539151 -0.0048300256 0.078186989
-0.03545475 -0.010081206 0.077499211
-0.034615159 -0.015636671 0.077815711
-0.034047961 -0.0010601993 0.074774981
-0.034757376 -0.0050959443 0.074133515
-0.035042346 -0.0099384673 0.073125899
-0.034903467 -0.014621399 0.073066115
-0.032551646 0.015990136 0.076394439
-0.032126784 0.01108234 0.076525807
-0.03083384 0.007797319 0.076734424
-0.03228718 0.0029583531 0.075614572
-0.031860411 0.016166812 0.072807908
-0.031182528 0.011031955 0.072490811
-0.030920565 0.0063418983 0.072663188
-0.032168984 0.0011997964 0.072050869
-0.034079909 -0.0041589965 0.07059145
-0.032765031 0.01638153 0.068412304
-0.032368064 0.011483951 0.067884743
-0.031811059 0.0065876446 0.067231774
-0.032957435 0.0016519461 0.067918897
-0.034043133 -0.0040422161 0.067501009
-0.034541249 -0.0097587034 0.067643166
-0.033480704 -0.014906447 0.067019105
-0.033053577 0.0059154476 0.064076066
-0.033934951 0.0016285774 0.063118517
-0.034458518 -0.0033688028 0.06293422
-0.034316599 -0.0089770555 0.06218338
-0.034024715 -0.014031101 0.062211037
-0.035082102 -0.009437222 0.058842182
-0.035022318 -0.012713544 0.058651388
-0.032192826 0.016513927 0.061532795
-0.032323658 0.011772292 0.061687768
-0.032923698 0.0070888656 0.061373532
-0.034111321 0.0027879751 0.060661554
-0.032612383 -0.016102739 0.059670627
-0.031632423 0.011986857 0.057007313
-0.032847047 0.0066227834 0.057229459
-0.033757508 0.0019289177 0.056460202
-0.034730017 -0.0027992507 0.056778967
-0.035106897 -0.0079108849 0.056343555
-0.035020947 -0.013571847 0.056249917
-0.033078909 -0.017591927 0.055151165
-0.033968687 -0.0026299362 0.052020967
-0.033720255 -0.007568833 0.051604807
-0.034404516 -0.012506422 0.051945627
-0.031483233 0.012136474 0.053774118
-0.031938016 0.0075103822 0.05373162
-0.032794595 0.0038969829 0.053434849
-0.032060683 0.012310199 0.050075948
-0.03247118 0.0073394398 0.050194621
-0.033103228 0.002153778 0.050035179
-0.033620715 -0.0025050049 0.048614144
-0.033332765 -0.0074545708 0.048164785
-0.033317864 -0.012420192 0.048384428
-0.032687247 0.017236369 0.046163201
-0.03296715 0.01252223 0.04558903
-0.033022702 0.0075533534 0.045419574
-0.033357203 0.0027988343 0.045225382
-0.03412205 -0.0023504202 0.044844449
-0.034329534 -0.0073101637 0.044800878
-0.033993721 -0.012265623 0.044310451
-0.032212317 -0.017051481 0.044289529
-0.034401 0.0073085516 0.041815221
-0.034639478 0.0027710232 0.041290462
-0.034531415 -0.0021945243 0.040986776
-0.034675956 -0.007381801 0.040431499
-0.034789264 -0.012090631 0.039720595
-0.035921574 -0.0086369142 0.036593199
-0.035954714 -0.011121169 0.036514163
-0.033425629 0.012799585 0.03966105
-0.034049392 0.0081886612 0.038713932
-0.034253955 0.0029089372 0.037812352
-0.034206808 -0.0020684344 0.037558794
-0.034624457 -0.0062187915 0.037727773
-0.032720387 -0.017072819 0.037788391
-0.032651186 0.017188141 0.034971118
-0.033008099 0.012716062 0.034227133
-0.033616662 0.0080451667 0.034322977
-0.033390343 0.0030573788 0.033919632
-0.033687413 -0.0019386712 0.033953011
-0.034872532 -0.0068975468 0.033671558
-0.035590053 -0.012096237 0.033445477
-0.033086956 -0.015889283 0.032213688
-0.034661174 -0.0084090903 0.029179215
-0.035052419 -0.011738423 0.02936703
-0.032892942 0.014779989 0.032944024
-0.032951236 0.0065341848 0.030509114
-0.032977343 0.0031970548 0.030387998
-0.033123016 -0.0026425817 0.030260205
-0.033416569 -0.0051458073 0.030399919
-0.033238411 0.013298094 0.02890563
-0.033191204 0.0085096247 0.028393507
-0.033190668 0.0033241431 0.027369857
-0.03307569 -0.0014641195 0.027525425
-0.033709109 -0.0063576628 0.027181089
-0.034116507 -0.011668175 0.026444793
-0.032358825 -0.016739327 0.02652055
-0.033823609 0.016821209 0.025273621
-0.033632696 0.013482682 0.024968565
-0.033541203 0.0084666684 0.024676383
-0.033189654 0.0034557614 0.024163127
-0.032994866 -0.0019577206 0.023229122
-0.034224093 -0.0065103513 0.022472382
-0.03495878 -0.01152562 0.022885263
-0.033039927 -0.014907748 0.022176921
-0.035151899 -0.0074536284 0.018210113
-0.035550535 -0.011019923 0.018257856
-0.031984031 0.013690926 0.020343661
-0.031840205 0.008656159 0.020005941
-0.031627297 0.0036220918 0.019609034
-0.032146394 -0.001079474 0.019637823
-0.031520724 0.013016053 0.016676724
-0.031677246 0.008802196 0.01663202
-0.03085947 0.0037725451 0.015714586
-0.032303691 -0.0012590181 0.015660226
-0.034222841 -0.0056941812 0.015324056
-0.034219742 -0.011677455 0.014166415
-0.03156215 -0.01528335 0.014785469
-0.033097208 -0.0028291275 0.013028622
-0.033568919 -0.0061186855 0.011127174
-0.033866882 -0.010326371 0.011207819
-0.030700684 0.01438427 0.014401793
-0.030786037 0.0089228787 0.013700604
-0.030823231 0.0038622986 0.013517618
-0.031641662 0.01415618 0.010310531
-0.031532288 0.0090915374 0.010000229
-0.031583428 0.0040243561 0.009829998
-0.032042861 -0.00082570728 0.0097519159
-0.033147395 -0.0060374443 0.0085876584
-0.032849312 -0.011534095 0.0086394548
-0.030142546 -0.016034916 0.0080002546
-0.03294903 0.014411679 0.0049083233
-0.032782376 0.0093414038 0.0045474768
-0.032752633 0.0042675394 0.0043072701
-0.032493711 -0.00060094561 0.0041474104
-0.032871366 -0.0058787097 0.0039820075
-0.032916248 -0.010949414 0.0038075447
-0.031069934 -0.014776807 0.0025737286
-0.033422172 0.012902888 0.00087249279
-0.030170441 -0.016035698 0.0011818409
-0.032577455 0.01503028 -0.0011079311
