# .PCD v0.7 - Point Cloud Data file format
VERSION 0.7
FIELDS x y z
SIZE 4 4 4
TYPE F F F
COUNT 1 1 1
WIDTH 427
HEIGHT 1
VIEWPOINT 0 0 0 1 0 0 0
POINTS 427
DATA ascii
0.025109798 -0.031320646 0.18183258
0.029085513 -0.03009133 0.18220201
0.022225816 -0.03436638 0.17841315
0.025133636 -0.033414043 0.17841938
0.030553862 -0.032574579 0.1789979
0.026706494 -0.034690723 0.17455107
0.029959884 -0.033580285 0.1745322
0.030234706 -0.034620505 0.17115617
0.018042339 -0.02730743 0.18417534
0.023338728 -0.02676145 0.18458363
0.026589628 -0.026003914 0.18416747
0.014296778 -0.032149188 0.18142962
0.019478103 -0.031154424 0.18224204
0.022900363 -0.029775716 0.18263116
0.028828582 -0.025580052 0.18255386
0.015254179 -0.03437189 0.17720023
0.019605417 -0.034051083 0.17769706
0.033643533 -0.028005661 0.17684895
0.016720893 -0.034636285 0.17248631
0.020693634 -0.035209797 0.17319191
0.024365542 -0.034506902 0.17314699
0.031015661 -0.032249168 0.1725733
0.033015475 -0.029635737 0.17228425
0.020885551 -0.035597526 0.16853437
0.025456034 -0.035227776 0.16872823
0.029839825 -0.033870917 0.16818726
0.032548118 -0.030687444 0.16774455
0.025865564 -0.034563635 0.16475251
0.029663965 -0.033771306 0.16444051
0.032459617 -0.032453764 0.1648109
-0.0017859163 -0.031058213 0.18326688
0.0025294088 -0.029549647 0.18407318
0.0065025934 -0.028050803 0.18395808
0.011604325 -0.026693977 0.1833376
0.016045792 -0.023003502 0.18365636
0.020870859 -0.02264546 0.18485796
-0.0014120713 -0.033151343 0.18022928
0.0033500064 -0.032457717 0.18075091
0.0081970366 -0.031729162 0.18061164
0.01146597 -0.029689906 0.18250236
-0.00049489737 -0.0345091 0.17637575
0.0037654852 -0.034128834 0.17547703
0.0083580595 -0.033523157 0.17548504
0.012051598 -0.034040648 0.17526847
0.0053555537 -0.034539681 0.17057329
0.0086584706 -0.034478266 0.17029288
0.013446219 -0.03439394 0.17098787
0.009721973 -0.035588704 0.16570014
0.014639951 -0.035292499 0.16653296
0.019769937 -0.03573047 0.16603929
0.033575218 -0.027748026 0.16531217
0.010728339 -0.036365263 0.16271681
0.014632885 -0.035731617 0.16252303
0.019402891 -0.034724645 0.16149706
0.02433927 -0.033691533 0.16152784
0.029175999 -0.032787699 0.161401
0.033051744 -0.029965742 0.16154432
0.024832761 -0.033609703 0.15684411
0.028655406 -0.032776821 0.15631127
0.031582754 -0.030838411 0.15718207
-4.8846006e-05 -0.023821134 0.18406564
0.0045108995 -0.022621518 0.18423632
0.0083465967 -0.019695312 0.18398708
0.013551358 -0.017401751 0.18352011
0.01876004 -0.016429462 0.18424967
-0.00029327348 -0.027268482 0.18422315
0.0069346237 -0.024491426 0.18398267
0.009822404 -0.023378043 0.18388423
0.013201723 -0.021450222 0.1834023
-0.0016867705 -0.034225442 0.1731675
-0.0017042514 -0.033995524 0.16849872
0.002957602 -0.034190826 0.16869289
-0.00093238708 -0.034447994 0.16371399
0.0032229023 -0.034320999 0.16356903
0.0068613486 -0.034857176 0.16465396
0.0036510099 -0.034808695 0.15980211
0.0082392795 -0.035275251 0.15943527
0.012982737 -0.035121847 0.15918207
0.0088209938 -0.034577847 0.15564296
0.012976063 -0.034072816 0.15457863
0.018533446 -0.033767693 0.15533677
0.02265501 -0.033664864 0.15522581
0.029758638 -0.030692184 0.15392646
0.032347448 -0.027512591 0.15404528
0.014062721 -0.034948245 0.15079397
0.018575216 -0.033870716 0.1500026
0.024286389 -0.033700019 0.15028128
0.02857912 -0.03233707 0.14977214
0.030949209 -0.028756076 0.1496909
0.020821512 -0.03412671 0.14675176
0.024221163 -0.033984646 0.1443637
0.027978811 -0.032968499 0.14495036
-0.001870275 -0.019437831 0.18389571
0.0025308202 -0.0178209 0.18379122
0.0069729332 -0.015421373 0.18415123
0.011544587 -0.01390302 0.18387514
-0.0017047329 -0.035321068 0.15840468
0.0026473263 -0.034579925 0.15694234
-0.00040979311 -0.034946747 0.15391883
0.003356874 -0.034579631 0.1532408
0.0076295915 -0.034627024 0.15302655
0.011261693 -0.034742352 0.1525459
0.0045223413 -0.035137322 0.14948276
0.0081545562 -0.035323955 0.14874649
0.012377506 -0.035175964 0.14870775
0.01621745 -0.035033848 0.14820385
0.0090208128 -0.035703391 0.1445677
0.012979903 -0.035795212 0.14424059
0.018425174 -0.034691244 0.14425039
0.022514176 -0.034595642 0.1427443
0.02902016 -0.03154568 0.14275354
0.031812437 -0.028293874 0.14350295
0.013595164 -0.035653587 0.1405209
0.018488502 -0.035364363 0.13953251
0.023739312 -0.034768295 0.13823873
0.028310623 -0.032745317 0.13811642
0.031312376 -0.028869065 0.13875058
0.023975927 -0.035600089 0.13462484
0.027825784 -0.034046002 0.13414657
-0.00054058223 -0.010329576 0.1834504
0.004068268 -0.0090000713 0.18446544
0.0085042315 -0.0073895366 0.18436927
0.00053202128 -0.012974425 0.18334401
0.004665954 -0.012648856 0.183934
0.009911974 -0.010986267 0.18396086
0.0012905141 -0.034020588 0.15057465
-0.0033698473 -0.034508727 0.14566705
0.0021724217 -0.034455478 0.1464251
0.0059407176 -0.034908649 0.14588904
-0.0018916409 -0.034948621 0.14232141
0.002713399 -0.034686554 0.14153662
0.0068836967 -0.034958437 0.14173019
0.0075827059 -0.034448318 0.13713351
0.011968574 -0.034703612 0.13710344
0.015714178 -0.035037797 0.13680899
0.032248635 -0.027164169 0.13594884
0.01296452 -0.034220047 0.13311899
0.017322673 -0.034684695 0.13337946
0.023012195 -0.034859225 0.1317004
0.028145313 -0.03186715 0.13134485
0.031136192 -0.028072696 0.13210747
0.018364795 -0.034033939 0.12913671
0.022605937 -0.034420926 0.12776411
0.027830444 -0.032540601 0.1271213
0.029887011 -0.029159859 0.12659231
0.023202641 -0.033923309 0.12443671
0.027790859 -0.032848865 0.12285572
0.0026079607 -0.0053240177 0.18483782
0.00022490323 -0.034238819 0.13948089
-0.0023216633 -0.034144234 0.13536787
0.0018049404 -0.033960342 0.13513038
0.0054808739 -0.03381113 0.13434419
0.0025413483 -0.034053892 0.13066059
0.0066856719 -0.033920921 0.13046968
0.011026549 -0.033918921 0.13057342
0.014934503 -0.033823665 0.13012412
0.0074189571 -0.034668788 0.12610289
0.011209937 -0.033471089 0.12616676
0.015999949 -0.033232216 0.12590313
0.031474978 -0.026782054 0.12535742
0.016624132 -0.032548122 0.12198231
0.021114945 -0.033209302 0.12154624
0.026788324 -0.032625556 0.1208694
0.030975673 -0.02931698 0.12147021
0.022033935 -0.033109415 0.11719412
0.026732914 -0.032914765 0.11639547
0.030574616 -0.030131359 0.11625826
0.027233731 -0.033526924 0.11209744
0.029024059 -0.032726958 0.11148465
0.00022735649 -0.00029569364 0.18448216
-0.00065980107 -0.033084903 0.13185507
0.00062455703 -0.033883858 0.12819523
0.0045680748 -0.033781294 0.12774113
0.0014502285 -0.03389211 0.12352616
0.0057717194 -0.03466478 0.12399086
0.010952946 -0.033192832 0.12303513
0.0027670879 -0.034524318 0.12011191
0.0067164265 -0.035273783 0.11984086
0.011142265 -0.034037054 0.11978906
0.015508726 -0.032780915 0.11939961
0.018773751 -0.031920623 0.11819458
0.0073918565 -0.035204072 0.11518574
0.010917672 -0.034144726 0.11399233
0.015628092 -0.033021405 0.11433053
0.02028442 -0.033220224 0.11492145
0.031376828 -0.027500898 0.11425585
0.011972404 -0.034984346 0.11092556
0.016103515 -0.03408834 0.10989636
0.020802144 -0.033592608 0.11011773
0.025251035 -0.033610899 0.1104182
0.030203914 -0.029323302 0.1093998
0.031539969 -0.026101587 0.10943586
0.020735182 -0.033807892 0.1063478
0.025949046 -0.033563707 0.10572559
0.029476181 -0.031488143 0.10553265
0.027252283 -0.03345143 0.10180354
0.028689731 -0.032766022 0.1016705
-0.0018009413 0.005582103 0.18430224
-0.0020560855 -0.033081204 0.12190193
-0.00031315163 -0.033457763 0.11738044
0.0041790316 -0.03422631 0.11635607
0.0015698289 -0.033911794 0.11292982
0.0053621619 -0.034782104 0.1124692
0.0063318866 -0.034852166 0.10818338
0.01067568 -0.034844637 0.10800499
0.01497011 -0.034300782 0.10725987
0.0071897758 -0.034661397 0.10367322
0.010658731 -0.0347034 0.10355711
0.015707029 -0.034397732 0.10358143
0.020268321 -0.032989088 0.10271722
0.023653474 -0.032905996 0.10250193
0.030306324 -0.029479012 0.1023618
0.032527078 -0.027061351 0.10250926
0.015353155 -0.033977475 0.099261165
0.020042462 -0.032740254 0.099533916
0.025157051 -0.03203797 0.098316908
0.029541286 -0.030301057 0.097914815
0.032659985 -0.028271127 0.097881734
0.026256539 -0.031567838 0.094300866
0.028153298 -0.032062098 0.094135761
-0.0015405603 -0.033525273 0.11185151
-0.00078122597 -0.033864416 0.10711139
0.0046171555 -0.034463342 0.10586762
0.00042116269 -0.034112558 0.10193592
0.0051666377 -0.034717221 0.1017437
0.010495503 -0.034644622 0.10052007
0.0047639143 -0.034751453 0.097711205
0.010418754 -0.034263711 0.096838892
0.015034725 -0.033540282 0.095903993
0.019832255 -0.032529008 0.096367657
0.022859614 -0.031464968 0.096357226
0.011077016 -0.034145888 0.092375576
0.015156037 -0.034324992 0.091526985
0.019911997 -0.033195131 0.091902733
0.02465965 -0.032620966 0.092426777
0.029377853 -0.029727662 0.091489136
0.032074202 -0.027292874 0.091094434
0.015549493 -0.034909237 0.087259412
0.020367708 -0.034307327 0.087089181
0.025017785 -0.033481579 0.08741647
0.029099748 -0.03074388 0.086459935
0.03149879 -0.028024439 0.086092949
0.025695559 -0.033908445 0.082699835
0.028398953 -0.032265246 0.082722545
-0.0020299936 -0.033088654 0.095038593
0.002723705 -0.033328749 0.094711125
0.0047455761 -0.033286482 0.090473354
0.0084778313 -0.033349615 0.090759337
0.0060114753 -0.0337587 0.086834431
0.0095765349 -0.033512771 0.085795224
0.01487412 -0.034381378 0.084502399
0.018245067 -0.034158692 0.084192514
0.011257306 -0.034373462 0.081566334
0.014466248 -0.034278262 0.081054628
0.019423034 -0.033103608 0.080706179
0.023907423 -0.032820228 0.079970598
0.02910313 -0.030203063 0.080052018
0.031759556 -0.026919851 0.080338478
0.014714537 -0.034725156 0.077664375
0.019901277 -0.032978218 0.07649982
0.023968486 -0.032529127 0.075833142
0.028946688 -0.030717477 0.076106191
0.031435546 -0.028772756 0.075564623
0.025409641 -0.033323526 0.071706176
0.027514264 -0.032521699 0.071252942
-0.0029989332 -0.033055812 0.088098884
0.0012119478 -0.032947849 0.088666499
-0.0019076774 -0.033381339 0.083904386
0.00218176 -0.033369683 0.083576918
0.006404324 -0.033680428 0.083524883
0.0037553655 -0.033579674 0.078061581
0.0077718976 -0.033831891 0.079069495
0.0093590077 -0.033899516 0.074863851
0.013948142 -0.034447581 0.074077785
0.01822447 -0.032936007 0.074212193
0.014054485 -0.034823593 0.069647551
0.019510884 -0.034377981 0.070541918
0.023006532 -0.033325192 0.070162892
0.029077325 -0.029926401 0.069721341
0.03131479 -0.027198788 0.068677783
0.019407662 -0.034626219 0.065601468
0.024268646 -0.033705302 0.065173566
0.028219983 -0.03100694 0.064441085
0.025518954 -0.032842573 0.060756862
0.027102504 -0.032412257 0.060853899
0.00065914541 -0.032549351 0.077534616
-0.0032253191 -0.033075001 0.072509348
0.0010908395 -0.032621566 0.072349072
0.0063069081 -0.03296956 0.072167456
0.0017430056 -0.033594258 0.067938268
0.0064646327 -0.033290483 0.068102181
0.010540466 -0.034224648 0.067050815
0.0071134646 -0.033708174 0.064223528
0.012265852 -0.033344228 0.062887669
0.017803274 -0.033189826 0.061527193
0.029229708 -0.028831806 0.060757399
0.03135322 -0.026575584 0.062697291
0.012722156 -0.033223998 0.058994055
0.017206525 -0.032801468 0.05780828
0.023058675 -0.032137472 0.058323979
0.027642801 -0.029580865 0.05712533
0.030856393 -0.026404995 0.058320165
0.017578078 -0.033307556 0.05484879
0.0225695 -0.032097001 0.053388119
0.026755705 -0.029871864 0.053662419
0.00055947434 -0.033833075 0.065165579
0.001581734 -0.033395514 0.062529564
0.006027218 -0.033381086 0.060908675
0.0064781257 -0.033179022 0.057152212
0.011053995 -0.033713616 0.056851089
0.03061234 -0.025259642 0.05497098
0.011673394 -0.03314751 0.052608788
0.016659269 -0.033479691 0.052311301
0.020106841 -0.033367068 0.051433325
0.026871255 -0.02964136 0.051096082
0.029068388 -0.02694503 0.051001906
0.017364819 -0.033513438 0.047671795
0.021921279 -0.033284336 0.047964692
0.026003931 -0.031343959 0.047580004
0.028462352 -0.02798347 0.047473133
0.02313292 -0.03295536 0.042557836
0.025657294 -0.031852894 0.042745113
0.00048592128 -0.032262783 0.058802545
0.00052272994 -0.0328485 0.054754019
0.0053787306 -0.032831963 0.053789616
-0.0028012833 -0.033962127 0.050884843
0.0004160488 -0.033798162 0.04998529
0.0060681747 -0.033334315 0.049929678
0.010472448 -0.032539546 0.049001336
0.014197865 -0.032092482 0.048837245
0.0011834092 -0.034609918 0.046390891
0.0056657651 -0.034060478 0.045333862
0.011241441 -0.033337396 0.045405507
0.015281849 -0.032603733 0.044509768
0.019445369 -0.032395393 0.044240594
0.026998175 -0.029104272 0.043760777
0.029286791 -0.025098773 0.04426825
0.0071443478 -0.034545571 0.041816175
0.010915295 -0.033672035 0.040774822
0.015915547 -0.032837372 0.040457606
0.020662459 -0.032670606 0.040296674
0.025984671 -0.030668395 0.039808273
0.028885126 -0.02695081 0.040081084
0.012676912 -0.033996344 0.03730309
0.01628335 -0.03324347 0.036874771
0.021131393 -0.033028554 0.035744667
0.025642533 -0.031567656 0.035067022
0.02859178 -0.028211148 0.035615146
0.021054264 -0.033137403 0.032637358
0.025879122 -0.031991974 0.030974984
0.00022087526 -0.034614358 0.04329294
0.00062135234 -0.03407925 0.039504409
0.0050203949 -0.034080189 0.038752019
0.0089633502 -0.033566181 0.038039565
0.0063884645 -0.033520289 0.034459114
0.010446596 -0.033251926 0.033970356
0.015092254 -0.032641362 0.033205807
0.029916085 -0.025598817 0.032968819
0.011770066 -0.032556824 0.029541075
0.015153078 -0.031992689 0.030051291
0.020876549 -0.032140058 0.028817177
0.02603871 -0.031054068 0.028854311
0.029051999 -0.02784046 0.028862
0.021457084 -0.032269135 0.023966968
0.025410876 -0.031933606 0.02467519
0.027988037 -0.028844578 0.02372694
0.025332153 -0.031597249 0.019831896
-0.00022295676 -0.033285953 0.036319733
-0.0004157275 -0.033752572 0.033176959
0.0038261926 -0.0333055 0.03286171
0.0081444299 -0.032372754 0.030499756
-0.00015169661 -0.034394298 0.028692961
0.0048955702 -0.033508543 0.028347969
0.0094784135 -0.032442328 0.0275172
0.014611838 -0.030941147 0.026924729
0.017980322 -0.030535933 0.025423825
0.030085828 -0.02471922 0.026358128
0.0060398006 -0.033867937 0.023965776
0.0099566821 -0.032568797 0.02322644
0.014793312 -0.031780809 0.023368359
0.018945383 -0.031786434 0.022424996
0.026487192 -0.029844634 0.020889521
0.029298445 -0.026080456 0.022946954
0.01600646 -0.032642234 0.018398643
0.019998167 -0.032487445 0.018388808
0.024958787 -0.030804232 0.017787457
0.027630962 -0.026822954 0.018052697
0.016809117 -0.033269301 0.014398098
0.020877166 -0.032993473 0.01392597
0.024671186 -0.031781808 0.013635695
-0.00067562051 -0.033606291 0.024700522
-0.00068079773 -0.03312147 0.021296263
0.0037110243 -0.032996368 0.020443678
0.0085774865 -0.032392278 0.019922614
0.0049561816 -0.032124158 0.015775502
0.0090732314 -0.031769004 0.016321659
0.01323469 -0.032020286 0.016114414
0.028397515 -0.024432229 0.014174223
0.0097046802 -0.03144474 0.012991071
0.014890037 -0.032370288 0.01136297
0.01861872 -0.032157034 0.010405958
0.025792189 -0.02898162 0.010271192
0.028046453 -0.026113566 0.010282159
0.015250097 -0.032285277 0.0077015758
0.019880647 -0.031753417 0.0066766739
0.024363499 -0.030289527 0.0065795183
0.027804712 -0.026719436 0.0064621568
0.02433062 -0.030497145 0.0034707785
-0.0018439395 -0.032013208 0.014435291
0.0023745745 -0.031934861 0.014149487
9.6019357e-05 -0.032914348 0.009201169
0.0035018297 -0.032244768 0.0096516609
0.0083786119 -0.031404473 0.0097726583
0.012215422 -0.031315006 0.0092728138
0.0041749794 -0.032988124 0.0046325326
0.0087452019 -0.032243777 0.0046435595
0.013384986 -0.031686872 0.0048331022
0.017257389 -0.030865509 0.0038480163
0.028454527 -0.025164995 0.0037668347
0.0093519986 -0.031965468 0.00020521879
0.014295117 -0.031449497 -0.00020825863
0.019011213 -0.031086141 0.00017398596
0.023901653 -0.02967703 0.00019353628
0.027492728 -0.025844477 -0.00033819675
-0.0022394294 -0.032366637 0.0036813021
0.0017336309 -0.033142533 0.0033043623
0.0029164571 -0.03265788 -0.0014232397
