# .PCD v0.7 - Point Cloud Data file format
VERSION 0.7
FIELDS x y z
SIZE 4 4 4
TYPE F F F
COUNT 1 1 1
WIDTH 448
HEIGHT 1
VIEWPOINT 0 0 0 1 0 0 0
POINTS 448
DATA ascii
0.027579766 -0.025959495 0.18118572
0.021317283 -0.025743091 0.18222296
0.0243997 -0.023511441 0.18365932
0.027305285 -0.019960141 0.18307453
0.029589904 -0.016992236 0.18200326
0.022775665 -0.026759405 0.1792984
0.026505021 -0.025908126 0.18063414
0.0294143 -0.022291142 0.180011
0.031233629 -0.018583653 0.17880681
0.023741093 -0.027970925 0.17504179
0.027530249 -0.026858047 0.17576075
0.03036776 -0.023484206 0.17575324
0.031868801 -0.019698568 0.17485285
0.027669525 -0.027401043 0.17017671
0.030513341 -0.024102258 0.17098153
0.031967666 -0.021603823 0.17094922
0.016926181 -0.02148848 0.18436867
0.019983681 -0.018036773 0.18391478
0.02386646 -0.015880018 0.18411642
0.026829818 -0.0129702 0.18436688
0.028453879 -0.010690235 0.18387824
0.013529721 -0.028642535 0.17948908
0.015794532 -0.026667451 0.18182793
0.018551333 -0.024559474 0.18303815
0.021198483 -0.020225463 0.18389755
0.024505118 -0.017952388 0.18421355
0.028024966 -0.015025003 0.18337092
0.0305136 -0.01202447 0.18109357
0.016951531 -0.028218668 0.17751244
0.020392835 -0.027197942 0.17838562
0.031741157 -0.013751138 0.17655611
0.018464543 -0.028330669 0.17355326
0.021086251 -0.028152948 0.17383605
0.032088198 -0.018832805 0.17213979
0.031661708 -0.015056918 0.17204237
0.02258287 -0.028436039 0.16954893
0.025730258 -0.028493734 0.16816941
0.030525157 -0.023586554 0.16728327
0.031981453 -0.01950362 0.16883799
0.022828201 -0.028489107 0.16579321
0.027167348 -0.026998917 0.16382909
0.029474542 -0.023792621 0.1633721
0.031112319 -0.020035626 0.16506267
0.0088708038 -0.025002256 0.18369848
0.01173474 -0.022821676 0.18445659
0.014101619 -0.020194547 0.18443158
0.017978717 -0.017576363 0.18361709
0.020333694 -0.013107302 0.18353772
0.023651695 -0.010783629 0.18454888
0.010589718 -0.027513247 0.18070945
0.01277445 -0.025869176 0.18210787
0.011767794 -0.028752211 0.17574722
0.01472022 -0.028268192 0.17441028
0.031738941 -0.011731103 0.17337456
0.012629805 -0.02886661 0.1712923
0.016057374 -0.02845584 0.17126736
0.031673837 -0.01257804 0.16981688
0.016712541 -0.028610615 0.16668466
0.019939018 -0.02831669 0.1669836
0.030978974 -0.017034978 0.16508609
0.031383358 -0.013845797 0.16550699
0.01791345 -0.0290103 0.16300425
0.020964615 -0.028010361 0.16221437
0.024761522 -0.026982142 0.16039422
0.02935688 -0.021919021 0.16038236
0.030146342 -0.017984372 0.16102204
0.031227812 -0.014557178 0.16194022
0.021693114 -0.027928442 0.15753618
0.025967393 -0.026501246 0.1570456
0.029162867 -0.023162061 0.15671822
0.029959066 -0.019545658 0.15653107
0.026294665 -0.02733968 0.1523343
0.029265152 -0.024142539 0.15180582
0.026930153 -0.027897283 0.14912176
0.029056598 -0.025349829 0.14870766
0.007420464 -0.018544139 0.18371707
0.010368726 -0.015838064 0.1836201
0.013116574 -0.012941089 0.1833255
0.01654662 -0.0097824913 0.18320704
0.020500615 -0.0067429142 0.1841253
0.01320823 -0.016815836 0.1836676
0.014956133 -0.014815701 0.18339404
0.017775876 -0.012008313 0.18318209
0.0095021892 -0.028774614 0.17306015
0.010602047 -0.028900798 0.16847935
0.012259027 -0.029219324 0.16457972
0.015008373 -0.02916923 0.16408709
0.031564072 -0.011998674 0.16246659
0.012734163 -0.029504925 0.15990436
0.015583528 -0.028743492 0.15982473
0.03095028 -0.013165912 0.15861863
0.013240276 -0.029764755 0.15614089
0.016589597 -0.028824668 0.15571007
0.019987211 -0.028374705 0.1556896
0.03030714 -0.0172517 0.15520346
0.030490153 -0.01378362 0.15433598
0.01773797 -0.028873503 0.15141523
0.021010261 -0.028395332 0.15127939
0.029748622 -0.022230074 0.14905638
0.029894564 -0.018724784 0.15029263
0.030173078 -0.014907386 0.15049571
0.021898648 -0.02828134 0.14670238
0.02535047 -0.027681224 0.14575946
0.029137615 -0.024312053 0.14563853
0.030007102 -0.019989438 0.14523295
0.02576144 -0.026775908 0.14159516
0.028821286 -0.024288725 0.14063257
0.030488361 -0.021478053 0.14057857
0.0076345922 -0.01308605 0.18340257
0.010674093 -0.010435192 0.183559
0.01407991 -0.0076320264 0.1834904
0.0093753794 -0.029299244 0.15762141
0.011481041 -0.029759457 0.15337479
0.014211481 -0.029009076 0.15340129
0.030449629 -0.011927609 0.15136039
0.0128006 -0.029736601 0.14936662
0.015412213 -0.029109957 0.14914694
0.030020561 -0.016800083 0.14781114
0.029881025 -0.013114398 0.14740974
0.016756706 -0.028747007 0.14474401
0.019953582 -0.028321203 0.14476413
0.029972292 -0.017717324 0.14346793
0.030105066 -0.014662906 0.1432935
0.020049255 -0.027662471 0.14009067
0.024103204 -0.027126243 0.13904002
0.027190238 -0.025842249 0.13865742
0.03051978 -0.018955249 0.13835031
0.030381441 -0.015593786 0.13976628
0.021095753 -0.027399112 0.13633275
0.024508424 -0.02650376 0.13446787
0.028433062 -0.024688728 0.13501641
0.030815437 -0.020845283 0.13376439
0.027993456 -0.024790704 0.1301201
0.029516686 -0.022915464 0.12959677
0.0030195257 -0.0084133008 0.18350771
0.006588846 -0.0062419069 0.18397963
0.0095197121 -0.003461252 0.18383178
0.0048644729 -0.010302901 0.18308321
0.0080396757 -0.0077419109 0.18362331
0.010963919 -0.0049679503 0.18347654
0.0097846976 -0.02913009 0.146501
0.029798578 -0.01085119 0.14507914
0.010640671 -0.028653363 0.14225906
0.014196943 -0.028874703 0.14262554
0.030344838 -0.012372846 0.14119366
0.015182101 -0.028451592 0.13786668
0.018431721 -0.027817195 0.13768268
0.030433275 -0.01359347 0.1364508
0.031044647 -0.009580411 0.136471
0.015788103 -0.028579811 0.13356596
0.019126082 -0.027725993 0.13333613
0.022816438 -0.026833802 0.13185629
0.030981969 -0.018576946 0.13055471
0.030644352 -0.014805244 0.13211828
0.020276008 -0.028195227 0.12853545
0.023763284 -0.026729558 0.12786382
0.027215116 -0.0249984 0.12725127
0.030320065 -0.020365397 0.12730384
0.030822812 -0.016599474 0.12733221
0.021521827 -0.028508672 0.12391555
0.024281083 -0.027224148 0.12326801
0.027279288 -0.02479919 0.12285799
0.02920616 -0.021630812 0.12257111
0.02541719 -0.026935048 0.11932909
0.027558569 -0.025278836 0.11899722
0.0042272368 -0.0038110577 0.1843504
0.0099345418 -0.028507214 0.13521171
0.012409027 -0.028299771 0.13507235
0.014082187 -0.028678197 0.13105318
0.030413814 -0.012164064 0.12914109
0.030394014 -0.0096798344 0.12903529
0.015680028 -0.028688537 0.12704533
0.017913135 -0.02854914 0.12674341
0.030541968 -0.013446912 0.12521768
0.016219292 -0.028970417 0.1231944
0.01927661 -0.028786765 0.12257048
0.023436289 -0.02774005 0.12065458
0.029600134 -0.020211445 0.11997336
0.030436069 -0.016169485 0.12137246
0.019957639 -0.028647266 0.11762893
0.024039 -0.027826838 0.11695254
0.027513543 -0.025359845 0.11642158
0.029252129 -0.021561077 0.1163767
0.029991608 -0.018172778 0.11632705
0.021058312 -0.028576391 0.1140551
0.024485879 -0.02764599 0.1121701
0.027388906 -0.025462156 0.1117714
0.02887319 -0.022629872 0.11127931
0.025488459 -0.027583841 0.10816813
0.02748183 -0.025739381 0.1081177
0.01159654 -0.027926607 0.12770924
0.012067934 -0.027866472 0.12369156
0.013887361 -0.028031509 0.11899602
0.02994395 -0.014085102 0.11854851
0.030248042 -0.011278503 0.1175316
0.014992556 -0.028194835 0.11525166
0.017838502 -0.029109957 0.11548829
0.030002095 -0.015305961 0.11451077
0.030422926 -0.012138625 0.11403203
0.019350432 -0.028619882 0.11116958
0.023091497 -0.027956596 0.10995603
0.029346114 -0.020196473 0.1109544
0.029898688 -0.016947534 0.10994625
0.020008074 -0.028721025 0.10614461
0.023864308 -0.028231146 0.10653794
0.027301524 -0.025704809 0.10506451
0.02906397 -0.021360736 0.10594046
0.029941455 -0.018126763 0.10508049
0.023497054 -0.027785571 0.10258579
0.026300451 -0.025372548 0.10083634
0.028681187 -0.021889614 0.10190248
-0.003783572 0.0039486648 0.18381882
0.0087668607 -0.027323171 0.12290117
0.0097631738 -0.027653474 0.11783338
0.011954105 -0.02804995 0.11304116
0.030365495 -0.010214118 0.11082941
0.013747914 -0.027849799 0.10798186
0.016027423 -0.027723463 0.10772681
0.029843397 -0.014467366 0.10706532
0.030091725 -0.01104762 0.10654819
0.016996048 -0.028460488 0.10335946
0.02982563 -0.015442615 0.10238856
0.019650385 -0.028406996 0.099936306
0.022866432 -0.027687244 0.099664688
0.026830161 -0.024532011 0.099117935
0.028418589 -0.020889249 0.098437428
0.029545061 -0.017700858 0.098577857
0.019620501 -0.028141152 0.095297277
0.022986654 -0.027415946 0.095063269
0.026218509 -0.025078276 0.095171452
0.028002899 -0.021307394 0.093972147
0.029111646 -0.018230803 0.094324231
0.023922011 -0.026862871 0.091035783
0.02613808 -0.025238542 0.090274692
0.027630992 -0.022816908 0.090539753
-0.003809283 0.006325685 0.18367097
0.0094640646 -0.028081985 0.11110485
0.0099824807 -0.027938988 0.10698658
0.030100755 -0.0099019967 0.10329068
0.012778752 -0.028095648 0.10259962
0.029863771 -0.011028691 0.10018557
0.013119396 -0.028309967 0.097562909
0.016493935 -0.028020144 0.096954107
0.029537402 -0.015114897 0.095988214
0.030146666 -0.011589408 0.095849335
0.017675178 -0.027984815 0.092062473
0.021302734 -0.028053734 0.092262566
0.028530303 -0.01976103 0.091025114
0.029632401 -0.016662903 0.091357887
0.030015443 -0.013300486 0.091597974
0.01892701 -0.027798044 0.088690758
0.022548337 -0.027799565 0.088603735
0.026347559 -0.02558497 0.087646782
0.0283623 -0.021471385 0.087835193
0.029529674 -0.017666178 0.086898804
0.023320105 -0.027638253 0.083210945
0.026256328 -0.025688192 0.083665311
0.028172441 -0.02239915 0.083265305
0.0252742 -0.026242377 0.078762352
0.0092355656 -0.027842727 0.095004678
0.029495697 -0.0096733421 0.092889905
0.011223607 -0.027822174 0.090154588
0.013384063 -0.027498644 0.090709448
0.029764393 -0.010533581 0.089337289
0.015127063 -0.027552765 0.086017609
0.029521633 -0.016105413 0.084180951
0.029820763 -0.01161496 0.084614098
0.017213659 -0.027447237 0.081410587
0.019747531 -0.027039157 0.081654668
0.027873309 -0.020570541 0.080172837
0.029061925 -0.016763452 0.080998719
0.029637372 -0.013365129 0.080396295
0.017951274 -0.02740295 0.077789247
0.021561272 -0.026886772 0.076746225
0.026083503 -0.025201362 0.076529682
0.027355781 -0.021210322 0.076261997
0.028198788 -0.017395528 0.076533675
0.023134014 -0.027057974 0.071605504
0.025714044 -0.025695089 0.072258532
0.027807461 -0.022206856 0.072160304
0.02631633 -0.024492685 0.068753421
0.027312173 -0.023525307 0.068701386
0.0096278731 -0.028329002 0.083768487
0.012809975 -0.02785222 0.083076358
0.03017503 -0.0098419599 0.081376553
0.010800338 -0.028556917 0.078807712
0.013842557 -0.028089389 0.079815388
0.02886622 -0.01468106 0.077792525
0.029931478 -0.011175499 0.077797592
0.014976344 -0.027857233 0.074938774
0.018230867 -0.027207386 0.074449241
0.028578302 -0.015898572 0.073718965
0.02952468 -0.012730521 0.07321775
0.015870675 -0.027676534 0.070612192
0.019359885 -0.026994808 0.070504546
0.028187267 -0.020356148 0.070103168
0.028572842 -0.017325073 0.069560826
0.021816906 -0.025947928 0.06696707
0.024319546 -0.025580252 0.06581676
0.027626643 -0.021748314 0.065366387
0.027874228 -0.018223681 0.065374255
0.02478384 -0.02477493 0.061347187
0.026665978 -0.02255841 0.060806632
0.0088840146 -0.028471364 0.073013902
0.012990734 -0.027682515 0.071914792
0.029185534 -0.0098916022 0.070670605
0.010259468 -0.028122898 0.068499148
0.013125037 -0.027694669 0.068256259
0.017054722 -0.027090225 0.066850305
0.028308045 -0.014585212 0.066196382
0.028503105 -0.01110183 0.066582203
0.013817705 -0.027437169 0.064572811
0.018025566 -0.02604359 0.06287992
0.027781375 -0.016625773 0.062566996
0.028332923 -0.01267023 0.063864768
0.018192647 -0.026302865 0.058374107
0.022957128 -0.024988189 0.058214366
0.026888289 -0.02091267 0.057732284
0.027701475 -0.017152548 0.057942152
0.022652097 -0.025473054 0.053786933
0.02600278 -0.023142561 0.053493619
0.027261136 -0.019467315 0.053503156
0.023307741 -0.025945403 0.049768567
0.026246199 -0.023354327 0.049044609
0.027581792 -0.020622473 0.050378323
0.025931783 -0.025184155 0.046337128
0.028577972 -0.0088082599 0.064436018
0.0090879546 -0.02800544 0.061863422
0.012942564 -0.027635168 0.061385632
0.027705245 -0.011485328 0.059907734
0.013659496 -0.02762334 0.057157099
0.01660092 -0.02714845 0.057344317
0.027272768 -0.012575512 0.055570364
0.01420399 -0.027674058 0.052393734
0.018292127 -0.027084058 0.053187668
0.027658612 -0.017374601 0.05185914
0.019173939 -0.027672142 0.048224092
0.022419212 -0.026868904 0.048052788
0.027006395 -0.022212066 0.046981692
0.027594734 -0.018734239 0.047303677
0.020273875 -0.027555473 0.044373572
0.023394672 -0.026488362 0.043799639
0.026365638 -0.023507785 0.043058515
0.026692443 -0.020024229 0.043115973
0.024054214 -0.025625359 0.039150119
0.025837265 -0.024405438 0.039433122
0.011094972 -0.027782675 0.054320574
0.027292289 -0.010999833 0.052747071
0.0086862659 -0.028404307 0.050524414
0.012744508 -0.028083939 0.049949527
0.02684731 -0.011720885 0.048802376
0.0095471255 -0.028686326 0.046661973
0.013196064 -0.028380549 0.045633912
0.016620129 -0.027822636 0.045342684
0.02701639 -0.017275084 0.043445945
0.027293293 -0.012714228 0.04455781
0.014197631 -0.028629152 0.041204095
0.018333009 -0.02776931 0.041167915
0.021424575 -0.026913213 0.040464282
0.026639078 -0.018061344 0.039916635
0.026926765 -0.0141917 0.041175783
0.018264538 -0.027939873 0.036680818
0.022441469 -0.026395142 0.03627944
0.025730127 -0.023159521 0.035746396
0.026831567 -0.018829726 0.036453366
0.019272838 -0.028116066 0.033596158
0.022580801 -0.026125399 0.031361818
0.025121942 -0.023451459 0.031084716
0.026682096 -0.020525528 0.031879663
0.024559511 -0.024646165 0.028192163
0.027649522 -0.010768318 0.042347431
0.0091763251 -0.028757356 0.039096653
0.012127755 -0.029155081 0.039711356
0.027270894 -0.012369878 0.037715614
0.027606059 -0.0088653183 0.036734104
0.013259517 -0.028812094 0.034645557
0.016437702 -0.028259177 0.033948243
0.026863957 -0.017211268 0.033462822
0.027245667 -0.013486542 0.033123612
0.013843554 -0.028869215 0.030556202
0.017939514 -0.027960857 0.030121148
0.020785339 -0.026828628 0.029409885
0.0260696 -0.022054899 0.02941364
0.026753947 -0.018647168 0.029487967
0.018093301 -0.027325517 0.025846541
0.021968773 -0.025942875 0.025548816
0.025081467 -0.023035303 0.024948835
0.026458669 -0.019816332 0.02418071
0.022654777 -0.025090763 0.020831227
0.024726858 -0.023122868 0.020763814
0.011147766 -0.029169064 0.031126261
0.027380774 -0.012010729 0.030367792
0.0097176693 -0.029913493 0.028590381
0.012239465 -0.028925169 0.027933598
0.015681002 -0.02788239 0.026783943
0.025838844 -0.015737839 0.026742101
0.027228557 -0.01273222 0.026984096
0.028026547 -0.0096985428 0.02697134
0.012909323 -0.028630443 0.024057388
0.016621813 -0.02749199 0.023377895
0.019630169 -0.026045719 0.021645784
0.026624236 -0.017244708 0.023029149
0.027590979 -0.013860568 0.022511482
0.013777824 -0.028401515 0.019453168
0.017401123 -0.027725002 0.019510865
0.020955347 -0.025899399 0.018994868
0.024612313 -0.023110757 0.018529415
0.027025938 -0.019116551 0.018712282
0.027875703 -0.015363276 0.017528772
0.018488189 -0.027259732 0.015319586
0.021053236 -0.02585021 0.013847828
0.024940733 -0.0236279 0.014833212
0.027163973 -0.020031372 0.013912201
0.021967757 -0.025942009 0.010215402
0.024976825 -0.023911158 0.0096636415
0.02652237 -0.021361386 0.0098782778
0.01069486 -0.028647369 0.020436168
0.027993582 -0.01207716 0.019041896
0.027404094 -0.0085921567 0.020380437
0.011715166 -0.028144747 0.01614058
0.01480227 -0.027620554 0.015243351
0.027584884 -0.01251606 0.014774203
0.027378149 -0.0094146058 0.016652346
0.012685332 -0.027726799 0.011712074
0.016341632 -0.027319806 0.011731148
0.027169339 -0.017872903 0.0098484755
0.027746912 -0.01549951 0.011055708
0.017202733 -0.027070677 0.007057488
0.021062804 -0.0261933 0.0072444677
0.024186144 -0.023293657 0.0053836703
0.026539525 -0.019015634 0.006801486
0.027162351 -0.015928011 0.0061922669
0.020736113 -0.0255774 0.0025451183
0.023912365 -0.023153214 0.0023543239
0.025515713 -0.019556802 0.0034501553
0.010227608 -0.027743859 0.010049284
0.02676343 -0.011182098 0.0088726282
0.026345056 -0.0086216079 0.0088458061
0.012596773 -0.027993025 0.0053059459
0.014685089 -0.027499812 0.0058267117
0.026973292 -0.013357342 0.0041090846
0.015847873 -0.02715376 0.00061696768
0.01925887 -0.026068913 0.00042903423
0.023316534 -0.022650747 -9.1135502e-05
0.025498504 -0.018358881 -0.00029760599
0.026514549 -0.015021171 -0.00097239017
0.0084864441 -0.027895125 0.0067868233
0.0088023925 -0.027379114 0.0033218265
