# .PCD v0.7 - Point Cloud Data file format
VERSION 0.7
FIELDS x y z
SIZE 4 4 4
TYPE F F F
COUNT 1 1 1
WIDTH 1167
HEIGHT 1
VIEWPOINT 0 0 0 1 0 0 0
POINTS 1167
DATA ascii
0.033676662 0.053672098 0.82416677
0.037527114 0.053682938 0.82433355
0.014470447 0.059066653 0.82456684
0.017524596 0.058228891 0.82357049
0.022140071 0.058247507 0.82382977
0.027738424 0.057815164 0.82390964
0.032832924 0.057373296 0.82228881
0.037448414 0.0573944 0.82258874
0.040585592 0.056726847 0.82400006
0.017547673 0.061373215 0.82464463
0.022166526 0.06138644 0.82482243
0.029224005 0.062575221 0.82430679
0.032881167 0.062821008 0.82350367
0.036989864 0.062329795 0.82376665
0.039317369 0.049400248 0.82966691
0.040867995 0.049404215 0.82973361
0.0099155363 0.054017264 0.82946694
0.01299402 0.053185266 0.82853341
0.017805433 0.052552477 0.82768327
0.022053622 0.052560262 0.82780826
0.027644448 0.053127792 0.82764161
0.032825381 0.05191597 0.82761914
0.037626114 0.05184732 0.82651424
0.0422973 0.052342687 0.82739997
0.045493308 0.052471172 0.82942247
0.0099041155 0.057036381 0.82851118
0.01278973 0.057064097 0.82642961
0.017560972 0.055280373 0.82528901
0.022176802 0.055274416 0.82520014
0.026026161 0.055278882 0.82526684
0.042266469 0.057259995 0.82678521
0.045506719 0.056345031 0.82966685
0.0099055767 0.060899824 0.82863355
0.01297476 0.062598675 0.82731116
0.017579891 0.06379167 0.82615548
0.022200361 0.06378632 0.82608885
0.02635752 0.06317874 0.825324
0.0386093 0.064000584 0.82555574
0.042187363 0.062354274 0.82861495
0.014033657 0.066841312 0.82904482
0.017625121 0.067809753 0.82830381
0.022239305 0.06774772 0.82754809
0.027626054 0.067709558 0.82708865
0.0330045 0.067668304 0.82657778
0.037670068 0.067740828 0.82745922
0.040851578 0.066355638 0.82940018
0.018682973 0.071509987 0.82953364
0.022473026 0.072302908 0.82904208
0.027217528 0.072316132 0.82874697
0.032316964 0.072467446 0.8287136
0.036969669 0.070955649 0.82906699
0.023843972 0.075637057 0.82966679
0.026145037 0.075579315 0.82903367
0.030016443 0.075594515 0.82920021
0.013867477 0.04969199 0.83456647
0.017751684 0.049671482 0.83422214
0.02241276 0.04965825 0.83400005
0.027452953 0.049241163 0.83351672
0.032490976 0.048834473 0.83319998
0.037575901 0.048622862 0.83222663
0.043008588 0.04802667 0.83264762
0.04729348 0.048875391 0.83388895
0.050459012 0.049705885 0.83479983
0.0079635382 0.053176168 0.8335523
0.013031687 0.051021378 0.83093333
0.016115043 0.050968155 0.83006674
0.023878459 0.051017273 0.83086669
0.026965559 0.050994068 0.83048898
0.030050226 0.050972231 0.8301335
0.047952473 0.052623615 0.8318221
0.050428119 0.052780133 0.83428884
0.0068522054 0.057376817 0.8334443
0.04766367 0.057538457 0.83257139
0.050471101 0.056707487 0.83499974
0.0081464723 0.062018078 0.83332223
0.011477248 0.064901367 0.83053321
0.044019435 0.063376777 0.83079994
0.046837118 0.061822932 0.83365715
0.0095766839 0.066311292 0.83368319
0.012521674 0.068576366 0.83137774
0.042890001 0.067960277 0.83224446
0.045791939 0.065239988 0.83486646
0.013834522 0.07280755 0.83260006
0.017163893 0.073172726 0.83088893
0.020759309 0.074129418 0.8300668
0.034722712 0.074194916 0.83079994
0.038102854 0.0732067 0.83209521
0.041848704 0.072141148 0.83384991
0.014121003 0.076570064 0.83422214
0.017933153 0.077357888 0.83364165
0.022182055 0.077650979 0.83262491
0.027238296 0.077848218 0.83207619
0.032478292 0.077475943 0.83282673
0.036943536 0.076576144 0.83428878
0.022439962 0.080783039 0.83499974
0.04760607 0.043734018 0.83940017
0.0072897943 0.049560644 0.83891678
0.012357913 0.048319653 0.83770829
0.017832998 0.047715079 0.83803999
0.022898661 0.047919359 0.83751667
0.027187169 0.046997506 0.8373
0.032149639 0.046247084 0.83780003
0.03786898 0.045976039 0.83759993
0.042387851 0.045544397 0.83681655
0.047435161 0.045910079 0.83638883
0.052179776 0.047523011 0.83741999
0.056782234 0.048594441 0.83908343
0.060168225 0.048449114 0.83993345
-0.00092452666 0.054685827 0.83973336
0.002358339 0.052699946 0.83798665
0.0064851581 0.051721908 0.83601654
0.052885905 0.052902624 0.83623314
0.05652076 0.052850761 0.83893335
0.060158674 0.050003603 0.83980012
0.002396235 0.057476543 0.83771664
0.052412067 0.057618316 0.83695555
0.055411533 0.056203268 0.83906686
0.0033771091 0.062017515 0.8385334
0.0057106111 0.06265986 0.83669996
0.048948973 0.062966049 0.83559978
0.0512456 0.062016316 0.8374666
0.0068915361 0.067056745 0.83816195
0.047652442 0.067139655 0.8367582
0.050737046 0.066375397 0.83940017
0.0084616141 0.071780264 0.83868903
0.010667345 0.072701417 0.83647603
0.043366969 0.073738106 0.8361333
0.047225185 0.072204039 0.83818007
0.011746704 0.0782701 0.83765912
0.016212119 0.079236135 0.83506638
0.034903839 0.07924246 0.83513314
0.038598005 0.078327693 0.83642215
0.042819582 0.077921614 0.83762223
0.04654409 0.077014513 0.8390668
0.013656116 0.08206936 0.83755559
0.017800346 0.082489528 0.83654064
0.022481665 0.083268009 0.83655548
0.027155792 0.082470343 0.83634806
0.032624055 0.082492083 0.83657217
0.038127284 0.082582869 0.83749634
0.04184705 0.081692569 0.8390224
0.014733095 0.085906692 0.83953339
0.018165771 0.086475544 0.83898669
0.022544079 0.086620532 0.83887768
0.027227253 0.08658725 0.83855563
0.032497682 0.086762361 0.83835846
0.037023384 0.087223731 0.83905005
0.057370227 0.039303999 0.84486657
0.062042475 0.039269287 0.8441208
0.010100429 0.044022311 0.84493321
0.024284655 0.044025782 0.84499991
0.02738017 0.04393664 0.84328896
0.032079186 0.043908849 0.84275573
0.037556894 0.043882512 0.84224993
0.04306652 0.043109328 0.8424778
0.047560357 0.042329252 0.84256208
0.052343596 0.042558532 0.84320837
0.057249859 0.042356696 0.84309626
0.061944325 0.042341933 0.84278893
0.065766677 0.042688265 0.84342515
-0.00092981145 0.04871444 0.84453338
0.002216032 0.047857672 0.84328908
0.0067294105 0.046813354 0.84215832
0.011901914 0.045969337 0.84223348
0.017931988 0.045864567 0.84270012
0.022308584 0.046049539 0.84178668
0.026519282 0.04537639 0.84089971
0.033556581 0.045349415 0.84039986
0.036714576 0.045378201 0.84093314
0.05400921 0.045414165 0.84159976
0.057529278 0.045796368 0.84143311
0.062844738 0.046828683 0.84144819
0.067024723 0.04741811 0.84243083
-0.002502278 0.052554317 0.84313345
0.0014278416 0.050132617 0.84196663
0.058736607 0.054042198 0.84186661
0.062185906 0.052004039 0.84180659
0.066660173 0.052141618 0.84278703
-0.0023062774 0.057850007 0.8431583
0.00064189202 0.059400328 0.84013337
0.053906552 0.059390899 0.84000003
0.057380076 0.058168761 0.84209168
0.062102232 0.055548385 0.84493321
0.065768257 0.05606309 0.84479505
-0.00155976 0.062510952 0.84414673
0.0012699753 0.062929004 0.84133327
0.053619716 0.063029483 0.84163332
0.056754764 0.062255044 0.8435111
-0.00093032554 0.066031843 0.84499991
0.0022153151 0.06745705 0.84315562
0.0053479816 0.068848133 0.84099972
0.052468769 0.067365475 0.84203994
0.0034013253 0.071885876 0.84451663
0.0061388724 0.072061501 0.84197778
0.049245767 0.073512241 0.84066653
0.05169588 0.072085172 0.84225559
0.007277613 0.076994076 0.84263712
0.048236173 0.078001939 0.84128886
0.051594041 0.076553836 0.84316003
0.0079915868 0.081664711 0.84411138
0.011101615 0.083475232 0.84125549
0.043526083 0.083470792 0.84121108
0.047859773 0.082425646 0.84385836
0.012697216 0.087839007 0.84308898
0.017496355 0.088759415 0.84066653
0.022583006 0.089114934 0.84033316
0.027285077 0.089114934 0.84033316
0.031208087 0.089129075 0.8404665
0.039312866 0.088622361 0.84059983
0.042664845 0.087645911 0.84338105
0.014423829 0.09229026 0.84434998
0.017937152 0.092530973 0.84296316
0.022629343 0.092431933 0.84205937
0.027331373 0.092399575 0.84176296
0.032040656 0.092397757 0.841748
0.037553806 0.092441641 0.84215003
0.041963842 0.092249699 0.84398341
0.018768873 0.09589722 0.84499991
0.022694046 0.095836699 0.84446651
0.027709013 0.096378654 0.84370691
0.032108322 0.097300738 0.84353346
0.037146006 0.097151414 0.84360027
0.040566068 0.097461499 0.84493321
0.033199146 0.10108914 0.84459996
0.03687482 0.10134953 0.84458882
0.040043999 0.10139879 0.84499991
0.052046716 0.034717426 0.84800005
0.044176158 0.039482333 0.84870023
0.048306756 0.038311392 0.84777623
0.052741904 0.037801877 0.84644645
0.05746638 0.037597969 0.84628218
0.061075568 0.037225872 0.84526664
0.0026252863 0.043799996 0.84825015
0.006955815 0.043280929 0.84581095
0.012816478 0.043172959 0.84589511
0.018020328 0.0433328 0.84683341
0.022584645 0.042390775 0.84771681
0.027520506 0.041795533 0.84761125
0.032252818 0.041780841 0.8473224
0.036969159 0.041753892 0.84676671
0.042011961 0.041272849 0.84657323
0.049499623 0.040882058 0.84499997
0.054257385 0.040904641 0.84546649
-0.0062131528 0.048446659 0.84902257
-0.0027130763 0.047123186 0.84772509
0.0022225184 0.04563123 0.84562206
-0.0064667561 0.05203801 0.84750015
-0.004084128 0.050337054 0.84539986
-0.0056681773 0.057490259 0.84650004
-0.0040838062 0.059767962 0.84533322
0.062386837 0.058447018 0.84611672
0.066622593 0.058892172 0.84630299
-0.005682684 0.061582342 0.84866703
-0.0036982582 0.063442305 0.84715015
0.058510248 0.064023636 0.84615558
0.06209584 0.062655307 0.84791452
0.066770956 0.062180899 0.84820002
-0.0025150811 0.067797907 0.84742868
0.054233856 0.068397775 0.84509981
0.057328753 0.06757839 0.84714174
-0.0014629083 0.071612544 0.84904474
0.0012776805 0.072752453 0.84637338
0.054311562 0.07243222 0.84631103
0.056796715 0.072581254 0.84805578
0.002753878 0.076737016 0.84748906
0.0053806249 0.078712195 0.84613317
0.053989373 0.077650912 0.84743351
0.056614961 0.076372653 0.84928912
0.0038163562 0.080577135 0.84920037
0.0066466951 0.082552165 0.84678668
0.047942583 0.084927693 0.84533322
0.05200097 0.081966721 0.84722233
0.0080301249 0.08679539 0.84822243
0.010113577 0.088933334 0.84603333
0.04480359 0.08888714 0.84559995
0.04805566 0.087490961 0.84730852
0.051309273 0.086072296 0.848867
0.0085683363 0.09006229 0.84926695
0.011706685 0.093004145 0.84728575
0.044222418 0.093236662 0.84653342
0.047205068 0.092254013 0.84908026
0.013497978 0.097628102 0.8480835
0.017783949 0.098076805 0.84636194
0.022735806 0.098374493 0.84602231
0.027056135 0.098698765 0.84543329
0.042617127 0.097901061 0.84601337
0.04501554 0.097999401 0.84960014
0.014906245 0.10113671 0.84940034
0.018272059 0.10210901 0.84809542
0.022791766 0.10256008 0.84809655
0.027503626 0.10243785 0.84708154
0.031673186 0.10282159 0.84592223
0.036919709 0.10383299 0.84562212
0.042430855 0.10228445 0.84768587
0.045015536 0.102741 0.84960026
0.022830965 0.10589629 0.84955579
0.027578613 0.10587413 0.84937805
0.032615572 0.10640258 0.84854686
0.037049782 0.10716172 0.84861696
0.040772349 0.10638136 0.8492226
-0.005718396 0.034963071 0.85400003
-0.0041256757 0.034963071 0.85400003
0.047064666 0.034403976 0.85328645
-0.010459686 0.039589319 0.85100001
-0.0071040574 0.038302813 0.85321027
-0.004118429 0.036487471 0.85250002
0.008624834 0.039769195 0.85486686
0.013391108 0.03971906 0.85378903
0.018567154 0.039324693 0.85385007
0.022943579 0.038921487 0.85372227
0.027708702 0.038906302 0.85339451
0.032459121 0.038877424 0.85276103
0.037430611 0.038507693 0.85211897
0.041668095 0.038703017 0.85242665
0.046364792 0.036886126 0.85256672
-0.011874365 0.043045118 0.85280192
-0.0072943866 0.042808756 0.85207397
-0.0025290595 0.042834051 0.85260743
0.0019243232 0.041890647 0.85276002
0.0070035327 0.041202981 0.85163325
0.01254604 0.041149765 0.85053325
0.018096549 0.041145466 0.8504445
-0.01591331 0.047994103 0.85407865
-0.012078459 0.047623709 0.85314071
-0.0078140823 0.046972144 0.85091656
-0.015803643 0.051371861 0.85388893
-0.011880029 0.052190498 0.85319585
-0.0088732531 0.052257732 0.85106659
-0.011299277 0.055645328 0.85446668
-0.008091297 0.057081014 0.85216117
-0.0073054405 0.061909191 0.85318011
0.063298568 0.064873189 0.85041654
0.067385331 0.064197421 0.85194999
-0.0061147665 0.066313446 0.85368347
-0.0041102176 0.069650389 0.85079986
0.05931804 0.069601275 0.85019994
0.062639646 0.068182416 0.85222226
0.067500129 0.066425107 0.8534112
0.070732199 0.066735163 0.85400003
-0.0025263503 0.073259637 0.85137498
0.059383929 0.072845787 0.85114431
0.061780822 0.072733857 0.85354674
-0.0015770498 0.077495806 0.85352671
0.0011795706 0.078693055 0.85159993
0.058405697 0.078226902 0.8522833
0.061180629 0.076272726 0.85406673
0.0025051075 0.082492679 0.85267228
0.0054081809 0.083861433 0.85046679
0.054695904 0.082458533 0.85229999
0.057158526 0.082570083 0.85346121
0.0038382276 0.086599536 0.85406673
0.0060547376 0.087534957 0.8523466
0.053091913 0.08718621 0.85204667
0.056415312 0.085825212 0.85426676
0.0078072893 0.092017576 0.85275006
0.01017056 0.094972849 0.85079992
0.049191702 0.092732444 0.85057324
0.05221802 0.091766015 0.85335338
0.0086196214 0.096163958 0.85435009
0.010706621 0.098206036 0.85138875
0.048037786 0.097080603 0.85262001
0.050822448 0.096122198 0.8539834
0.013149367 0.10269427 0.8529619
0.017307736 0.10445239 0.8506667
0.043475322 0.10442783 0.85046667
0.046489842 0.10287951 0.85338002
0.01498697 0.1064503 0.85400003
0.018137218 0.10784083 0.85242593
0.02286257 0.10841573 0.85072213
0.027627783 0.10843682 0.85088879
0.031987105 0.10881682 0.8507666
0.037127886 0.10916538 0.85039997
0.042456966 0.10821677 0.8512333
0.046040352 0.1080277 0.85390568
0.018708682 0.11230975 0.85426116
0.022901811 0.11256584 0.85217774
0.027706845 0.11271507 0.85331112
0.032275826 0.11249706 0.85315835
0.03724122 0.11247632 0.85300004
0.041513931 0.1122252 0.85361117
0.022955861 0.11640634 0.85420007
0.039135098 0.028797997 0.85965204
0.038458847 0.032286551 0.85887992
0.042014372 0.032099307 0.85707885
0.045354635 0.031860299 0.85600013
-0.0023397983 0.038446564 0.85642165
0.0022552179 0.039111596 0.85790777
0.006738665 0.038966339 0.85822678
0.011853464 0.038039681 0.85774469
0.017441951 0.037087381 0.85723341
0.023049707 0.035910081 0.85767794
0.027864156 0.035930328 0.85816693
0.032651253 0.03591527 0.85780019
0.03709352 0.035720579 0.85694683
0.04216218 0.03584148 0.85601145
-0.021190114 0.053153936 0.85700005
-0.017443964 0.053104017 0.85621506
-0.013703365 0.054110672 0.85533357
-0.016946958 0.057473812 0.8580153
-0.012349124 0.057804942 0.8561812
-0.015374847 0.062376123 0.85959786
-0.012147983 0.062263828 0.85804451
-0.0089226048 0.062896311 0.85580027
-0.016951384 0.068663791 0.85825002
-0.010957025 0.066715024 0.85885
-0.0082930317 0.067260504 0.85664016
0.068441898 0.068422444 0.85523361
-0.0068893656 0.071603596 0.857943
-0.0041350164 0.07405147 0.85593367
0.064104117 0.073649064 0.8558836
0.06757798 0.07202179 0.85640603
0.070980668 0.070955984 0.85700005
-0.0057527693 0.075926885 0.85913336
-0.0036135942 0.078265004 0.8584888
0.063169755 0.078304455 0.85673237
0.067514569 0.076271608 0.85762966
-0.0013448701 0.082574263 0.85763341
0.00065401488 0.083611354 0.8560003
0.059744384 0.082845256 0.85631138
0.062180925 0.082794175 0.85908222
0.0017959125 0.08797396 0.85750484
0.05491621 0.088360548 0.85573363
0.058194425 0.087691978 0.8569811
0.0034583651 0.092263274 0.85871667
0.005843957 0.092796408 0.8562668
0.054137804 0.092371069 0.85603356
0.056915551 0.092870995 0.85879993
0.0067836009 0.097305603 0.85741669
0.052293379 0.097713292 0.85632235
0.055134427 0.095903061 0.85913342
0.0080257077 0.10196712 0.85905343
0.010772749 0.10306928 0.85671109
0.04851602 0.10185707 0.85544461
0.051830824 0.10209783 0.85746676
0.012117273 0.10690602 0.85765558
0.015015634 0.10904168 0.8556335
0.048580289 0.10677216 0.85657805
0.050706655 0.10664544 0.85876656
0.013069375 0.11144851 0.85885
0.016103791 0.11372837 0.85696691
0.034179464 0.11466121 0.8560003
0.037343271 0.1145719 0.85533351
0.043238681 0.1141629 0.85624474
0.047018576 0.11269699 0.85720754
0.018079624 0.1177775 0.85807419
0.023010567 0.11883672 0.8562535
0.027812524 0.11792558 0.85657054
0.03263168 0.11802039 0.85725933
0.037412602 0.11797457 0.85692602
0.042053089 0.11790067 0.85784161
0.046721917 0.11667667 0.85911667
0.023592273 0.12238166 0.85802227
0.0278804 0.12220505 0.85865563
0.032392673 0.12215292 0.85941344
0.037938539 0.12196536 0.85978353
0.040739045 0.12154896 0.85966676
0.033655465 0.028108735 0.8630352
0.037259597 0.027875721 0.86079228
0.0026704282 0.033295847 0.86226994
0.007105256 0.033762466 0.8639285
0.011938662 0.033360474 0.86393338
0.017960781 0.032722056 0.86300886
0.023173114 0.03289365 0.86225563
0.028005196 0.032903764 0.86251682
0.032816723 0.032087732 0.86215562
0.036365133 0.031627193 0.86050022
-0.00094904186 0.035290591 0.86200005
0.0022639146 0.036055818 0.86113876
0.0070890463 0.036088984 0.86193424
0.011505377 0.035678934 0.8617
0.01670786 0.035235088 0.86064458
-0.021797681 0.052806132 0.86000001
-0.020240732 0.059342884 0.86200005
-0.017812146 0.062491164 0.86117917
-0.016779624 0.067294858 0.86116457
-0.013150662 0.067595825 0.86090344
-0.017840683 0.071420893 0.86262506
-0.011405407 0.072208993 0.86244255
-0.0089785568 0.07290256 0.86116672
-0.010623561 0.075581774 0.86433351
-0.0078426069 0.07723403 0.8622573
0.06802132 0.078402385 0.86000001
-0.0061856708 0.081941202 0.86356676
-0.0035173357 0.082661204 0.86102676
0.064021677 0.08481504 0.86013794
-0.0023293509 0.087345861 0.86255246
0.063008472 0.088327572 0.86162406
-0.00095146388 0.091645926 0.86420023
0.0013007049 0.093333296 0.86196005
0.061779015 0.093058996 0.86239529
0.065052152 0.092339315 0.86316669
0.0032290011 0.097461157 0.86159992
0.00546965 0.099214703 0.86013347
0.057045616 0.097887494 0.86076677
0.061790466 0.097890243 0.86255682
0.0038827194 0.10206778 0.86396682
0.0058808899 0.10299999 0.86168331
0.056942794 0.10266659 0.86224437
0.06101783 0.10275924 0.86302155
0.0076315482 0.10702043 0.8628667
0.01028492 0.10804446 0.86036682
0.053005911 0.10764195 0.86098683
0.055973161 0.10660491 0.86383349
0.0087176543 0.1117235 0.86406684
0.010940671 0.11251602 0.86151999
0.051615886 0.11196589 0.86151427
0.012122371 0.11697585 0.86279172
0.015107471 0.11851584 0.8608669
0.043962672 0.1199963 0.86000019
0.048282612 0.11796713 0.86075562
0.051225014 0.11694523 0.86345351
0.013551611 0.12055909 0.86403352
0.017438488 0.12199528 0.86156303
0.022043107 0.1242656 0.86002237
0.027928054 0.12481496 0.86013347
0.033143848 0.1244247 0.86020017
0.03722902 0.12416537 0.86006689
0.04238354 0.12299905 0.86048907
0.047310904 0.12195623 0.86253715
0.018821081 0.12659587 0.8629238
0.023137076 0.12814122 0.86097789
0.027943866 0.12808722 0.86061502
0.032772586 0.1281417 0.86097783
0.037821528 0.12804617 0.86168343
0.042681303 0.12695591 0.86244577
0.04578381 0.12539051 0.86410016
0.01999581 0.13019256 0.86396688
0.022927076 0.13220765 0.86312789
0.027699852 0.13230059 0.86303341
0.032835592 0.13159469 0.8626222
0.037299059 0.13133246 0.86353338
0.041475255 0.13071345 0.86386681
0.024842191 0.1350818 0.86440021
0.026460417 0.13511305 0.86460018
0.0071538831 0.029140275 0.86986965
0.021678802 0.029038569 0.86683363
0.029295065 0.028571313 0.86897784
0.031340122 0.028197769 0.86576676
0.0071363407 0.031486306 0.86766386
0.011986657 0.031314138 0.86737502
0.015753327 0.031193128 0.86697626
0.022471663 0.030627685 0.86617315
0.028159639 0.030667147 0.86728901
-0.020346398 0.064488247 0.86650002
-0.015531066 0.072702385 0.86833197
-0.013875193 0.072512016 0.86605877
-0.012286594 0.077502973 0.86783808
-0.011493981 0.081666552 0.86919999
-0.0083948411 0.082281396 0.86714667
-0.007231581 0.087025292 0.86821252
-0.0041855797 0.088655859 0.86640006
-0.0058219633 0.09058705 0.8694666
-0.0030366532 0.092230834 0.86753809
-0.0016046956 0.096642964 0.8686533
0.0012004003 0.098339349 0.86652231
-0.00095726282 0.10029127 0.86946666
0.0022801601 0.10253379 0.86793333
0.063668966 0.10153166 0.86625004
0.0039032418 0.10745446 0.86853325
0.0060473867 0.1090728 0.86642241
0.05760292 0.10843718 0.86734676
0.061318409 0.10729992 0.86728334
0.0039083352 0.11002083 0.86966676
0.0068670199 0.11302993 0.86792779
0.053936813 0.11353605 0.865628
0.055733394 0.11148454 0.86846668
0.0083593009 0.11757678 0.86871666
0.010360628 0.11931892 0.86670017
0.053622387 0.11815868 0.8670584
0.055818804 0.11731828 0.86979771
0.011992962 0.12271859 0.86793804
0.015206332 0.12412699 0.86650014
0.052009143 0.12250946 0.86808574
0.013629866 0.12772147 0.86902219
0.01587447 0.1278547 0.8677333
0.047795895 0.12772961 0.8677001
0.050923079 0.12695384 0.86930001
0.017394176 0.13190757 0.8682
0.020852277 0.13373893 0.86611676
0.029699145 0.13356653 0.86500019
0.033000518 0.1338702 0.86696678
0.037853654 0.13387878 0.86702234
0.043255836 0.13284114 0.86726123
0.047127336 0.13203727 0.86905551
0.018501529 0.13587354 0.8694666
0.022513736 0.13724658 0.86791676
0.02837356 0.13740416 0.8676334
0.033059247 0.13733953 0.86850369
0.037932113 0.13738932 0.86882216
0.042799599 0.13740903 0.8689481
0.046075214 0.13589437 0.86959994
0.024170436 0.14149663 0.86923331
0.028462118 0.14187813 0.86944765
0.032283761 0.14072034 0.86943328
0.037973497 0.14077605 0.86977768
0.041209769 0.14155643 0.86959994
0.0087933699 0.029197285 0.87157154
0.010423985 0.029211644 0.87200004
0.023394894 0.029162509 0.87053353
0.026360806 0.028236007 0.87196004
-0.020452064 0.068873733 0.87100005
-0.017203212 0.074544527 0.87100005
-0.016742168 0.07802771 0.87111998
-0.013941544 0.079332277 0.87020016
-0.016673358 0.08216501 0.87162501
-0.012980205 0.083292104 0.87098008
-0.015627332 0.086153768 0.87371439
-0.012146894 0.087436795 0.8723228
-0.0090810796 0.089126579 0.87100023
-0.011289912 0.091633596 0.87430471
-0.0076671201 0.092648134 0.87173337
-0.0069324505 0.096909046 0.87299442
-0.0038011163 0.097608373 0.87078351
-0.0023182551 0.10232789 0.87303329
0.00066542433 0.10289074 0.87093353
-0.00096225366 0.10569165 0.87399983
0.0014791619 0.10710767 0.8722778
0.0031103536 0.11213866 0.87356663
0.057787161 0.11280064 0.8715027
0.061741829 0.1104763 0.87326664
0.0039294572 0.11630872 0.87436664
0.0061926343 0.11773632 0.87169349
0.058134239 0.11743222 0.87322849
0.061437786 0.11717103 0.87473691
0.0081427824 0.12291056 0.87158668
0.010408049 0.12472383 0.87066686
0.054236233 0.12388103 0.87043351
0.057680156 0.12240592 0.87339252
0.063456267 0.12201292 0.87445426
0.008268212 0.1267363 0.87337756
0.011229564 0.12807977 0.87145561
0.053135715 0.12830153 0.87139064
0.05662499 0.12681074 0.87388879
0.0088202236 0.1301135 0.87423325
0.012599412 0.13257407 0.87258887
0.01581857 0.13388465 0.8705557
0.048846703 0.13392574 0.87082243
0.052510668 0.13283716 0.87209165
0.056148395 0.13021766 0.87493336
0.013721524 0.13671745 0.87486666
0.016738661 0.13821611 0.87276667
0.020152416 0.13931099 0.8707335
0.0479891 0.13796924 0.87120849
0.051585451 0.13774654 0.87364978
0.01793449 0.14267412 0.87346667
0.021325847 0.14287476 0.87129539
0.026639758 0.14412603 0.87046689
0.033370949 0.14299147 0.87060016
0.038012493 0.14334957 0.8706668
0.043355316 0.14279464 0.87080967
0.04763826 0.14259094 0.87221658
0.022389166 0.14734386 0.87353873
0.027514748 0.14770707 0.87248057
0.03322025 0.14775199 0.87274444
0.038086344 0.14768595 0.87235558
0.042766098 0.14748873 0.87239164
0.046832889 0.14681908 0.87364417
-0.01565033 0.087908216 0.875
-0.014035162 0.089642666 0.8760435
-0.015718551 0.093195923 0.8788144
-0.012965556 0.093580395 0.87731004
-0.015695045 0.096320979 0.87750006
-0.012435754 0.098057002 0.87842315
-0.0085950745 0.098935537 0.87656671
-0.010810389 0.10145247 0.87953323
-0.0072878464 0.10250776 0.87855244
-0.0042408966 0.10370789 0.87785017
-0.0026058131 0.10779897 0.87792385
-0.0017883884 0.11283962 0.87902212
0.0010772289 0.11285309 0.87595004
0.061882682 0.1131711 0.87526256
-0.00096871232 0.11622144 0.87986642
0.0018386774 0.11783414 0.87794286
0.06272199 0.11728454 0.87558341
0.003538697 0.12219829 0.8787083
0.0055773309 0.12237931 0.87706685
0.062076706 0.12218543 0.87569344
0.0066687739 0.12731709 0.87738878
0.058858991 0.12750407 0.87641346
0.061874352 0.12700421 0.87745905
0.0088535193 0.13305415 0.87753344
0.010470603 0.13362023 0.87590009
0.057986099 0.13231067 0.87802374
0.061384797 0.13176376 0.87982237
0.011853532 0.13714792 0.87762237
0.054204613 0.13737696 0.8764751
0.056420058 0.13657221 0.87916672
0.013125166 0.14189292 0.87869996
0.015380073 0.14266387 0.87640011
0.049630795 0.1448932 0.87510002
0.053068239 0.14209585 0.87793338
0.013800997 0.14569345 0.87993306
0.016837213 0.14719263 0.87788755
0.020804565 0.14928538 0.87540007
0.044765241 0.14987943 0.87570006
0.048475593 0.14835593 0.87632507
0.051905982 0.14677835 0.87907493
0.017614 0.15156166 0.87915546
0.021954974 0.15270485 0.87789464
0.026820442 0.15243962 0.87636679
0.032178011 0.15226428 0.87602866
0.037810832 0.1526242 0.87675726
0.043212879 0.15260588 0.87732238
0.048185822 0.15199207 0.87849534
0.018725671 0.15552633 0.87999976
0.02219896 0.15686253 0.87945819
0.026885645 0.15689671 0.87850374
0.031776205 0.15677267 0.87781131
0.037517991 0.15682158 0.87808639
0.043292563 0.15697454 0.87894082
0.047146246 0.15598156 0.87948877
0.023649314 0.16043715 0.87999976
0.026925949 0.16040474 0.87982202
0.031829577 0.16112603 0.87928885
0.036924593 0.16155219 0.87913334
0.041692264 0.16121612 0.87978315
-0.012476902 0.10247838 0.88132167
-0.0083566792 0.104808 0.88023311
-0.011407755 0.10573367 0.88340664
-0.007314912 0.1078016 0.88175237
-0.0042525688 0.10972438 0.88026643
-0.0067444155 0.11184259 0.88406682
-0.004260621 0.11321335 0.88193339
-0.002289217 0.11783639 0.88216001
-0.0015236367 0.12173265 0.88423347
0.0013300108 0.12327985 0.88117981
0.0035530708 0.12760547 0.88218325
0.005598315 0.12856996 0.88036638
0.0039766454 0.13169611 0.88486677
0.0065954449 0.1325877 0.88203323
0.05976047 0.13425584 0.88006651
0.062612467 0.13395779 0.88169771
0.008359666 0.13690363 0.88306671
0.010521215 0.13917769 0.88013303
0.058706366 0.13804027 0.88183326
0.062429544 0.13798766 0.88299578
0.010949807 0.14310873 0.88165826
0.0548614 0.14414389 0.8804664
0.057056617 0.14245021 0.8826583
0.061728284 0.14155351 0.88475007
0.012518969 0.14738736 0.88223994
0.054119356 0.1476348 0.88174993
0.055883422 0.14795324 0.88365006
0.013836543 0.15099187 0.8822
0.016012393 0.15356226 0.88125545
0.049912456 0.153901 0.88006634
0.052549362 0.152768 0.88297778
0.055137616 0.15145403 0.88490015
0.017136073 0.15765426 0.88274759
0.020368427 0.15881221 0.88006645
0.048310556 0.15771081 0.88077474
0.050637472 0.15772898 0.88316673
0.018802278 0.16109356 0.88360012
0.02239367 0.16215761 0.88222665
0.026970968 0.16313495 0.8813054
0.031890936 0.16389716 0.88099986
0.038434755 0.16377312 0.88033307
0.042717822 0.16284513 0.88062638
0.046440549 0.16224499 0.88270664
0.027015908 0.16586792 0.88276672
0.031944584 0.16581152 0.88246661
0.036881726 0.16580735 0.88244444
0.041837517 0.16588043 0.88283342
-0.012541566 0.10795695 0.88591909
-0.011566561 0.1122375 0.88718092
-0.0088247443 0.11249949 0.88599998
-0.011474605 0.11627734 0.88863105
-0.0073911147 0.11701368 0.88741654
-0.0042818771 0.11872438 0.88633317
-0.0059532057 0.12074428 0.88906664
-0.0036269943 0.12254345 0.88771981
-0.0018064446 0.12718713 0.88785553
0.0012268504 0.12796153 0.88560003
-0.00097886578 0.13232505 0.88908881
0.0018576856 0.13220154 0.88667613
0.0028846527 0.13652653 0.88773322
0.0066228868 0.13775361 0.8857134
0.065047078 0.13747786 0.88500005
0.0039955187 0.1405903 0.88906664
0.0073006139 0.14204191 0.88779986
0.058464762 0.14411184 0.88530016
0.061801001 0.14295478 0.88578337
0.065065458 0.14163353 0.88525009
0.008551009 0.14672127 0.88863325
0.01141661 0.14916919 0.88599992
0.05768314 0.1483403 0.88596666
0.061942875 0.147 0.88781565
0.012026856 0.15285997 0.8876096
0.057320483 0.15231632 0.88801318
0.012932569 0.15727031 0.88799989
0.015557904 0.15997918 0.8865332
0.052754484 0.15831354 0.88644153
0.05603414 0.15672325 0.88863993
0.013381672 0.16087902 0.88846654
0.016890138 0.16271867 0.88707989
0.021041565 0.16416286 0.88537788
0.047763065 0.16397876 0.88586664
0.052018058 0.16216482 0.88796663
0.017460005 0.16678199 0.88872904
0.022164123 0.16735239 0.88627774
0.027114553 0.16894417 0.88597775
0.032076567 0.16896962 0.88611108
0.037029441 0.16894621 0.88598889
0.041997027 0.16898768 0.88620543
0.047268983 0.16725758 0.88764745
0.050432339 0.16625623 0.88923335
0.018920021 0.17037214 0.88913333
0.022424903 0.17168008 0.88840818
0.027180182 0.17265733 0.88812202
0.03214084 0.17261182 0.88788867
0.037083894 0.17249697 0.88729972
0.042083308 0.17263527 0.88801098
0.046015326 0.17096204 0.88933343
0.02391446 0.17547864 0.88986671
0.027769862 0.17647438 0.88932228
0.032187268 0.17699559 0.88917035
0.037141498 0.17689838 0.88868141
0.042114597 0.1768983 0.88868141
0.037511837 0.18105255 0.88959998
0.040483266 0.1811502 0.88926661
-0.012666751 0.11319958 0.8947928
-0.010950919 0.11934499 0.89096671
-0.0092805643 0.11923335 0.89013332
-0.010998129 0.12152403 0.89480782
-0.0076421085 0.1228767 0.89253825
-0.0059864614 0.12723961 0.89403367
-0.0043043159 0.12763385 0.89097804
-0.0033129645 0.1324653 0.89226019
-0.0018163642 0.13614243 0.89243364
0.0012347532 0.1388057 0.89176685
0.002678568 0.14251198 0.89282024
0.0056621195 0.14411376 0.89040011
0.0040178397 0.14636493 0.89403367
0.0063386052 0.1480685 0.89226693
0.0081762401 0.15284884 0.89304471
0.0588478 0.15417284 0.89110023
0.06204208 0.15250096 0.89221692
0.0090211127 0.15802652 0.89414477
0.010651377 0.15747462 0.89102244
0.058126349 0.15778056 0.89276683
0.060765456 0.1564891 0.89486682
0.011997419 0.16302472 0.89237356
0.05389227 0.16421063 0.89160019
0.056306731 0.16246876 0.89296025
0.013455176 0.16674966 0.89335567
0.01563395 0.16904709 0.89086682
0.052555505 0.16768213 0.89241689
0.055742029 0.16642722 0.89460015
0.017657682 0.17233615 0.89245355
0.020612985 0.17397305 0.89063346
0.047798876 0.1730662 0.8916502
0.051282346 0.17193814 0.89441127
0.019030683 0.17719156 0.8943336
0.02209462 0.17772728 0.89180022
0.026143895 0.17835128 0.89043349
0.047268208 0.17757396 0.89207429
0.022692619 0.18195927 0.89405364
0.027309321 0.18261229 0.89236331
0.03226595 0.18240374 0.89134461
0.036828861 0.18360433 0.89114177
0.042708658 0.18260927 0.89119542
0.046507969 0.18284102 0.89348364
0.027705345 0.18701811 0.89438707
0.03203905 0.18699729 0.89428699
0.037346896 0.18702154 0.89360595
0.04199281 0.18675931 0.89314699
0.04571775 0.18634118 0.89433378
-0.012727089 0.11875607 0.8990556
-0.01101324 0.12335778 0.89603704
-0.0093368646 0.12495428 0.89553344
-0.011026233 0.12684162 0.89709455
-0.0080067096 0.12803249 0.89609337
-0.011049245 0.1304501 0.89896679
-0.0076820799 0.13186142 0.89719057
-0.0043256795 0.13492937 0.89539999
-0.0065802 0.1360532 0.8991558
-0.0026589297 0.13784896 0.8963334
-0.0014081062 0.14161089 0.89815855
0.0015196014 0.14415979 0.89583331
-0.00099029182 0.14558123 0.89946687
0.0017990726 0.14737302 0.89679456
0.0028366814 0.15169789 0.89747155
0.0056977286 0.15252051 0.89599997
0.0034806698 0.15609528 0.89898914
0.0063680573 0.15708178 0.89634675
0.059131727 0.15824798 0.89540011
0.062930442 0.15722504 0.89716673
0.066017292 0.15540121 0.89820027
0.0073809763 0.16198647 0.89765251
0.059271146 0.16196102 0.8975113
0.061397627 0.16163304 0.89800858
0.011971395 0.16764393 0.89666682
0.054138064 0.16995786 0.89566666
0.057547063 0.16681787 0.8967067
0.013244336 0.17120101 0.89781678
0.016558629 0.17418706 0.89600015
0.052896813 0.17332524 0.89584994
0.056764584 0.17198889 0.8975668
0.017404597 0.17763162 0.89656675
0.052531559 0.17738841 0.89673352
0.056448668 0.17690323 0.89920855
0.018535063 0.181949 0.89728898
0.022404829 0.18443872 0.89586663
0.049132273 0.18247423 0.89576662
0.052317787 0.18206309 0.89785022
0.019118635 0.1872033 0.89846689
0.022179136 0.18724871 0.89640003
0.025748426 0.18834127 0.89593327
0.034067545 0.18814506 0.89500034
0.044089224 0.18817309 0.89513361
0.048034519 0.18725605 0.89605552
0.051375069 0.18678291 0.8984586
0.022703677 0.19168977 0.89823359
0.027445355 0.1918588 0.8967889
0.032463532 0.19186048 0.89679635
0.037476897 0.19183974 0.89670014
0.042491075 0.19182622 0.89663708
0.047345862 0.19180539 0.89751679
0.051037293 0.19084908 0.89990038
0.029219082 0.19587101 0.89990026
0.038374953 0.19549012 0.89815032
0.042249687 0.19626161 0.89862025
0.045981873 0.19578393 0.89950013
-0.012809005 0.1279363 0.90484208
-0.011076819 0.13329095 0.90121013
-0.0093876068 0.1340079 0.90040028
-0.011105704 0.136159 0.90356004
-0.0081525035 0.13776638 0.90307599
-0.0043504783 0.13905327 0.9005335
-0.0060548726 0.14215045 0.90425003
-0.0036859564 0.14298494 0.90208673
-0.0028901529 0.14802627 0.90290016
-0.0014155421 0.15244448 0.90295005
0.00068826904 0.15334362 0.90083361
0.0023706153 0.15818174 0.90215003
0.064499699 0.15913168 0.9004004
0.067635417 0.15872495 0.90189344
0.0040573888 0.16208167 0.90283334
0.005742454 0.16463651 0.90303332
0.063903138 0.16300771 0.90145361
0.0677123 0.16192803 0.90291756
0.0086886361 0.16757056 0.90300012
0.010758701 0.16910602 0.90000027
0.059501555 0.16845587 0.90100032
0.061970424 0.16793247 0.90268672
0.01212282 0.17311159 0.90168011
0.059541181 0.1727621 0.90160018
0.061306454 0.17215775 0.90283328
0.013743673 0.17767969 0.90315837
0.015808854 0.17847943 0.90083367
0.058451068 0.17788367 0.90206689
0.016683916 0.18305889 0.90275842
0.054493677 0.18365276 0.90155017
0.056800853 0.18190317 0.90257788
0.017538428 0.18738703 0.90338326
0.053695358 0.18799031 0.90225017
0.018630559 0.19128489 0.90196675
0.021691084 0.19441649 0.90091693
0.049439415 0.1945136 0.90136707
0.05232517 0.19258392 0.90280014
0.019242764 0.19514655 0.90429997
0.022569403 0.197271 0.90247232
0.027387694 0.19816598 0.9017669
0.032642391 0.19773836 0.90172935
0.037424881 0.19831324 0.90121454
0.043096971 0.19894801 0.90056694
0.047774035 0.19792891 0.90164775
0.051254716 0.19502433 0.90373331
0.023456119 0.20017099 0.90419996
0.027687648 0.2019645 0.90470004
0.032716911 0.20008245 0.90379995
0.038576949 0.20239908 0.90288335
0.042759176 0.20226723 0.90229446
0.046751723 0.20227505 0.9035778
0.039457113 0.20595582 0.90374994
0.041985698 0.20511481 0.90375
-0.011126329 0.1380958 0.90523809
-0.0085994983 0.1398661 0.90579772
-0.0077553866 0.14282596 0.90586925
-0.0070881411 0.14713199 0.90696412
-0.0069224071 0.1510846 0.90739191
-0.0038137783 0.1528188 0.90600008
-0.0024110081 0.15705878 0.90777797
0.00069191103 0.15836607 0.90560013
-0.0010011733 0.16155952 0.90935004
0.0013684217 0.16228138 0.90676689
0.069954537 0.16345596 0.90580004
0.0036586921 0.16687311 0.90834188
0.006330648 0.16816743 0.90697795
0.06431672 0.1679306 0.90570015
0.067485794 0.16698782 0.90667248
0.07082478 0.16694783 0.90829504
0.0077460241 0.17225237 0.90776134
0.06405963 0.17192627 0.9060418
0.067253686 0.17262138 0.90842885
0.070273742 0.17097248 0.90993327
0.0091638183 0.17742234 0.90828925
0.011251682 0.17738347 0.90593344
0.059785523 0.17852204 0.90530008
0.062398653 0.17706561 0.9064613
0.066225015 0.17693846 0.90870023
0.0091800718 0.18112177 0.90989995
0.012534306 0.18225656 0.90712404
0.059463356 0.18261699 0.9068169
0.062558077 0.18258967 0.90877801
0.065187424 0.18198806 0.90999991
0.013567692 0.18722411 0.90830028
0.015904406 0.18714471 0.90627789
0.057331618 0.18719794 0.90653348
0.060652826 0.18675697 0.90986657
0.014268209 0.19293247 0.90972227
0.016594052 0.1927062 0.90706694
0.054781456 0.19221027 0.90631133
0.05702462 0.19222632 0.90838361
0.018284805 0.19775823 0.90702021
0.05286419 0.19746584 0.90722799
0.019323625 0.20187934 0.90810031
0.022667261 0.20261954 0.90637237
0.02772744 0.20394008 0.90600008
0.032791805 0.2030676 0.90586668
0.036161982 0.20301917 0.90565008
0.049254101 0.20260565 0.9056834
0.051985987 0.20253606 0.90915006
0.024406562 0.20780951 0.90817815
0.027769366 0.20762683 0.90737808
0.032825373 0.20749491 0.90680015
0.037381057 0.20754306 0.90596199
0.0431678 0.20775223 0.90582389
0.048083466 0.20764917 0.90747428
0.024441207 0.21148762 0.90946662
0.027803889 0.21211065 0.9085114
0.032879256 0.21242036 0.90828609
0.037950229 0.21284471 0.90803361
0.043024361 0.21281086 0.90788913
0.047035385 0.21195324 0.90904456
-0.0078081726 0.15437771 0.91189313
-0.0076045161 0.15776336 0.91307604
-0.0044016885 0.15848666 0.91113329
-0.0061264057 0.16170023 0.91493374
-0.0030503222 0.16272362 0.91304016
-0.0010055951 0.16737065 0.91336685
0.0013761837 0.16824445 0.91165322
0.072877243 0.1694136 0.91065234
0.0035364262 0.17217177 0.9133001
0.0057973564 0.17384224 0.91166657
0.072177432 0.17287321 0.91252226
0.075695351 0.17257267 0.9139238
0.0041111666 0.17529035 0.91480035
0.0068183467 0.1777958 0.9119401
0.068104632 0.1791165 0.91117769
0.071932361 0.17644806 0.91374683
0.075701676 0.175137 0.91400003
0.0083555365 0.18335809 0.91260839
0.010879434 0.18454747 0.9101001
0.067104004 0.18300471 0.91296679
0.0086539071 0.18705903 0.91410023
0.01146696 0.18829806 0.91186666
0.06228213 0.18810958 0.91094995
0.066320643 0.1870214 0.91391695
0.0092311893 0.19064032 0.91496694
0.011777696 0.19213735 0.91399187
0.05840303 0.19300525 0.9100666
0.061775077 0.19212091 0.91391134
0.013767585 0.19724949 0.91404462
0.015979378 0.19734243 0.91055
0.057165526 0.19714014 0.91196668
0.016860384 0.20196983 0.91232502
0.021065064 0.20487805 0.91016662
0.053447865 0.20368345 0.91240007
0.05590155 0.20190415 0.91356021
0.019017447 0.20696044 0.91375029
0.021952648 0.20779569 0.91182506
0.052777786 0.20745699 0.91257346
0.022551663 0.21234138 0.91313905
0.049153201 0.21284336 0.91165
0.052124128 0.21255226 0.9140448
-0.0095433025 0.15325743 0.91533351
-0.0078451401 0.16281532 0.9164167
-0.006834629 0.16707459 0.91827995
-0.0035749928 0.16718863 0.91702765
-0.0061592166 0.17112155 0.91983336
-0.0022961048 0.17126206 0.91829163
0.0012687707 0.17326987 0.91611129
0.0030941893 0.17774674 0.91693336
0.073604666 0.17839666 0.91618752
0.004127047 0.18194661 0.91833317
0.0058240625 0.18231082 0.91586691
0.068958543 0.18383898 0.91500038
0.072568737 0.18263277 0.91748649
0.076032974 0.18444175 0.91800004
0.0065179281 0.18809652 0.91750002
0.068629853 0.18793565 0.9163
0.072651535 0.18796824 0.91854054
0.0078951363 0.19273742 0.91847324
0.010957139 0.19439073 0.91660023
0.063971654 0.19360253 0.91689992
0.067246474 0.19272953 0.91782069
0.074440986 0.19243693 0.9194833
0.076128215 0.19236746 0.91914988
0.0092698615 0.19656649 0.91879982
0.01211048 0.19801754 0.91759992
0.058728192 0.19918671 0.9151336
0.062081929 0.19758117 0.91783804
0.067547061 0.19575401 0.91899997
0.013819829 0.20199485 0.9175778
0.016076775 0.20450942 0.91610014
0.058379605 0.20328729 0.91635007
0.06186736 0.20128004 0.91951114
0.014423653 0.20529824 0.91963327
0.016959094 0.20827127 0.91765821
0.056910746 0.20769219 0.91725236
0.017818848 0.21203536 0.91794443
0.021179248 0.21449989 0.9151004
-0.009599207 0.16271853 0.92069542
-0.0078878459 0.16969292 0.92136681
-0.0079063028 0.1730561 0.92330831
-0.0027327274 0.1736393 0.92108899
-0.0067580915 0.17580138 0.92344445
-0.0029561243 0.17724308 0.92386663
0.00070363889 0.17732571 0.92095006
-0.0021684947 0.18183328 0.92499977
0.0018488383 0.18272656 0.92227775
0.0035722239 0.18712808 0.92283338
0.076300949 0.18851915 0.92123544
0.004149667 0.19153211 0.92336679
0.0058617932 0.19377889 0.9218002
0.071954817 0.19266702 0.92058343
0.0070969895 0.19767821 0.92284286
0.011000571 0.1985849 0.92023343
0.067692079 0.19789074 0.92098337
0.072540097 0.19608755 0.92257512
0.076416709 0.19567026 0.92263341
0.0087515851 0.20178197 0.92442209
0.011461882 0.20301494 0.92285842
0.063235402 0.20288625 0.9211067
0.066595912 0.20233044 0.92364997
0.013438376 0.2080473 0.92272007
0.06218157 0.20750917 0.92294294
-0.0096645923 0.17244861 0.92696649
-0.0030327663 0.18283272 0.92569977
-0.0024067978 0.18718199 0.92819995
0.001399725 0.1883672 0.92723322
0.076709375 0.1878054 0.92616677
-0.0010226606 0.19008084 0.9288668
0.0020920485 0.1930646 0.9282667
0.0041602273 0.19718565 0.92571646
0.069714688 0.19962077 0.92503315
0.073267922 0.19817823 0.92633319
0.075154766 0.19859895 0.92829996
0.004173486 0.20213325 0.92866659
0.0071819606 0.20324145 0.9258498
0.069237389 0.20277351 0.92633313
0.071704201 0.20208724 0.92845559
0.0076340972 0.20724295 0.92834282
0.011062535 0.20745039 0.92541647
-0.0018944966 0.19235831 0.93152517
-0.0010287894 0.1964346 0.93443316
0.0015794225 0.19756435 0.93156129
0.0020161443 0.20256537 0.93265009
0.073618598 0.20259033 0.93076688
0.0036124066 0.20714515 0.93308902
-0.0027750789 0.19494642 0.93563324
-0.0019066816 0.19788703 0.93719995
-0.0010331807 0.20251225 0.93842214
0.00071498472 0.20368494 0.93580002
-0.0027880298 0.1993534 0.94000018
-0.0027919351 0.20226008 0.9413169
