# .PCD v0.7 - Point Cloud Data file format
VERSION 0.7
FIELDS x y z
SIZE 4 4 4
TYPE F F F
COUNT 1 1 1
WIDTH 934
HEIGHT 1
VIEWPOINT 0 0 0 1 0 0 0
POINTS 934
DATA ascii
0.0086140372 0.059139974 0.82345331
0.013048045 0.057820946 0.82215321
0.017501647 0.057383101 0.82246107
0.022105431 0.057389829 0.82254434
0.025242368 0.058316242 0.82480019
0.009070212 0.062781572 0.82298881
0.012878677 0.062640332 0.82114053
0.017495481 0.06271635 0.8221333
0.021915924 0.062393937 0.82364768
0.0098537747 0.06671489 0.82430005
0.012911757 0.066627547 0.82322222
0.017230209 0.06654907 0.82414687
0.042406529 0.049393628 0.82955575
0.0091412831 0.054015085 0.82943356
0.012992953 0.053180825 0.82846671
0.017807906 0.052560419 0.82780826
0.022010697 0.052771397 0.82723808
0.026899332 0.053178728 0.82843351
0.033099394 0.053102504 0.82895273
0.03771048 0.052404072 0.82837051
0.042359792 0.052421249 0.8286373
0.047033086 0.05246301 0.82928914
0.0074888309 0.056797836 0.82751697
0.012187636 0.055343643 0.82623327
0.027955741 0.057033893 0.82643628
0.03303352 0.056954026 0.82730359
0.037672009 0.05696949 0.82751107
0.042364016 0.057051785 0.82871133
0.045991659 0.056050569 0.8291114
0.006292677 0.061609451 0.82782918
0.02294437 0.064479396 0.82513356
0.027675416 0.062477224 0.8267588
0.03270581 0.062450886 0.8287614
0.037431099 0.060773075 0.82901371
0.0087267356 0.068069205 0.82676661
0.012942344 0.069089703 0.82520008
0.01795806 0.068756059 0.82579994
0.022210499 0.067657433 0.82644433
0.026893429 0.067804568 0.82824463
0.030407853 0.067507878 0.82933366
0.0091293119 0.072440319 0.8284111
0.012968981 0.072307646 0.82688868
0.017600549 0.072327197 0.82711095
0.022255173 0.072414629 0.82810384
0.026148366 0.072503991 0.82913357
0.0088810865 0.076624304 0.82921618
0.012991548 0.077056885 0.82832605
0.017193368 0.076873161 0.82872403
0.021899443 0.075988062 0.8292836
0.025377031 0.075594515 0.82920033
0.013002845 0.080206871 0.82904482
0.016107278 0.080267064 0.82966697
0.013874894 0.049717795 0.83499974
0.017756656 0.049687359 0.83448869
0.022423407 0.049680751 0.83437759
0.027074842 0.049648989 0.8338446
0.032991141 0.04935078 0.83405322
0.037889291 0.048782449 0.83231115
0.042587996 0.047279585 0.83311111
0.047216151 0.048462447 0.83252376
0.051980183 0.049671482 0.83422214
0.057472162 0.049711842 0.83489984
0.0076256022 0.052689921 0.83289158
0.013039867 0.051052764 0.83144432
0.016133163 0.051025473 0.83099991
0.023103524 0.051015232 0.83083332
0.027004978 0.051067781 0.83168888
0.031347297 0.05168622 0.83169329
0.051890116 0.052683793 0.83277786
0.056794755 0.052405458 0.83382964
0.062406957 0.051786106 0.83495528
0.06602639 0.054363117 0.83477783
0.0037461026 0.058161717 0.83356732
0.0052843895 0.055662904 0.83099991
0.047658626 0.057739314 0.83121115
0.051716574 0.056942929 0.83356196
0.0555983 0.056384552 0.8340444
0.066806287 0.055917293 0.83479756
0.0058077737 0.063476309 0.83211946
0.034711573 0.064901367 0.83053333
0.037823699 0.063638233 0.8308444
0.042528201 0.061916512 0.83192593
0.047092482 0.061859254 0.8337667
0.0068474486 0.068162121 0.83260918
0.033382315 0.068237193 0.83116674
0.037945926 0.067719564 0.83351856
0.042667467 0.0663331 0.83465683
0.047356527 0.065250404 0.83499974
0.006448728 0.073072761 0.83123147
0.028516518 0.072628699 0.83055562
0.032467883 0.072799973 0.83251119
0.036961038 0.071954392 0.83468872
0.0068294238 0.077633649 0.8303839
0.019225873 0.078049734 0.83070004
0.022652473 0.078265078 0.83134669
0.027244771 0.077694416 0.83309156
0.030696681 0.076519214 0.83366662
0.0087829083 0.080901481 0.83222127
0.013045479 0.082794107 0.83178884
0.017925916 0.082358047 0.83324164
0.021902369 0.081748493 0.83427763
0.025554538 0.080783039 0.83499974
0.013859602 0.085350722 0.83410001
0.016203057 0.085401878 0.83459979
0.058536611 0.043713178 0.83900005
0.060875136 0.043706924 0.83888006
0.0074182511 0.048893843 0.8386445
0.012044538 0.048004579 0.83765334
0.017832676 0.04771515 0.83803999
0.022519723 0.047555905 0.83797771
0.027398637 0.047164034 0.83696175
0.032038182 0.046901751 0.83714074
0.037812125 0.046126049 0.83749342
0.042835187 0.045217514 0.83795565
0.047468167 0.045785196 0.83696002
0.052190814 0.047534909 0.8376112
0.057629108 0.047043718 0.83719331
0.062256861 0.047467731 0.83643371
0.0031382546 0.053291995 0.83748418
0.0060973326 0.05134885 0.83626664
0.059324343 0.053885847 0.83539969
0.063247986 0.053391773 0.83577627
0.066563062 0.05282433 0.83500004
0.0025902472 0.057237681 0.83704758
0.052813388 0.059044432 0.83509976
0.057966862 0.05777657 0.83641654
0.062743075 0.057756037 0.83667994
0.066043966 0.057484113 0.83500004
0.003765018 0.062351733 0.83777636
0.048933361 0.063722566 0.83533317
0.052113283 0.062246494 0.83636278
0.056886461 0.062348351 0.83773333
0.062414378 0.062408742 0.83854628
0.06636034 0.064002298 0.83900005
0.003770184 0.066337764 0.83892596
0.0053164675 0.066888466 0.83604431
0.039576415 0.069921367 0.83513314
0.042697381 0.068894885 0.83524442
0.047438301 0.067113787 0.83643329
0.052262761 0.067105204 0.83876318
0.056588672 0.065962337 0.83911681
0.061720017 0.065620288 0.83973336
0.0037562184 0.074643061 0.83581823
0.0053220582 0.071627468 0.8369233
0.038625598 0.073711939 0.83701104
0.042806126 0.072659768 0.8373757
0.047543142 0.072525956 0.83828336
0.051267117 0.070810534 0.83953333
0.032749724 0.078079917 0.83693314
0.037236024 0.077071115 0.83854675
0.042896051 0.076500066 0.8391335
0.0076695867 0.08259806 0.83765477
0.01000081 0.084050298 0.83659989
0.023521474 0.083524972 0.83653331
0.026941394 0.0826113 0.83777779
0.030344639 0.081099048 0.83826667
0.012550823 0.087469853 0.83767492
0.018012775 0.087434694 0.83732498
0.022014922 0.086848766 0.83856678
0.0069482303 0.044019993 0.84488875
0.011672619 0.04400726 0.84464437
0.027393466 0.043958634 0.8437112
0.032083079 0.043914635 0.8428669
0.037089251 0.043424841 0.84352231
0.043123573 0.043559071 0.84358346
0.047528684 0.043323383 0.8435744
0.053032674 0.043622397 0.84479934
0.056897819 0.042957522 0.84255207
0.0027397119 0.047587812 0.84313345
0.0063988105 0.046457548 0.84162229
0.012427072 0.045456436 0.84238344
0.017942635 0.045889601 0.84316671
0.022678697 0.045538887 0.84391117
0.026522402 0.045381792 0.84099984
0.033548594 0.045338631 0.84019989
0.037480794 0.045356609 0.84053314
0.052458104 0.045430955 0.84191114
0.055526007 0.045371 0.84079987
-0.00093003194 0.051868737 0.84473324
0.0016886588 0.051191304 0.84219128
0.00064551487 0.055020683 0.8448751
0.0015858964 0.063026473 0.84264886
0.0017641491 0.067630671 0.8425408
0.057403482 0.068200983 0.84073317
0.06221056 0.067338489 0.84166676
0.065649502 0.067988671 0.84326881
0.0030025728 0.071383394 0.84321314
0.05293357 0.072510667 0.84113318
0.057223219 0.072122768 0.84268892
0.061853997 0.072058365 0.84423339
0.065238379 0.070725128 0.84473324
0.038047291 0.079321623 0.84146661
0.043066394 0.079155199 0.84246677
0.047727335 0.077502616 0.84153336
0.05251779 0.076054141 0.84283346
0.057038289 0.076057278 0.84461325
0.0077183368 0.084687456 0.84294218
0.028862525 0.083673939 0.84063315
0.032260127 0.08325658 0.84233338
0.037156433 0.083052352 0.84384012
0.04239865 0.082125723 0.84481657
0.047086101 0.080093242 0.8441
0.0078851357 0.087622516 0.84402579
0.010056993 0.088435896 0.84130001
0.023666019 0.088734716 0.84166652
0.027365839 0.08780925 0.84279275
0.031751037 0.086804405 0.84446669
0.01265109 0.092407636 0.84313333
0.01793804 0.09253484 0.84298521
0.022448121 0.092157781 0.84364766
0.026381135 0.091688819 0.84484434
0.014829034 0.09589722 0.84499991
0.053628247 0.034717426 0.84800005
0.044196971 0.039500937 0.84910011
0.048516318 0.039076585 0.84846687
0.052813694 0.037854925 0.84761888
0.055836424 0.037761156 0.84550089
-0.00093494944 0.044244595 0.84920037
0.0022272458 0.043383431 0.84782237
0.0069676428 0.041781325 0.84732229
0.012760563 0.042034868 0.84714818
0.01803828 0.043374751 0.84765559
0.022791235 0.043396477 0.84807795
0.027843211 0.041962698 0.84780025
0.032251526 0.041780565 0.84731126
0.037356004 0.041352451 0.84660006
0.042361196 0.041619897 0.84632391
0.048378356 0.041326318 0.84605002
0.052437644 0.04159113 0.84664011
0.05661333 0.040898181 0.84533334
-0.0020649966 0.047577631 0.84828663
0.0011715242 0.046161264 0.84573323
-0.0025138552 0.051790737 0.84712332
-0.0017248841 0.057592418 0.84802765
0.00064758264 0.058350299 0.84758157
-0.0015685421 0.062876172 0.84908009
0.00064779323 0.061523598 0.84785718
-0.0013293603 0.068200536 0.84753102
0.067730203 0.069284737 0.84633338
-0.0017269119 0.07105843 0.84871435
0.00064666232 0.071651131 0.8463769
0.063698098 0.073908664 0.84519988
0.066631563 0.072125174 0.84641331
0.052728802 0.078720458 0.84622222
0.057918124 0.078410149 0.84711677
0.06227757 0.077248394 0.84731495
0.065410972 0.077214755 0.84696817
0.042428441 0.083754882 0.84539992
0.048248701 0.0823704 0.84674293
0.052505501 0.080953337 0.84900022
0.056888632 0.080599278 0.84943354
0.0061705671 0.088959485 0.84629226
0.032515809 0.089079872 0.84593332
0.036731929 0.087743767 0.84648573
0.042485524 0.086628176 0.84828919
0.047364518 0.085306123 0.84910035
0.0074206092 0.092584126 0.84755707
0.010115569 0.094459362 0.84619999
0.023538854 0.094492853 0.84649998
0.028034508 0.0935205 0.84718895
0.031973414 0.092167273 0.84828025
0.037075538 0.090581857 0.84920031
0.0080331387 0.09682449 0.84853345
0.012496768 0.097718321 0.84714681
0.017841956 0.097590119 0.84774172
0.022792794 0.09624777 0.84808904
0.026778063 0.096362516 0.84910035
0.014913266 0.10118436 0.84980023
0.049158953 0.034913257 0.85278338
-0.0065140119 0.039723713 0.85388893
-0.0028514131 0.03909304 0.85399419
0.002245507 0.039731979 0.85406667
0.0070257932 0.039737668 0.85418898
0.012589739 0.039703686 0.8534584
0.018572019 0.039335221 0.85407507
0.022753265 0.038341336 0.85406673
0.027684461 0.038531329 0.85264289
0.032460973 0.038878761 0.85279995
0.037221618 0.038866598 0.85254449
0.041701235 0.038733236 0.8531
0.047532167 0.037263736 0.85213143
-0.0065078069 0.042857748 0.85305518
-0.0027227809 0.042559922 0.85106248
0.0022359292 0.041155145 0.85064441
0.018106254 0.041166965 0.85088879
0.022869395 0.041171268 0.85097766
0.026013596 0.041123968 0.85000008
-0.0071009486 0.047395289 0.85260439
-0.0041074082 0.046669919 0.85021847
-0.007038251 0.051841769 0.85290861
-0.0041069202 0.053780705 0.85011756
-0.0067752763 0.057173919 0.85354167
-0.0041095116 0.056979284 0.85065407
-0.0065154261 0.060387813 0.85410005
-0.0037158648 0.06257268 0.85138887
-0.0033257562 0.067439519 0.8528524
-0.001469912 0.073490284 0.85250717
0.053378768 0.083336107 0.85155994
0.058105078 0.082914844 0.85233802
0.062706806 0.081746817 0.85315561
0.043471914 0.088600568 0.85040003
0.048084546 0.087707922 0.85132498
0.052814655 0.08619643 0.85400838
0.056402106 0.085805103 0.85406673
0.0054094526 0.094957955 0.8506667
0.032377608 0.094159305 0.8506
0.037517454 0.092891634 0.85202664
0.041806687 0.09183006 0.8528291
0.046497781 0.091149539 0.85352671
0.05004634 0.090599604 0.85433352
0.0070049129 0.098233938 0.85162115
0.01016578 0.099673904 0.85040003
0.019695701 0.099744245 0.85099989
0.022467719 0.098531976 0.85078329
0.028068863 0.097906694 0.85222495
0.032666415 0.097000286 0.85295832
0.036219195 0.095848404 0.85390002
0.0086194538 0.10172417 0.85433334
0.012568534 0.10224722 0.8520667
0.017827699 0.10216671 0.85271329
0.022950957 0.10062668 0.85401112
0.019874681 0.032760363 0.85873336
0.02260248 0.032163631 0.8580476
0.027913747 0.033596773 0.859689
0.04794988 0.033593301 0.85960013
0.050261151 0.033530783 0.85800004
-0.0057273246 0.038199827 0.85533339
-0.0014760266 0.037199393 0.85674363
0.0018559033 0.037920617 0.85803568
0.0054613845 0.03835614 0.85883331
0.012257919 0.037925027 0.85813344
0.017520782 0.036847167 0.85678536
0.023407089 0.035448238 0.85613352
0.027812004 0.035703808 0.85654676
0.032235518 0.036296662 0.85738349
0.037455823 0.036719084 0.85791105
0.042279601 0.036100514 0.85839999
0.04592621 0.035605658 0.85673338
-0.0089246901 0.049375873 0.85600007
-0.0073196776 0.053294353 0.85500002
-0.0073225317 0.055701759 0.85533339
-0.0057250923 0.062041909 0.85500002
-0.0041329218 0.066852376 0.85549998
-0.0014788453 0.077155791 0.85798615
0.0022540716 0.077763975 0.85736388
0.0038614685 0.083127961 0.85923803
0.0054615526 0.083091766 0.85885978
0.062904306 0.084391683 0.85584474
0.053653717 0.088543057 0.85596025
0.0584036 0.087908223 0.85713351
0.063254692 0.087587088 0.85789168
0.043747947 0.093939036 0.85580033
0.047344483 0.093552291 0.85590029
0.051853139 0.0923016 0.85784453
0.055907816 0.09106265 0.85870004
0.037914138 0.09770155 0.85621125
0.042012878 0.096873693 0.85760969
0.04669065 0.096237674 0.85854995
0.050362691 0.095970035 0.8597334
0.006782847 0.10261744 0.85736531
0.010223156 0.10341819 0.85520011
0.019811425 0.10351492 0.8560003
0.02335423 0.10301156 0.85710669
0.02783208 0.1016096 0.85718095
0.032640412 0.10190476 0.85750842
0.037089542 0.10104221 0.85866666
0.0086752772 0.10558207 0.8598668
0.012089557 0.10653689 0.85834295
0.016866704 0.10640316 0.85841674
0.02150625 0.10559025 0.8599335
0.01781046 0.028884022 0.86221999
0.022363596 0.028878331 0.86205006
0.0280794 0.028970452 0.86480021
0.037726011 0.028947003 0.86410022
0.045805 0.028960396 0.86450005
0.0026750541 0.033345431 0.86354697
0.011937767 0.032152385 0.8638519
0.017055463 0.031923272 0.86201322
0.02477226 0.031279705 0.86196679
0.02768892 0.03146673 0.86268675
0.032848269 0.032921325 0.86296678
0.037682969 0.03212364 0.8631112
0.042517174 0.032328427 0.8632251
0.047040433 0.031617526 0.86180967
-0.0057585724 0.036808476 0.86000001
-0.0029517284 0.035608649 0.86000001
0.0025863803 0.035904862 0.86135626
0.007289975 0.03669183 0.86199594
0.011576359 0.035888296 0.86096001
0.015895393 0.035211436 0.86006683
0.033537239 0.035208706 0.86000019
0.037547018 0.035208706 0.86000019
0.042358752 0.035208706 0.86000019
-0.0033599101 0.078566492 0.86180007
-0.0013528845 0.081464596 0.86278123
0.0022637425 0.082191542 0.86114377
-0.0057853563 0.085195877 0.86400002
-0.0009508768 0.085163005 0.86366671
0.0018070735 0.087360725 0.86269629
0.061605688 0.089600779 0.86000019
0.0038840512 0.090044893 0.86426324
0.052837916 0.094495147 0.86086679
0.057145949 0.093457498 0.86183816
0.062129151 0.092945471 0.86282003
0.065032214 0.093916386 0.86290228
0.0054782154 0.09937007 0.86148
0.043170936 0.099222392 0.86020017
0.047555119 0.098693177 0.8611601
0.05215501 0.097922407 0.86284298
0.056275535 0.096485376 0.8643502
0.0032341692 0.10307951 0.86302292
0.0054725711 0.10086855 0.8605926
0.027923554 0.10399865 0.86000019
0.032735288 0.10399865 0.86000019
0.037896659 0.10343596 0.86064017
0.042481024 0.10269421 0.86246669
0.047052685 0.10187831 0.86372006
0.006893375 0.10775006 0.86281252
0.011087338 0.10884857 0.86040014
0.018721893 0.10851606 0.86093342
0.023357688 0.10760687 0.86165839
0.027772876 0.1070445 0.86243808
0.032830358 0.10670623 0.86248332
0.036870703 0.10595861 0.86293328
0.0081705125 0.11132131 0.86302227
0.011916861 0.11230571 0.86235559
0.016555909 0.11220402 0.86311668
0.020812079 0.1109625 0.86440015
0.01195078 0.11583999 0.86480021
0.0071152505 0.028982926 0.86517256
0.024902534 0.029027401 0.86650014
0.028145561 0.028070822 0.86683095
0.033013385 0.028247721 0.86732227
0.037848793 0.028072441 0.86690664
0.042408258 0.028417269 0.86759341
0.0071152803 0.03220218 0.86518204
0.029706009 0.030593278 0.86520016
0.032992411 0.03064868 0.86676687
0.042634569 0.030607425 0.86560017
-0.0035404402 0.08254391 0.86651957
-0.0027776598 0.087378554 0.86771876
-0.0021144932 0.091909565 0.86885816
0.0020465385 0.092371419 0.86669731
-0.0025798173 0.095475756 0.86979997
0.0024414391 0.097186841 0.86774188
0.057666715 0.098001614 0.86709177
0.062163245 0.097675979 0.86777741
0.065328501 0.096762598 0.86683339
-0.00095674873 0.10347049 0.86900002
0.001310251 0.10145105 0.86832315
0.04756926 0.10407311 0.86728346
0.052414019 0.10190403 0.8671279
0.056606643 0.10028744 0.86943328
-0.0025774445 0.105087 0.86900002
0.0034928843 0.10771772 0.86740494
0.028924763 0.10955067 0.86595011
0.033011422 0.10971019 0.86721128
0.038261335 0.10767726 0.86707509
0.041986059 0.10668714 0.86886674
0.048463631 0.10506283 0.86879992
0.050956272 0.1051918 0.86986673
0.0038997603 0.11139363 0.86775863
0.0068063913 0.11322822 0.86696672
0.018427763 0.11438977 0.86600012
0.022840722 0.11335702 0.86795342
0.027796607 0.11189936 0.86855
0.03308529 0.11157582 0.86917776
0.036349904 0.11002927 0.86973327
0.0079544764 0.11717981 0.86876673
0.01199123 0.11804638 0.86770415
0.016655618 0.11772644 0.868325
0.020656129 0.11696253 0.86915547
-0.0042078025 0.092367031 0.87100005
-0.0016095297 0.097571224 0.87116992
-0.0017702727 0.1012336 0.87061435
0.054263238 0.10369278 0.87086689
0.057819601 0.10267118 0.87200946
0.062459607 0.10219839 0.87192589
-0.0013665023 0.10711118 0.87231255
0.0010713346 0.1073648 0.87108344
0.043376092 0.10833672 0.87238342
0.047478024 0.10760453 0.87302494
0.052747883 0.10634425 0.87267488
0.056058541 0.10563522 0.87353319
0.0020218196 0.11199681 0.87244815
0.028260969 0.11388844 0.87037796
0.033165652 0.11346763 0.87128901
0.038087379 0.11198743 0.87237149
0.042250603 0.11061338 0.87434983
0.0039284388 0.11627832 0.8741402
0.0065158755 0.11802713 0.87144679
0.01852423 0.11984669 0.87053353
0.022317611 0.11879476 0.8707335
0.027586354 0.11696322 0.87183714
0.032161314 0.11591511 0.87344438
0.0082690492 0.12241438 0.87344438
0.01204757 0.1224575 0.87182218
0.016926663 0.12246373 0.8718667
0.021800762 0.12278838 0.87170488
0.025740618 0.12148424 0.87298661
0.012488039 0.12563923 0.87421662
0.016962409 0.12515998 0.87371093
0.021443345 0.12597547 0.87372494
0.025135325 0.12528728 0.87459999
0.048858196 0.10917592 0.87586677
0.053436317 0.10894363 0.87727505
0.057982329 0.10753912 0.8780055
0.062124349 0.10707586 0.87868345
0.00066971988 0.1141535 0.87655568
0.039870214 0.11405511 0.87580007
0.043455899 0.11311285 0.87750953
0.048004009 0.11262391 0.87892497
0.052042555 0.11175853 0.87908882
0.0017613481 0.11646927 0.87761956
0.032681178 0.11795776 0.87574005
0.037246842 0.11762466 0.87811869
0.04169856 0.11759132 0.87991089
0.0064055156 0.12258625 0.87857127
0.028039871 0.12265809 0.87615013
0.031792734 0.1225432 0.87824452
0.036287934 0.12247825 0.879457
0.040061425 0.12114996 0.87999976
0.0088536339 0.12734297 0.87754458
0.01179106 0.12823588 0.87696016
0.017018827 0.1280207 0.87660021
0.022339843 0.1284783 0.8769418
0.026612172 0.12747715 0.87847227
0.031851921 0.12604657 0.87989974
0.01214601 0.13245513 0.87897408
0.017064277 0.13245139 0.87894815
0.021753183 0.13201748 0.87917137
0.026107285 0.13095188 0.87986648
0.013802042 0.13588263 0.87999976
0.015443257 0.13588263 0.87999976
0.058984894 0.10978256 0.88073313
0.062344514 0.10991465 0.88179284
0.05261166 0.11378833 0.88129985
0.057460248 0.1120612 0.88255006
0.062545232 0.11191426 0.88463348
0.0023185476 0.11902874 0.88248384
0.043389231 0.11854825 0.88093328
0.046713818 0.11782432 0.88164997
0.051447928 0.11741175 0.88389337
0.0039769108 0.12182812 0.8849259
0.0056077158 0.12386449 0.88184476
0.03842748 0.12362893 0.88016641
0.041811224 0.12310281 0.88226187
0.046856105 0.12064994 0.88433343
0.0072536804 0.12799029 0.8820042
0.028594583 0.12861405 0.88066649
0.031908635 0.12838031 0.88146651
0.036852725 0.12795313 0.88174808
0.040757913 0.12707013 0.88322228
0.0088980254 0.13290234 0.88194448
0.022831269 0.13426091 0.88009965
0.027244762 0.13345428 0.88249522
0.031986926 0.13150923 0.8836112
0.035325456 0.13167129 0.88470012
0.0089254882 0.13660321 0.8846668
0.011980863 0.1380312 0.88195407
0.017324958 0.13800502 0.88178742
0.022087051 0.13801201 0.8831408
0.025963256 0.13709013 0.88426679
0.013204964 0.14275056 0.8840068
0.016696276 0.14288659 0.88426679
0.020477973 0.14156151 0.88480008
0.013878371 0.14651026 0.88486677
0.05764138 0.11364973 0.88533342
0.061845701 0.11378952 0.8864221
0.065758176 0.11333489 0.88715553
-0.00097546534 0.11867969 0.8860001
0.053511478 0.11858596 0.88529998
0.056978252 0.11727747 0.88785177
0.061986964 0.11735724 0.88845909
0.066167839 0.11742388 0.88896662
-0.00097843783 0.12152107 0.88870001
0.0018597804 0.12242609 0.88755083
0.047280777 0.12298 0.88610649
0.05196064 0.12211487 0.88700712
0.055959899 0.12131679 0.8892222
-0.0009796333 0.12580749 0.88978571
0.0026662052 0.12627867 0.88843793
0.005632916 0.12771684 0.88580769
0.043213442 0.12729472 0.88573331
0.047003251 0.12707984 0.88711083
0.05205483 0.12729448 0.88860732
0.0062996335 0.13231096 0.88677943
0.032058373 0.13345264 0.88560009
0.037370097 0.13289036 0.88623989
0.042025972 0.13198563 0.8868072
0.047098875 0.13229926 0.88891846
0.051880401 0.1321305 0.88917506
0.007294198 0.13697907 0.88710654
0.027518878 0.13840495 0.88566667
0.032098964 0.13692093 0.88671833
0.037118971 0.13713859 0.88812572
0.042122666 0.13725035 0.88885188
0.047103126 0.13561867 0.889
0.051284827 0.13571531 0.88963342
0.0081322091 0.14210376 0.88818312
0.011144638 0.14344199 0.88625544
0.01883987 0.14329913 0.88536662
0.022492781 0.14276865 0.8861599
0.02735373 0.142124 0.8870247
0.03216435 0.14215712 0.88851839
0.036605664 0.14169477 0.88907772
0.040471125 0.14057976 0.889
0.008139939 0.14719518 0.88899994
0.011703558 0.1473877 0.88684422
0.017442336 0.14721124 0.88625228
0.022191426 0.14691573 0.88731086
0.027196689 0.14713636 0.8886444
0.032189872 0.14640641 0.88923335
0.012271766 0.1520052 0.88811839
0.017226743 0.15186729 0.88731074
0.022226134 0.1521042 0.88869619
0.026800726 0.15095782 0.88925004
0.0083105993 0.1568756 0.8895067
0.012279395 0.15705173 0.88862962
0.017254846 0.15707535 0.88876289
0.021768747 0.15694451 0.88936192
0.012952797 0.16147467 0.88932008
0.017263131 0.16128764 0.88920003
0.020589072 0.16053255 0.88959998
-0.0026413484 0.12260173 0.89054543
0.057712752 0.12317226 0.89067799
0.062164087 0.12266329 0.89099282
0.066716634 0.12273908 0.89154297
-0.00098298863 0.12789921 0.89283329
0.0019273408 0.1290475 0.89215976
0.057206824 0.12769663 0.89141506
0.062293395 0.12790203 0.89284104
0.067292012 0.12790714 0.8928827
0.0031740193 0.13267663 0.89145356
0.053845935 0.13424124 0.89083356
0.056789715 0.13243908 0.89357811
0.060738299 0.13146098 0.89446694
0.068217091 0.1314071 0.89410019
0.003343604 0.1378078 0.89246446
0.0056616962 0.13830617 0.89033341
0.047227602 0.13846378 0.89134461
0.052320521 0.13819197 0.89315581
0.05575449 0.13650346 0.89480019
0.004009983 0.14276057 0.89228493
0.0056658708 0.14255293 0.89099026
0.038338866 0.14362989 0.89082241
0.042443242 0.14279906 0.8912335
0.047120251 0.14270702 0.89325023
0.050732929 0.1414548 0.89453369
0.0040147942 0.14791667 0.89335555
0.0056687868 0.14760041 0.8914488
0.032241698 0.14912744 0.8906669
0.037266165 0.14763084 0.89162987
0.041877251 0.1477405 0.89372891
0.04574842 0.1465123 0.89493358
0.0078039328 0.15279265 0.89133406
0.027598221 0.1534754 0.89090014
0.032315597 0.15279029 0.89269662
0.036943205 0.15174468 0.89388359
0.040735181 0.151484 0.89480019
0.0060908413 0.15815456 0.89252931
0.023935063 0.15823403 0.89063346
0.027331822 0.15782817 0.89302254
0.031538025 0.1563842 0.89426702
0.007883044 0.16194344 0.89129281
0.01148313 0.16329184 0.89110851
0.017290665 0.16402645 0.8906002
0.022503201 0.16273502 0.89146274
0.027152294 0.16278479 0.8940171
0.030717727 0.16311117 0.89466691
0.0090185748 0.16629568 0.89389294
0.012884962 0.16711675 0.89235574
0.017295185 0.16738796 0.89085579
0.022326395 0.16772848 0.89266694
0.026541725 0.16807592 0.89451694
0.014035209 0.17147078 0.89486682
0.017333979 0.17275304 0.89288545
0.022146601 0.17273077 0.89385039
0.01835674 0.17762697 0.89401376
0.021886474 0.17775428 0.89417654
-0.0009857869 0.1299289 0.89537507
0.065786988 0.12988415 0.89506686
-0.00098904409 0.13202927 0.89833337
0.00068483088 0.13256915 0.89633334
0.058294758 0.13409141 0.89536673
0.062843278 0.1326769 0.89593333
0.066419132 0.13281088 0.8960889
0.0011037139 0.13738164 0.89782214
0.054146122 0.13998871 0.89580005
0.058144823 0.13744982 0.89735013
0.06244288 0.13678207 0.89798772
0.067396186 0.13643132 0.8979724
0.001354561 0.14225556 0.89748418
0.049112149 0.14492314 0.89540011
0.052811783 0.14265919 0.8958267
0.057115447 0.14155659 0.8987003
0.0023600233 0.14696038 0.897672
0.04410236 0.14825429 0.89540011
0.047797732 0.14765416 0.89579999
0.052568544 0.14691204 0.89737058
0.003475622 0.151969 0.89766669
0.0057051107 0.15272009 0.89716089
0.037441369 0.15388264 0.89584446
0.043016925 0.1522391 0.89597774
0.047527175 0.15185612 0.89699268
0.052418988 0.15188557 0.89840436
0.0040331627 0.15693961 0.89744276
0.032844268 0.1578961 0.89576662
0.037681531 0.15699655 0.89657509
0.042548686 0.15701084 0.89784843
0.047397573 0.1569161 0.89850026
0.050997596 0.15557423 0.89920032
0.0040298887 0.16014837 0.89671427
0.029066473 0.16487364 0.89520007
0.032433022 0.16186453 0.8959555
0.037485398 0.16184507 0.89687419
0.042560022 0.16206449 0.89808917
0.045976765 0.16062801 0.89940012
0.0073680966 0.16500564 0.89591676
0.011544265 0.16915958 0.89585179
0.02782828 0.16786909 0.89563334
0.032642573 0.16689137 0.89597499
0.037480149 0.16682683 0.89674824
0.042568188 0.16710752 0.89825588
0.012402106 0.17240265 0.89755613
0.024061386 0.17489113 0.89533335
0.027656285 0.17213836 0.89586669
0.032445233 0.17174216 0.89628148
0.037517045 0.17200483 0.89765209
0.042364687 0.17193392 0.89837521
0.01366657 0.17710277 0.8981002
0.016280107 0.17834584 0.89595556
0.024073031 0.17914163 0.89576662
0.027424151 0.17670432 0.89608139
0.032479614 0.17692798 0.89721501
0.037530996 0.17708105 0.89799285
0.042094402 0.17691414 0.89835739
0.014107877 0.18072477 0.89950025
0.017169289 0.18231739 0.89675248
0.022164127 0.18283235 0.8957715
0.027431244 0.18174985 0.89630371
0.032503117 0.18207145 0.89788914
0.037331764 0.18193068 0.89822525
0.040926371 0.18062431 0.89900023
0.017883429 0.18657744 0.89661425
0.022617189 0.18689683 0.89599991
0.027444245 0.1868384 0.89671856
0.032507792 0.18710989 0.89802253
0.036721446 0.18724473 0.89866692
0.018411722 0.19150734 0.89671338
0.022410039 0.19170289 0.89606655
0.027460383 0.19195493 0.89724457
0.031509858 0.1918294 0.89822024
0.018681584 0.19663002 0.89763355
0.022432668 0.19690472 0.89697784
0.027271125 0.19690192 0.89792109
0.019130338 0.20153263 0.89901692
0.022469481 0.20140539 0.8984502
0.026401689 0.20129466 0.8992002
0.064478211 0.13898636 0.90010035
0.066156909 0.13898636 0.90010035
0.05891734 0.14353664 0.90063363
0.062851392 0.14245288 0.90084487
0.066893741 0.14213903 0.90098029
0.057830732 0.14752942 0.90114474
0.062906601 0.14761065 0.90163732
0.066230074 0.14752108 0.90109521
0.054440282 0.15415257 0.90066695
0.057933316 0.15282856 0.90273708
0.062763318 0.15239938 0.90303802
0.066273823 0.15181214 0.90169048
0.049422953 0.1592495 0.90106696
0.053027697 0.15788037 0.90162098
0.047965258 0.16285226 0.90129197
0.052407514 0.16268168 0.90283805
0.04778355 0.16777115 0.90182239
0.052075554 0.16805512 0.90335006
0.04434862 0.174206 0.90040028
0.047636572 0.17282355 0.90302086
0.052144848 0.17164361 0.90455002
0.011625968 0.17751031 0.90230072
0.044368327 0.17847265 0.90080035
0.04700613 0.17808084 0.90306109
0.013136816 0.18324086 0.90200055
0.039323945 0.18431683 0.90070033
0.042919811 0.1829613 0.90124196
0.047035936 0.18323617 0.9036333
0.014161712 0.1872938 0.90293205
0.01582231 0.18869424 0.90160024
0.039338011 0.18773498 0.90102249
0.042762727 0.18801147 0.90234822
0.047075726 0.18759713 0.90440005
0.016377961 0.19283354 0.90135568
0.033858433 0.19307745 0.90053362
0.037487935 0.19275776 0.90197515
0.042486764 0.19231455 0.90363997
0.016507234 0.19740602 0.90233278
0.029222328 0.1992411 0.90000015
0.032643005 0.19794734 0.90172982
0.037429366 0.19701535 0.90361327
0.041172218 0.19516815 0.90439999
0.018067421 0.202987 0.90176678
0.022535384 0.2045083 0.90107816
0.027938556 0.20335317 0.90190017
0.03230663 0.20224725 0.90408331
0.018371405 0.20661265 0.90295005
0.022564998 0.20729239 0.90225011
0.027106829 0.20686577 0.9040556
0.022619314 0.21030937 0.90440005
0.058161449 0.15764509 0.90629464
0.063250892 0.15685055 0.90657169
0.066979267 0.15756524 0.90744966
0.054764681 0.16349809 0.90603358
0.058253005 0.16211545 0.90772629
0.062497925 0.16214819 0.90791154
0.066748701 0.16219044 0.90814847
0.070148796 0.16222061 0.90831608
0.054772735 0.1668936 0.90616685
0.05827041 0.1672311 0.90800041
0.062512472 0.16725369 0.9081226
0.066788077 0.16735491 0.90867436
0.070273735 0.16758721 0.90993327
0.053754043 0.17260788 0.90608013
0.05827041 0.17229827 0.90800041
0.062533118 0.17237882 0.90842247
0.066769287 0.17237824 0.90842259
0.070273735 0.17266504 0.90993327
0.009168556 0.17920403 0.90875882
0.049689919 0.17696179 0.90593338
0.053079046 0.17699431 0.90610003
0.057790276 0.17713521 0.90805757
0.061975468 0.17788129 0.90955848
0.066853791 0.17767406 0.90957779
0.070273563 0.17689639 0.90993094
0.0091743544 0.18439201 0.90933335
0.010832327 0.18206288 0.90615922
0.04969174 0.18202396 0.90596676
0.053101495 0.1821264 0.90647435
0.057527702 0.18276346 0.90964442
0.061790638 0.18282707 0.90996289
0.065866277 0.18249589 0.90999997
0.0091745509 0.18608752 0.9093529
0.011691949 0.18778719 0.90734291
0.049693573 0.18708676 0.90600008
0.053129412 0.18728119 0.906941
0.05754878 0.18790822 0.90997767
0.061793089 0.18791279 0.90999997
0.066035986 0.18791278 0.90999991
0.013547583 0.19235587 0.90700305
0.044594895 0.19369973 0.9054001
0.047996446 0.19211239 0.9058556
0.053167768 0.19248238 0.90760028
0.057550162 0.19299109 0.90999991
0.061227363 0.19242685 0.90999991
0.065187424 0.19214471 0.90999991
0.073630027 0.19456974 0.90946692
0.014225146 0.19656746 0.9069767
0.039546616 0.19799781 0.9058001
0.043148939 0.19742224 0.90605843
0.048038118 0.19733953 0.90664458
0.053002775 0.19751194 0.9084087
0.015906205 0.20233922 0.90638071
0.033613019 0.20376748 0.90523338
0.03786299 0.20224008 0.9059335
0.042984694 0.20248616 0.90703368
0.048121385 0.20274894 0.90821147
0.051526953 0.20113023 0.90853369
0.016482892 0.20814203 0.90717793
0.028571639 0.2081461 0.90596676
0.032827955 0.20750862 0.90685952
0.037929211 0.20765901 0.9075188
0.042856537 0.20774166 0.9088043
0.046491377 0.20641226 0.90946674
0.017821291 0.2124247 0.90714604
0.02264984 0.21312733 0.90565008
0.027767373 0.21266438 0.90726691
0.032332774 0.21246044 0.90880018
0.037151549 0.2114256 0.90919995
0.041427139 0.21161164 0.90999991
0.018917996 0.21771432 0.90897518
0.022698667 0.21781187 0.90761882
0.026792794 0.21772659 0.90867364
0.071995266 0.1676441 0.9102428
0.072023854 0.1727919 0.9106043
0.0080687283 0.17735301 0.91228992
0.070410185 0.17978409 0.91170001
0.0075023705 0.18165839 0.9126035
0.068213902 0.18340836 0.91074997
0.070493862 0.18254443 0.91278338
0.0091872886 0.18803981 0.91061538
0.010896456 0.18822743 0.91152394
0.06861186 0.18799545 0.91039991
0.071124241 0.18774045 0.91151422
0.0092106741 0.19021672 0.91293335
0.011312339 0.19316342 0.91081154
0.062952377 0.19420512 0.91039991
0.067476153 0.19306581 0.91034991
0.071147524 0.19304533 0.91025549
0.057100672 0.19793697 0.91094655
0.061990753 0.197851 0.91289455
0.067137219 0.19669357 0.91343355
0.070577517 0.197211 0.91386688
0.052802552 0.20281643 0.91104442
0.056904271 0.20188899 0.913239
0.06123019 0.20069878 0.91426682
0.047691688 0.20784229 0.91078883
0.052009825 0.20749092 0.91327929
0.055250254 0.20575592 0.91406691
0.034653734 0.21339813 0.91039997
0.038519323 0.2132249 0.91146666
0.043577619 0.21251062 0.91240007
0.04698379 0.21243739 0.91354465
0.050139677 0.21087235 0.91413361
0.016445467 0.21780556 0.91290009
0.029565962 0.21767627 0.91058332
0.0058224252 0.17714787 0.91560954
0.0075282585 0.18306649 0.91539168
0.067301489 0.19930279 0.91566688
0.072527558 0.19873528 0.91697502
0.057904616 0.2043978 0.9156003
0.062485702 0.20340434 0.91660011
0.067238741 0.20295227 0.91772485
0.072270811 0.2017667 0.91913325
0.057141677 0.20784573 0.91703874
0.062344473 0.2075216 0.91811651
0.067154646 0.20697887 0.91949999
0.01439699 0.21345638 0.91793346
0.048480716 0.21447644 0.91500038
0.052122634 0.21305141 0.91527534
0.057450373 0.21210827 0.91856241
0.061740428 0.21138521 0.91931999
0.073964857 0.20324522 0.92066669
0.06882786 0.20842649 0.9208557
0.072784193 0.20753562 0.92292082
