# .PCD v0.7 - Point Cloud Data file format
VERSION 0.7
FIELDS x y z
SIZE 4 4 4
TYPE F F F
COUNT 1 1 1
WIDTH 1290
HEIGHT 1
VIEWPOINT 0 0 0 1 0 0 0
POINTS 1290
DATA ascii
-0.034675568 -0.010828085 0.13925397
-0.034944996 -0.0090856403 0.13925397
-0.035348743 -0.0073432028 0.13751152
-0.035613924 -0.0056007653 0.13751152
-0.035283424 -0.0073432028 0.13925397
-0.035494417 -0.0056007653 0.13925397
-0.034785517 -0.010828085 0.1409964
-0.034985185 -0.0090856403 0.1409964
-0.034750327 -0.010828085 0.14273885
-0.035042822 -0.0090856403 0.14273885
-0.035119258 -0.0073432028 0.1409964
-0.035209917 -0.0056007653 0.1409964
-0.03517893 -0.0073432028 0.14273885
-0.035296254 -0.0056007653 0.14273885
-0.036034413 -0.000373438 0.13925397
-0.035883456 -0.0020215288 0.13925397
-0.035883456 -0.000373438 0.13788453
-0.035883456 0.00078286976 0.13925397
-0.035934448 -0.0021158829 0.14273885
-0.035883456 -0.0026909113 0.14273885
-0.035883456 -0.0021158829 0.14211452
-0.03609021 -0.000373438 0.1409964
-0.035883456 -0.0019159466 0.1409964
-0.036134221 0.0013689995 0.1409964
-0.035883456 0.0013689995 0.14013419
-0.036098905 -0.000373438 0.14273885
-0.036203332 0.0013689995 0.14273885
-0.035560027 -0.0038583204 0.13751152
-0.035659052 -0.0021158829 0.13751152
-0.035585031 -0.0038583204 0.13925397
-0.03586375 -0.0021158829 0.13925397
-0.035827711 -0.000373438 0.13751152
-0.035669401 0.0013689995 0.13751152
-0.035761006 0.0013689995 0.13925397
-0.035525531 -0.0038583204 0.1409964
-0.035849862 -0.0021158829 0.1409964
-0.035672277 -0.0038583204 0.14273885
-0.029779747 -0.021282725 0.14448127
-0.028913692 -0.022803299 0.14448127
-0.030686654 -0.019540288 0.14448127
-0.030656137 -0.019591197 0.14448127
-0.029748887 -0.021282725 0.14622372
-0.028913692 -0.022818446 0.14622372
-0.030748509 -0.019540288 0.14622372
-0.030656137 -0.019682392 0.14622372
-0.02981022 -0.021282725 0.14796618
-0.028913692 -0.022596262 0.14796618
-0.030772522 -0.019540288 0.14796618
-0.030656137 -0.019770369 0.14796618
-0.029650949 -0.021282725 0.1497086
-0.028913692 -0.02228222 0.1497086
-0.030780636 -0.019540288 0.1497086
-0.030656137 -0.019781932 0.1497086
-0.032431886 -0.016055405 0.14448127
-0.032398574 -0.016130544 0.14448127
-0.032412834 -0.016055405 0.14622372
-0.032398574 -0.016090572 0.14622372
-0.031632997 -0.017797843 0.14448127
-0.031689435 -0.017797843 0.14622372
-0.033223338 -0.014312968 0.14448127
-0.034141012 -0.012570523 0.14320248
-0.034035936 -0.012570523 0.14448127
-0.033199005 -0.014312968 0.14622372
-0.034079395 -0.012570523 0.14622372
-0.032442845 -0.016055405 0.14796618
-0.032398574 -0.016147271 0.14796618
-0.032518335 -0.016055405 0.1497086
-0.032398574 -0.016320698 0.1497086
-0.031605192 -0.017797843 0.14796618
-0.031671308 -0.017797843 0.1497086
-0.03330604 -0.014312968 0.14796618
-0.034150802 -0.012570523 0.14796618
-0.034141012 -0.012592189 0.14796618
-0.034141012 -0.012570523 0.14699623
-0.033305466 -0.014312968 0.1497086
-0.034141012 -0.012570523 0.14824635
-0.034033664 -0.012570523 0.1497086
-0.029521316 -0.021282725 0.15145105
-0.028913692 -0.022079751 0.15145105
-0.03088256 -0.019540288 0.15145105
-0.030656137 -0.019876659 0.15145105
-0.029603198 -0.021282725 0.15319347
-0.028913692 -0.022052363 0.15319347
-0.031006239 -0.019540288 0.15319347
-0.030656137 -0.02004616 0.15319347
-0.029836439 -0.021282725 0.15493593
-0.028913692 -0.022128828 0.15493593
-0.031157196 -0.019540288 0.15493593
-0.030656137 -0.020333976 0.15493593
-0.029992156 -0.021282725 0.15667838
-0.028913692 -0.022321843 0.15667838
-0.031155996 -0.019540288 0.15667838
-0.030656137 -0.020426378 0.15667838
-0.03260272 -0.016055405 0.15145105
-0.032398574 -0.016590282 0.15145105
-0.032690816 -0.016055405 0.15319347
-0.032398574 -0.016781993 0.15319347
-0.031872407 -0.017797843 0.15145105
-0.031960018 -0.017797843 0.15319347
-0.033259824 -0.014312968 0.15145105
-0.033897586 -0.012570523 0.15145105
-0.033352144 -0.014312968 0.15319347
-0.033866473 -0.012570523 0.15319347
-0.032707758 -0.016055405 0.15493593
-0.032398574 -0.016881965 0.15493593
-0.032822974 -0.016055405 0.15667838
-0.032398574 -0.01719676 0.15667838
-0.03202989 -0.017797843 0.15493593
-0.03211356 -0.017797843 0.15667838
-0.033373155 -0.014312968 0.15493593
-0.033950403 -0.012570523 0.15493593
-0.033375733 -0.014312968 0.15667838
-0.033938929 -0.012570523 0.15667838
-0.034767076 -0.010828085 0.14448127
-0.034141012 -0.012363434 0.14448127
-0.035050437 -0.0090856403 0.14448127
-0.034817837 -0.010828085 0.14622372
-0.034141012 -0.012455903 0.14622372
-0.035096817 -0.0090856403 0.14622372
-0.035265848 -0.0073432028 0.14448127
-0.035517886 -0.0056007653 0.14448127
-0.035309553 -0.0073432028 0.14622372
-0.035566017 -0.0056007653 0.14622372
-0.034737237 -0.010828085 0.14796618
-0.035060301 -0.0090856403 0.14796618
-0.03471224 -0.010828085 0.1497086
-0.034141012 -0.012299351 0.1497086
-0.035156623 -0.0090856403 0.1497086
-0.035387933 -0.0073432028 0.14796618
-0.035665765 -0.0056007653 0.14796618
-0.035482705 -0.0073432028 0.1497086
-0.035802737 -0.0056007653 0.1497086
-0.035926946 -0.0021158829 0.14448127
-0.035883456 -0.0030201823 0.14448127
-0.035883456 -0.0021158829 0.14483926
-0.035883456 -0.001060389 0.14448127
-0.035883456 -0.000373438 0.14427039
-0.035883456 0.0013689995 0.14398846
-0.035946235 -0.0038583204 0.1497086
-0.035883456 -0.0049367845 0.1497086
-0.035883456 -0.0038583204 0.14867532
-0.035965748 -0.0021158829 0.1497086
-0.035883456 -0.0021158829 0.14883393
-0.036060601 -0.000373438 0.1497086
-0.035883456 -0.000373438 0.14898321
-0.036190845 0.0013689995 0.1497086
-0.035883456 0.0013689995 0.14865479
-0.035756484 -0.0038583204 0.14448127
-0.035729058 -0.0038583204 0.14622372
-0.035687707 -0.0021158829 0.14622372
-0.035815746 -0.000373438 0.14448127
-0.035690777 0.0013689995 0.14448127
-0.035321996 -0.000373438 0.14622372
-0.035282224 0.0013689995 0.14622372
-0.035809167 -0.0038583204 0.14796618
-0.035737053 -0.0021158829 0.14796618
-0.035534702 -0.000373438 0.14796618
-0.035654157 0.0013689995 0.14796618
-0.035926491 -0.0056007653 0.15145105
-0.035883456 -0.0060641468 0.15145105
-0.035883456 -0.0056007653 0.15081823
-0.035920195 -0.0073432028 0.15319347
-0.035883456 -0.0079151243 0.15319347
-0.035883456 -0.0073432028 0.15273035
-0.035958424 -0.0056007653 0.15319347
-0.035883456 -0.0073432028 0.15434802
-0.035919778 -0.0056007653 0.15493593
-0.035883456 -0.0059908479 0.15493593
-0.035887867 -0.0056007653 0.15667838
-0.035883456 -0.0056166127 0.15667838
-0.034814186 -0.010828085 0.15145105
-0.034141012 -0.01203046 0.15145105
-0.035412036 -0.0090856403 0.15145105
-0.034626774 -0.010828085 0.15319347
-0.034141012 -0.011766434 0.15319347
-0.035631388 -0.0090856403 0.15319347
-0.035687491 -0.0073432028 0.15145105
-0.034578525 -0.010828085 0.15493593
-0.034141012 -0.011922725 0.15493593
-0.03547439 -0.0090856403 0.15493593
-0.034543417 -0.010828085 0.15667838
-0.034141012 -0.011921421 0.15667838
-0.03512311 -0.0090856403 0.15667838
-0.035790615 -0.0073432028 0.15493593
-0.035445966 -0.0073432028 0.15667838
-0.035956122 -0.0038583204 0.15145105
-0.036015421 -0.0021158829 0.15145105
-0.035966188 -0.0038583204 0.15319347
-0.036006831 -0.0021158829 0.15319347
-0.036209166 -0.000373438 0.15145105
-0.036505349 0.0013689995 0.15145105
-0.036200099 -0.000373438 0.15319347
-0.036581896 0.0013689995 0.15319347
-0.036078826 -0.0038583204 0.15493593
-0.036139607 -0.0021158829 0.15493593
-0.036167823 -0.0038583204 0.15667838
-0.036333218 -0.0021158829 0.15667838
-0.036267988 -0.000373438 0.15493593
-0.036495529 0.0013689995 0.15493593
-0.036466375 -0.000373438 0.15667838
-0.036609821 0.0013689995 0.15667838
-0.025769569 -0.024767607 0.13054177
-0.025428809 -0.025049992 0.13054177
-0.027643226 -0.023025163 0.13054177
-0.027171254 -0.023515798 0.13054177
-0.025993489 -0.024767607 0.13228419
-0.025428809 -0.0252285 0.13228419
-0.027914286 -0.023025163 0.13228419
-0.027171254 -0.02376847 0.13228419
-0.026193537 -0.024767607 0.13402665
-0.025428809 -0.025440812 0.13402665
-0.027972311 -0.023025163 0.13402665
-0.027171254 -0.023817226 0.13402665
-0.026216552 -0.024767607 0.13576907
-0.025428809 -0.02555865 0.13576907
-0.027929686 -0.023025163 0.13576907
-0.027171254 -0.023787744 0.13576907
-0.026252232 -0.024767607 0.13751152
-0.025428809 -0.025644526 0.13751152
-0.028047293 -0.023025163 0.13751152
-0.027171254 -0.023870513 0.13751152
-0.026349992 -0.024767607 0.13925397
-0.025428809 -0.025802806 0.13925397
-0.028141782 -0.023025163 0.13925397
-0.027171254 -0.023945831 0.13925397
-0.026555844 -0.024767607 0.1409964
-0.025428809 -0.025845163 0.1409964
-0.028113268 -0.023025163 0.1409964
-0.027171254 -0.024083272 0.1409964
-0.026668727 -0.024767607 0.14273885
-0.025428809 -0.025572672 0.14273885
-0.028318778 -0.023025163 0.14273885
-0.027171254 -0.024265565 0.14273885
-0.026540689 -0.024767607 0.14448127
-0.025428809 -0.025393456 0.14448127
-0.02870997 -0.023025163 0.14448127
-0.027171254 -0.024310537 0.14448127
-0.026579008 -0.024767607 0.14622372
-0.025428809 -0.025540158 0.14622372
-0.028745793 -0.023025163 0.14622372
-0.027171254 -0.024345085 0.14622372
-0.023686372 -0.026498877 0.14448127
-0.026600204 -0.024767607 0.14796618
-0.025428809 -0.025723383 0.14796618
-0.028533705 -0.023025163 0.14796618
-0.027171254 -0.024279341 0.14796618
-0.026545435 -0.024767607 0.1497086
-0.025428809 -0.025808148 0.1497086
-0.028329976 -0.023025163 0.1497086
-0.027171254 -0.024183862 0.1497086
-0.026558094 -0.024767607 0.15145105
-0.025428809 -0.025854558 0.15145105
-0.028170303 -0.023025163 0.15145105
-0.027171254 -0.024136871 0.15145105
-0.026620775 -0.024767607 0.15319347
-0.025428809 -0.02591455 0.15319347
-0.028041795 -0.023025163 0.15319347
-0.027171254 -0.024104513 0.15319347
-0.026830524 -0.024767607 0.15493593
-0.025428809 -0.026007712 0.15493593
-0.028125666 -0.023025163 0.15493593
-0.027171254 -0.024366394 0.15493593
-0.02675043 -0.024767607 0.15667838
-0.025428809 -0.026065476 0.15667838
-0.028242558 -0.023025163 0.15667838
-0.027171254 -0.024270363 0.15667838
-0.022244141 -0.02825249 0.1584208
-0.021943934 -0.028352343 0.1584208
-0.024936728 -0.026510045 0.1584208
-0.023686372 -0.027590327 0.1584208
-0.021943934 -0.02825249 0.15962437
-0.024891041 -0.026510045 0.16016325
-0.023686372 -0.02753377 0.16016325
-0.021943934 -0.028217077 0.16016325
-0.025024652 -0.026510045 0.16190568
-0.023686372 -0.027388535 0.16190568
-0.021943934 -0.028190672 0.16190568
-0.022247776 -0.02825249 0.16364813
-0.021943934 -0.028426036 0.16364813
-0.021943934 -0.02825249 0.1626161
-0.025137015 -0.026510045 0.16364813
-0.023686372 -0.027431116 0.16364813
-0.018589258 -0.029994927 0.1584208
-0.018459052 -0.030102536 0.1584208
-0.019084811 -0.029994927 0.16016325
-0.018459052 -0.030403867 0.16016325
-0.015322804 -0.031737365 0.1584208
-0.014974169 -0.031844862 0.1584208
-0.016716614 -0.031213962 0.1584208
-0.01573094 -0.031737365 0.16016325
-0.014974169 -0.032000668 0.16016325
-0.016716614 -0.031322107 0.16016325
-0.020201489 -0.028983451 0.1584208
-0.02178853 -0.02825249 0.16016325
-0.020201489 -0.029027402 0.16016325
-0.019467898 -0.029994927 0.16190568
-0.018459052 -0.030827761 0.16190568
-0.019606099 -0.029994927 0.16364813
-0.018459052 -0.031018905 0.16364813
-0.016258955 -0.031737365 0.16190568
-0.014974169 -0.032136917 0.16190568
-0.016716614 -0.031590246 0.16190568
-0.016490124 -0.031737365 0.16364813
-0.014974169 -0.032179862 0.16364813
-0.016716614 -0.031689219 0.16364813
-0.021767646 -0.02825249 0.16190568
-0.020201489 -0.029230163 0.16190568
-0.020201489 -0.029512309 0.16364813
-0.022527546 -0.02825249 0.16539058
-0.021943934 -0.028594956 0.16539058
-0.025249876 -0.026510045 0.16539058
-0.023686372 -0.027594246 0.16539058
-0.022596046 -0.02825249 0.167133
-0.021943934 -0.02860073 0.167133
-0.025305569 -0.026510045 0.167133
-0.023686372 -0.027623795 0.167133
-0.025434822 -0.026510045 0.17061788
-0.025428809 -0.026515305 0.17061788
-0.025428809 -0.026510045 0.1705687
-0.022823639 -0.02825249 0.16887546
-0.021943934 -0.028737284 0.16887546
-0.025288753 -0.026510045 0.16887546
-0.023686372 -0.027714476 0.16887546
-0.023108065 -0.02825249 0.17061788
-0.021943934 -0.028965548 0.17061788
-0.023686372 -0.027888454 0.17061788
-0.019761637 -0.029994927 0.16539058
-0.018459052 -0.030974582 0.16539058
-0.019784912 -0.029994927 0.167133
-0.018459052 -0.030846417 0.167133
-0.017073207 -0.031737365 0.16539058
-0.016716614 -0.031872973 0.16539058
-0.016716614 -0.031737365 0.1644907
-0.014974169 -0.03238678 0.16539058
-0.017022923 -0.031737365 0.167133
-0.016716614 -0.031940289 0.167133
-0.014974169 -0.032623291 0.167133
-0.020201489 -0.029710405 0.16539058
-0.020201489 -0.029713854 0.167133
-0.02006074 -0.029994927 0.16887546
-0.018459052 -0.030898854 0.16887546
-0.020339221 -0.029994927 0.17061788
-0.020201489 -0.030077644 0.17061788
-0.020201489 -0.029994927 0.16964963
-0.018459052 -0.031021945 0.17061788
-0.016716614 -0.031737365 0.1687375
-0.016697846 -0.031737365 0.16887546
-0.014974169 -0.032337792 0.16887546
-0.016716614 -0.031727366 0.16887546
-0.016822882 -0.031737365 0.17061788
-0.016716614 -0.031777933 0.17061788
-0.016716614 -0.031737365 0.17018533
-0.014974169 -0.032217711 0.17061788
-0.020201489 -0.029894873 0.16887546
-0.0097105727 -0.03347981 0.1584208
-0.0080044121 -0.033844851 0.1584208
-0.010242067 -0.03347981 0.16016325
-0.0097468495 -0.033566028 0.16016325
-0.0097468495 -0.03347981 0.15860364
-0.0080044121 -0.033896297 0.16016325
-0.01077427 -0.03347981 0.16190568
-0.0097468495 -0.033681855 0.16190568
-0.0080044121 -0.034011349 0.16190568
-0.010274097 -0.03347981 0.16364813
-0.0097468495 -0.033632144 0.16364813
-0.0080044121 -0.034153201 0.16364813
-0.0062619671 -0.034055598 0.1584208
-0.0045195296 -0.034300521 0.1584208
-0.0062619671 -0.034184813 0.16016325
-0.0045195296 -0.034384772 0.16016325
-0.0027770847 -0.034630068 0.1584208
-0.0010346472 -0.034678206 0.1584208
-0.0027770847 -0.034573793 0.16016325
-0.0010346472 -0.03458856 0.16016325
-0.0062619671 -0.034290306 0.16190568
-0.0045195296 -0.034460776 0.16190568
-0.0062619671 -0.034478121 0.16364813
-0.0045195296 -0.034679823 0.16364813
-0.0027770847 -0.034563258 0.16190568
-0.0010346472 -0.034604929 0.16190568
-0.0027770847 -0.034662932 0.16364813
-0.0010346472 -0.034691215 0.16364813
-0.013231732 -0.032428421 0.1584208
-0.011489287 -0.033000372 0.1584208
-0.013231732 -0.032611772 0.16016325
-0.011489287 -0.033189923 0.16016325
-0.0097468495 -0.033470526 0.1584208
-0.013231732 -0.032731563 0.16190568
-0.011489287 -0.033302851 0.16190568
-0.013231732 -0.032771915 0.16364813
-0.011489287 -0.033216469 0.16364813
-0.0097468495 -0.03347981 0.16437837
-0.009252198 -0.03347981 0.16539058
-0.0080044121 -0.034049742 0.16539058
-0.0096682012 -0.03347981 0.167133
-0.0080044121 -0.034090549 0.167133
-0.010427706 -0.03347981 0.16887546
-0.0097468495 -0.033708185 0.16887546
-0.0097468495 -0.03347981 0.16726011
-0.0080044121 -0.034215741 0.16887546
-0.010685258 -0.03347981 0.17061788
-0.0097468495 -0.033767894 0.17061788
-0.0080044121 -0.034247607 0.17061788
-0.0062619671 -0.034554601 0.16539058
-0.0045195296 -0.034755819 0.16539058
-0.0062619671 -0.034524344 0.167133
-0.0045195296 -0.034732938 0.167133
-0.0027770847 -0.034764625 0.16539058
-0.0010346472 -0.034816034 0.16539058
-0.0027770847 -0.034838997 0.167133
-0.0010346472 -0.03491801 0.167133
-0.0062619671 -0.034617193 0.16887546
-0.0045195296 -0.034820847 0.16887546
-0.0062619671 -0.034665912 0.17061788
-0.0045195296 -0.034884527 0.17061788
-0.0027770847 -0.034894206 0.16887546
-0.0010346472 -0.034977332 0.16887546
-0.0027770847 -0.034981996 0.17061788
-0.0010346472 -0.035061866 0.17061788
-0.013231732 -0.032705486 0.16539058
-0.011489287 -0.033014119 0.16539058
-0.013231732 -0.032598019 0.167133
-0.011489287 -0.032906234 0.167133
-0.0097468495 -0.033324219 0.16539058
-0.0097468495 -0.033454984 0.167133
-0.013231732 -0.032639153 0.16887546
-0.011489287 -0.033161454 0.16887546
-0.013231732 -0.032655537 0.17061788
-0.011489287 -0.033247709 0.17061788
-0.025581427 -0.026510045 0.17236033
-0.025428809 -0.026645392 0.17236033
-0.025591329 -0.026510045 0.17410278
-0.025428809 -0.026659504 0.17410278
-0.023212679 -0.02825249 0.17236033
-0.021943934 -0.029098339 0.17236033
-0.023686372 -0.027958199 0.17236033
-0.023202293 -0.02825249 0.17410278
-0.021943934 -0.029129855 0.17410278
-0.023686372 -0.027942479 0.17410278
-0.02545771 -0.026510045 0.17584521
-0.025428809 -0.026536353 0.17584521
-0.025428809 -0.026510045 0.17611492
-0.023001619 -0.02825249 0.17584521
-0.021943934 -0.029012516 0.17584521
-0.023686372 -0.027785875 0.17584521
-0.022677369 -0.02825249 0.17758766
-0.021943934 -0.028795645 0.17758766
-0.025261067 -0.026510045 0.17758766
-0.023686372 -0.027563162 0.17758766
-0.020565681 -0.029994927 0.17236033
-0.020201489 -0.030186512 0.17236033
-0.018459052 -0.031163983 0.17236033
-0.020633459 -0.029994927 0.17410278
-0.020201489 -0.030206867 0.17410278
-0.018459052 -0.031207941 0.17410278
-0.017337285 -0.031737365 0.17236033
-0.016716614 -0.031934313 0.17236033
-0.014974169 -0.032212868 0.17236033
-0.017424181 -0.031737365 0.17410278
-0.016716614 -0.031940274 0.17410278
-0.014974169 -0.032218397 0.17410278
-0.020368278 -0.029994927 0.17584521
-0.020201489 -0.030076712 0.17584521
-0.018459052 -0.03108345 0.17584521
-0.020201489 -0.029994927 0.17667508
-0.020002879 -0.029994927 0.17758766
-0.018459052 -0.030835338 0.17758766
-0.016906142 -0.031737365 0.17584521
-0.016716614 -0.031786598 0.17584521
-0.014974169 -0.032242276 0.17584521
-0.016716614 -0.031737365 0.17618185
-0.01581081 -0.031737365 0.17758766
-0.014974169 -0.032055654 0.17758766
-0.016716614 -0.031493254 0.17758766
-0.020201489 -0.02989877 0.17758766
-0.022127621 -0.02825249 0.17933008
-0.021943934 -0.028377242 0.17933008
-0.024626076 -0.026510045 0.17933008
-0.023686372 -0.027150601 0.17933008
-0.021943934 -0.02825249 0.17974079
-0.023932509 -0.026510045 0.18107253
-0.023686372 -0.026721992 0.18107253
-0.021943934 -0.027937308 0.18107253
-0.023686372 -0.026510045 0.18193886
-0.023320265 -0.026510045 0.18281499
-0.021943934 -0.027449325 0.18281499
-0.022577778 -0.026510045 0.18455741
-0.021943934 -0.026981145 0.18455741
-0.019265421 -0.029994927 0.17933008
-0.018459052 -0.030383386 0.17933008
-0.018459052 -0.029994927 0.18077081
-0.014974169 -0.031737365 0.17921066
-0.016716614 -0.031076685 0.17933008
-0.014974169 -0.031707235 0.17933008
-0.018249065 -0.029994927 0.18107253
-0.016716614 -0.030500971 0.18107253
-0.014974169 -0.031185322 0.18107253
-0.020201489 -0.029507659 0.17933008
-0.021392696 -0.02825249 0.18107253
-0.020201489 -0.029024199 0.18107253
-0.018459052 -0.029927395 0.18107253
-0.017268799 -0.029994927 0.18281499
-0.016716614 -0.030160651 0.18281499
-0.014974169 -0.030698098 0.18281499
-0.016716614 -0.029994927 0.18368402
-0.015492886 -0.029994927 0.18455741
-0.014974169 -0.030047528 0.18455741
-0.020749889 -0.02825249 0.18281499
-0.020201489 -0.028682716 0.18281499
-0.018459052 -0.029643685 0.18281499
-0.020201489 -0.02825249 0.1844238
-0.020127028 -0.02825249 0.18455741
-0.018459052 -0.029140569 0.18455741
-0.020201489 -0.028200865 0.18455741
-0.016716614 -0.029715389 0.18455741
-0.01055456 -0.03347981 0.17236033
-0.0097468495 -0.033783607 0.17236033
-0.0080044121 -0.034325145 0.17236033
-0.010978177 -0.03347981 0.17410278
-0.0097468495 -0.033857562 0.17410278
-0.0080044121 -0.034346886 0.17410278
-0.011378497 -0.03347981 0.17584521
-0.0097468495 -0.033823647 0.17584521
-0.0080044121 -0.034166507 0.17584521
-0.010629848 -0.03347981 0.17758766
-0.0097468495 -0.033594385 0.17758766
-0.0080044121 -0.033856444 0.17758766
-0.0062619671 -0.034636229 0.17236033
-0.0045195296 -0.034846395 0.17236033
-0.0062619671 -0.034566119 0.17410278
-0.0045195296 -0.034626365 0.17410278
-0.0027770847 -0.035033301 0.17236033
-0.0010346472 -0.035105444 0.17236033
-0.0027770847 -0.034980573 0.17410278
-0.0010346472 -0.034883223 0.17410278
-0.0062619671 -0.034397095 0.17584521
-0.0045195296 -0.034659155 0.17584521
-0.0062619671 -0.034122266 0.17758766
-0.0045195296 -0.03452827 0.17758766
-0.0027770847 -0.034859076 0.17584521
-0.0010346472 -0.034289084 0.17584521
-0.0027770847 -0.03473334 0.17758766
-0.0010346472 -0.034124911 0.17758766
-0.013231732 -0.032500893 0.17236033
-0.011489287 -0.033109464 0.17236033
-0.013231732 -0.032683566 0.17410278
-0.011489287 -0.033319242 0.17410278
-0.013231732 -0.032932766 0.17584521
-0.011489287 -0.033457331 0.17584521
-0.013231732 -0.03291174 0.17758766
-0.011489287 -0.033378124 0.17758766
-0.0097468495 -0.03347981 0.17826048
-0.0080530196 -0.03347981 0.17933008
-0.0080044121 -0.033482097 0.17933008
-0.0080044121 -0.03347981 0.17934543
-0.0062619671 -0.033669926 0.17933008
-0.0045195296 -0.03392905 0.17933008
-0.0062619671 -0.03347981 0.18029636
-0.0053206533 -0.03347981 0.18107253
-0.0045195296 -0.033551678 0.18107253
-0.0027770847 -0.033996694 0.17933008
-0.0010346472 -0.033988558 0.17933008
-0.0027770847 -0.033555917 0.18107253
-0.0010346472 -0.033617027 0.18107253
-0.0045195296 -0.03347981 0.18154347
-0.0027770847 -0.03347981 0.18171766
-0.0010346472 -0.03347981 0.18158486
-0.014909275 -0.031737365 0.17933008
-0.013231732 -0.032541618 0.17933008
-0.011489287 -0.033058517 0.17933008
-0.013652794 -0.031737365 0.18107253
-0.013231732 -0.031922765 0.18107253
-0.011489287 -0.032685183 0.18107253
-0.0097468495 -0.033331074 0.17933008
-0.0097468495 -0.033076636 0.18107253
-0.0080044121 -0.033219576 0.18107253
-0.013231732 -0.031737365 0.18165812
-0.012379706 -0.031737365 0.18281499
-0.011489287 -0.032237463 0.18281499
-0.013231732 -0.031329565 0.18281499
-0.011489287 -0.031737365 0.18406081
-0.013231732 -0.030638404 0.18455741
-0.011489287 -0.031543322 0.18455741
-0.0097468495 -0.032668643 0.18281499
-0.0080044121 -0.032791108 0.18281499
-0.011002578 -0.031737365 0.18455741
-0.0097468495 -0.03202977 0.18455741
-0.0080044121 -0.032227241 0.18455741
-0.0062619671 -0.033371128 0.18107253
-0.0062619671 -0.033080883 0.18281499
-0.0045195296 -0.033169575 0.18281499
-0.0062619671 -0.032375783 0.18455741
-0.0045195296 -0.032171287 0.18455741
-0.0027770847 -0.033211395 0.18281499
-0.0010346472 -0.03311418 0.18281499
-0.0027770847 -0.032532431 0.18455741
-0.0010346472 -0.032685041 0.18455741
-0.030159988 -0.021282725 0.1584208
-0.028913692 -0.022569336 0.1584208
-0.031236917 -0.019540288 0.1584208
-0.030656137 -0.020577624 0.1584208
-0.030233502 -0.021282725 0.16016325
-0.028913692 -0.022721827 0.16016325
-0.031487204 -0.019540288 0.16016325
-0.030656137 -0.02071318 0.16016325
-0.030279182 -0.021282725 0.16190568
-0.028913692 -0.022796825 0.16190568
-0.031607926 -0.019540288 0.16190568
-0.030656137 -0.020811334 0.16190568
-0.030362777 -0.021282725 0.16364813
-0.028913692 -0.022888489 0.16364813
-0.031562991 -0.019540288 0.16364813
-0.030656137 -0.020905055 0.16364813
-0.032999083 -0.016055405 0.1584208
-0.032398574 -0.017506376 0.1584208
-0.032996938 -0.016055405 0.16016325
-0.032398574 -0.017777093 0.16016325
-0.032246143 -0.017797843 0.1584208
-0.032391712 -0.017797843 0.16016325
-0.033524595 -0.014312968 0.1584208
-0.034022391 -0.012570523 0.1584208
-0.03368859 -0.014312968 0.16016325
-0.0342893 -0.012570523 0.16016325
-0.034141012 -0.013010807 0.16016325
-0.034141012 -0.012570523 0.15911669
-0.032432608 -0.017797843 0.16190568
-0.032398574 -0.017925717 0.16190568
-0.032398574 -0.017797843 0.16028556
-0.032965928 -0.016055405 0.16190568
-0.032460839 -0.017797843 0.16364813
-0.032398574 -0.017952934 0.16364813
-0.033111043 -0.016055405 0.16364813
-0.033757806 -0.014312968 0.16190568
-0.034390897 -0.012570523 0.16190568
-0.034141012 -0.013346948 0.16190568
-0.033848114 -0.014312968 0.16364813
-0.034485132 -0.012570523 0.16364813
-0.034141012 -0.013562031 0.16364813
-0.030306965 -0.021282725 0.16539058
-0.028913692 -0.02287548 0.16539058
-0.031537071 -0.019540288 0.16539058
-0.030656137 -0.020825617 0.16539058
-0.030263133 -0.021282725 0.167133
-0.028913692 -0.022913605 0.167133
-0.031556003 -0.019540288 0.167133
-0.030656137 -0.020746291 0.167133
-0.030185007 -0.021282725 0.16887546
-0.028913692 -0.022973016 0.16887546
-0.031581476 -0.019540288 0.16887546
-0.030656137 -0.020650879 0.16887546
-0.030270264 -0.021282725 0.17061788
-0.028913692 -0.022937812 0.17061788
-0.031736277 -0.019540288 0.17061788
-0.030656137 -0.020830601 0.17061788
-0.032529742 -0.017797843 0.16539058
-0.032398574 -0.018080182 0.16539058
-0.033273108 -0.016055405 0.16539058
-0.032638244 -0.017797843 0.167133
-0.032398574 -0.018269978 0.167133
-0.033401325 -0.016055405 0.167133
-0.033995382 -0.014312968 0.16539058
-0.034619771 -0.012570523 0.16539058
-0.034141012 -0.013949342 0.16539058
-0.034120604 -0.014312968 0.167133
-0.034704335 -0.012570523 0.167133
-0.034141012 -0.014262982 0.167133
-0.032787591 -0.017797843 0.16887546
-0.032398574 -0.018469647 0.16887546
-0.033484869 -0.016055405 0.16887546
-0.032787919 -0.017797843 0.17061788
-0.032398574 -0.018517964 0.17061788
-0.033536464 -0.016055405 0.17061788
-0.034152359 -0.014312968 0.16887546
-0.034141012 -0.01434169 0.16887546
-0.034141012 -0.014312968 0.16771504
-0.034775659 -0.012570523 0.16887546
-0.034201764 -0.014312968 0.17061788
-0.034141012 -0.014476523 0.17061788
-0.03485021 -0.012570523 0.17061788
-0.035883456 -0.0056007653 0.15677273
-0.036061615 -0.0056007653 0.16190568
-0.035883456 -0.0061818287 0.16190568
-0.035883456 -0.0056007653 0.16041073
-0.036202818 -0.0056007653 0.16364813
-0.035883456 -0.0066822395 0.16364813
-0.034560636 -0.010828085 0.1584208
-0.034141012 -0.012193054 0.1584208
-0.034977369 -0.0090856403 0.1584208
-0.034834802 -0.010828085 0.16016325
-0.035160393 -0.0090856403 0.16016325
-0.03526599 -0.0073432028 0.1584208
-0.035753489 -0.0056007653 0.1584208
-0.035432354 -0.0073432028 0.16016325
-0.035839282 -0.0056007653 0.16016325
-0.034949996 -0.010828085 0.16190568
-0.035304889 -0.0090856403 0.16190568
-0.034985065 -0.010828085 0.16364813
-0.035304435 -0.0090856403 0.16364813
-0.035573058 -0.0073432028 0.16190568
-0.03569667 -0.0073432028 0.16364813
-0.036121875 -0.0038583204 0.1584208
-0.035883456 -0.0051883087 0.1584208
-0.036315866 -0.0021158829 0.1584208
-0.03619533 -0.0038583204 0.16016325
-0.035883456 -0.0054471865 0.16016325
-0.036284529 -0.0021158829 0.16016325
-0.036654942 -0.000373438 0.1584208
-0.036904268 0.0013689995 0.1584208
-0.03657607 -0.000373438 0.16016325
-0.036875851 0.0013689995 0.16016325
-0.036391154 -0.0038583204 0.16190568
-0.036444351 -0.0021158829 0.16190568
-0.036577024 -0.0038583204 0.16364813
-0.036716208 -0.0021158829 0.16364813
-0.03646639 -0.000373438 0.16190568
-0.036546513 0.0013689995 0.16190568
-0.036542602 -0.000373438 0.16364813
-0.036332227 0.0013689995 0.16364813
-0.036028303 -0.0073432028 0.16539058
-0.035883456 -0.0078066215 0.16539058
-0.035883456 -0.0073432028 0.16471192
-0.036504842 -0.0056007653 0.16539058
-0.036337264 -0.0073432028 0.167133
-0.035883456 -0.0087648407 0.167133
-0.036808968 -0.0056007653 0.167133
-0.036094874 -0.0090856403 0.16887546
-0.035883456 -0.009651266 0.16887546
-0.035883456 -0.0090856403 0.16773227
-0.036192976 -0.0090856403 0.17061788
-0.035883456 -0.010039538 0.17061788
-0.036523812 -0.0073432028 0.16887546
-0.036704071 -0.0056007653 0.16887546
-0.036455542 -0.0073432028 0.17061788
-0.036534511 -0.0056007653 0.17061788
-0.035072848 -0.010828085 0.16539058
-0.035486192 -0.0090856403 0.16539058
-0.035204671 -0.010828085 0.167133
-0.035775505 -0.0090856403 0.167133
-0.035426222 -0.010828085 0.16887546
-0.035564773 -0.010828085 0.17061788
-0.036749713 -0.0038583204 0.16539058
-0.036779009 -0.0021158829 0.16539058
-0.036869854 -0.0038583204 0.167133
-0.03678377 -0.0021158829 0.167133
-0.036629625 -0.000373438 0.16539058
-0.03648746 0.0013689995 0.16539058
-0.036767274 -0.000373438 0.167133
-0.03672789 0.0013689995 0.167133
-0.036789358 -0.0038583204 0.16887546
-0.036803611 -0.0021158829 0.16887546
-0.03665866 -0.0038583204 0.17061788
-0.036769249 -0.0021158829 0.17061788
-0.03683532 -0.000373438 0.16887546
-0.03687267 0.0013689995 0.16887546
-0.036818326 -0.000373438 0.17061788
-0.036843672 0.0013689995 0.17061788
-0.030192897 -0.021282725 0.17236033
-0.028913692 -0.022754289 0.17236033
-0.031650312 -0.019540288 0.17236033
-0.030656137 -0.020729423 0.17236033
-0.030071348 -0.021282725 0.17410278
-0.028913692 -0.022476457 0.17410278
-0.031515978 -0.019540288 0.17410278
-0.030656137 -0.020624608 0.17410278
-0.030056074 -0.021282725 0.17584521
-0.028913692 -0.022293054 0.17584521
-0.031678468 -0.019540288 0.17584521
-0.030656137 -0.020706922 0.17584521
-0.029695176 -0.021282725 0.17758766
-0.028913692 -0.022099644 0.17758766
-0.031815112 -0.019540288 0.17758766
-0.030656137 -0.020488076 0.17758766
-0.032703869 -0.017797843 0.17236033
-0.032398574 -0.018387094 0.17236033
-0.033566013 -0.016055405 0.17236033
-0.03265965 -0.017797843 0.17410278
-0.032398574 -0.018273346 0.17410278
-0.03351298 -0.016055405 0.17410278
-0.034214996 -0.014312968 0.17236033
-0.034141012 -0.014552206 0.17236033
-0.034817174 -0.012570523 0.17236033
-0.034141012 -0.014312968 0.1740301
-0.034138188 -0.014312968 0.17410278
-0.034772642 -0.012570523 0.17410278
-0.034141012 -0.014304794 0.17410278
-0.032696448 -0.017797843 0.17584521
-0.032398574 -0.01847025 0.17584521
-0.033287019 -0.016055405 0.17584521
-0.032787904 -0.017797843 0.17758766
-0.032398574 -0.01883097 0.17758766
-0.033030853 -0.016055405 0.17758766
-0.033843137 -0.014312968 0.17584521
-0.034422211 -0.012570523 0.17584521
-0.034141012 -0.01343745 0.17584521
-0.033431187 -0.014312968 0.17758766
-0.034141012 -0.012570523 0.1768727
-0.034038827 -0.012570523 0.17758766
-0.028995164 -0.021282725 0.17933008
-0.028913692 -0.021400809 0.17933008
-0.030846544 -0.019540288 0.17933008
-0.030656137 -0.019711912 0.17933008
-0.028913692 -0.021282725 0.17949754
-0.030656137 -0.019540288 0.17954826
-0.030014418 -0.019540288 0.18107253
-0.028913692 -0.02071882 0.18107253
-0.029684089 -0.019540288 0.18281499
-0.028913692 -0.020356365 0.18281499
-0.028913692 -0.019540288 0.18427441
-0.032553822 -0.017797843 0.17933008
-0.032398574 -0.018085763 0.17933008
-0.032864019 -0.016055405 0.17933008
-0.032398574 -0.017797843 0.17963246
-0.032398574 -0.016055405 0.1807065
-0.031433538 -0.017797843 0.18107253
-0.030656137 -0.018854961 0.18107253
-0.032175414 -0.016055405 0.18107253
-0.033237711 -0.014312968 0.17933008
-0.033880852 -0.012570523 0.17933008
-0.033181049 -0.014312968 0.18107253
-0.032398574 -0.015657775 0.18107253
-0.033773087 -0.012570523 0.18107253
-0.030656137 -0.017797843 0.18267933
-0.030604146 -0.017797843 0.18281499
-0.031087101 -0.016055405 0.18281499
-0.030656137 -0.017407753 0.18281499
-0.030155472 -0.017797843 0.18455741
-0.028913692 -0.019325539 0.18455741
-0.030941993 -0.016055405 0.18455741
-0.030656137 -0.016528472 0.18455741
-0.032563768 -0.014312968 0.18281499
-0.032398574 -0.014560424 0.18281499
-0.033344992 -0.012570523 0.18281499
-0.032398574 -0.014312968 0.18308368
-0.032398574 -0.012570523 0.1843563
-0.031834252 -0.014312968 0.18455741
-0.032290615 -0.012570523 0.18455741
-0.035897844 -0.0090856403 0.17236033
-0.035883456 -0.0091517121 0.17236033
-0.035883456 -0.0090856403 0.17243263
-0.036242098 -0.0073432028 0.17236033
-0.036517769 -0.0056007653 0.17236033
-0.036108166 -0.0073432028 0.17410278
-0.035883456 -0.0081277937 0.17410278
-0.03654597 -0.0056007653 0.17410278
-0.035920627 -0.0073432028 0.17584521
-0.035883456 -0.0075045377 0.17584521
-0.036465302 -0.0056007653 0.17584521
-0.035883456 -0.0073432028 0.17632917
-0.036200136 -0.0056007653 0.17758766
-0.035883456 -0.0072924346 0.17758766
-0.035454512 -0.010828085 0.17236033
-0.03530857 -0.010828085 0.17410278
-0.035674654 -0.0090856403 0.17410278
-0.035121582 -0.010828085 0.17584521
-0.035624273 -0.0090856403 0.17584521
-0.034861423 -0.010828085 0.17758766
-0.034141012 -0.012297668 0.17758766
-0.035605952 -0.0090856403 0.17758766
-0.035878204 -0.0073432028 0.17758766
-0.036694512 -0.0038583204 0.17236033
-0.036768429 -0.0021158829 0.17236033
-0.036749348 -0.0038583204 0.17410278
-0.036779128 -0.0021158829 0.17410278
-0.036764167 -0.000373438 0.17236033
-0.036716804 0.0013689995 0.17236033
-0.036777228 -0.000373438 0.17410278
-0.036722183 0.0013689995 0.17410278
-0.036743678 -0.0038583204 0.17584521
-0.036783345 -0.0021158829 0.17584521
-0.036473244 -0.0038583204 0.17758766
-0.036631852 -0.0021158829 0.17758766
-0.036948003 -0.000373438 0.17584521
-0.036872454 0.0013689995 0.17584521
-0.03684295 -0.000373438 0.17758766
-0.036748432 0.0013689995 0.17758766
-0.035891145 -0.0056007653 0.17933008
-0.035883456 -0.0057920665 0.17933008
-0.035883456 -0.0056007653 0.17936617
-0.034693204 -0.010828085 0.17933008
-0.034141012 -0.011936992 0.17933008
-0.03553804 -0.0090856403 0.17933008
-0.034477077 -0.010828085 0.18107253
-0.034141012 -0.011537828 0.18107253
-0.035197429 -0.0090856403 0.18107253
-0.035856299 -0.0073432028 0.17933008
-0.035352826 -0.0073432028 0.18107253
-0.035341769 -0.0056007653 0.18107253
-0.034141012 -0.010828085 0.18261752
-0.03408061 -0.010828085 0.18281499
-0.034337468 -0.0090856403 0.18281499
-0.034141012 -0.010642871 0.18281499
-0.033202074 -0.010828085 0.18455741
-0.032398574 -0.012329631 0.18455741
-0.034141012 -0.0090856403 0.18318179
-0.033587068 -0.0090856403 0.18455741
-0.034574434 -0.0073432028 0.18281499
-0.034561813 -0.0056007653 0.18281499
-0.034141012 -0.0073432028 0.18386617
-0.033723511 -0.0073432028 0.18455741
-0.034151934 -0.0056007653 0.18455741
-0.034141012 -0.0059540346 0.18455741
-0.035980403 -0.0038583204 0.17933008
-0.036319055 -0.0021158829 0.17933008
-0.035883456 -0.0038583204 0.1796656
-0.035883456 -0.0021158829 0.18053859
-0.036684714 -0.000373438 0.17933008
-0.036448881 0.0013689995 0.17933008
-0.036153257 -0.000373438 0.18107253
-0.035883456 -0.0014275238 0.18107253
-0.035883456 0.0013518482 0.18107253
-0.035883456 0.0013689995 0.18106213
-0.035883456 -0.000373438 0.18142718
-0.03525874 -0.0038583204 0.18107253
-0.035537094 -0.0021158829 0.18107253
-0.035876766 0.0013689995 0.18107253
-0.034402691 -0.0038583204 0.18281499
-0.034704089 -0.0021158829 0.18281499
-0.034173355 -0.0038583204 0.18455741
-0.034318008 -0.0021158829 0.18455741
-0.035070531 -0.000373438 0.18281499
-0.035155617 0.0013689995 0.18281499
-0.034418724 -0.000373438 0.18455741
-0.034516849 0.0013689995 0.18455741
-0.026564345 -0.024767607 0.1584208
-0.025428809 -0.02598092 0.1584208
-0.028436974 -0.023025163 0.1584208
-0.027171254 -0.024188355 0.1584208
-0.026695177 -0.024767607 0.16016325
-0.025428809 -0.025967531 0.16016325
-0.028599098 -0.023025163 0.16016325
-0.027171254 -0.02433715 0.16016325
-0.026939161 -0.024767607 0.16190568
-0.025428809 -0.026173554 0.16190568
-0.028685443 -0.023025163 0.16190568
-0.027171254 -0.024536274 0.16190568
-0.027117841 -0.024767607 0.16364813
-0.025428809 -0.026282586 0.16364813
-0.028781347 -0.023025163 0.16364813
-0.027171254 -0.024713665 0.16364813
-0.027168937 -0.024767607 0.16539058
-0.025428809 -0.026368 0.16539058
-0.028771602 -0.023025163 0.16539058
-0.027171254 -0.02476503 0.16539058
-0.027173556 -0.024767607 0.167133
-0.027171254 -0.024770126 0.167133
-0.027171254 -0.024767607 0.16681692
-0.025428809 -0.02641318 0.167133
-0.028806292 -0.023025163 0.167133
-0.027217664 -0.024767607 0.16887546
-0.027171254 -0.024814181 0.16887546
-0.025428809 -0.026399359 0.16887546
-0.028868698 -0.023025163 0.16887546
-0.027270302 -0.024767607 0.17061788
-0.027171254 -0.024869844 0.17061788
-0.028838858 -0.023025163 0.17061788
-0.027252547 -0.024767607 0.17236033
-0.027171254 -0.024854697 0.17236033
-0.028693616 -0.023025163 0.17236033
-0.027171254 -0.024767607 0.17349607
-0.027106278 -0.024767607 0.17410278
-0.028507359 -0.023025163 0.17410278
-0.027171254 -0.024697103 0.17410278
-0.02685339 -0.024767607 0.17584521
-0.028228007 -0.023025163 0.17584521
-0.027171254 -0.024330549 0.17584521
-0.026622064 -0.024767607 0.17758766
-0.025428809 -0.02636949 0.17758766
-0.027944103 -0.023025163 0.17758766
-0.027171254 -0.023865007 0.17758766
-0.026311569 -0.024767607 0.17933008
-0.025428809 -0.025870122 0.17933008
-0.027642094 -0.023025163 0.17933008
-0.027171254 -0.023535617 0.17933008
-0.025730461 -0.024767607 0.18107253
-0.025428809 -0.025092669 0.18107253
-0.027171254 -0.023025163 0.1810053
-0.027148463 -0.023025163 0.18107253
-0.028436497 -0.021282725 0.18107253
-0.027171254 -0.022993952 0.18107253
-0.025428809 -0.024767607 0.18195984
-0.026637308 -0.023025163 0.18281499
-0.025428809 -0.024401307 0.18281499
-0.025858849 -0.023025163 0.18455741
-0.025428809 -0.023555435 0.18455741
-0.02506125 -0.024767607 0.18281499
-0.023686372 -0.026180327 0.18281499
-0.024166979 -0.024767607 0.18455741
-0.023686372 -0.025308311 0.18455741
-0.027954467 -0.021282725 0.18281499
-0.027171254 -0.022209294 0.18281499
-0.027171254 -0.021282725 0.18423003
-0.026961192 -0.021282725 0.18455741
-0.028610729 -0.019540288 0.18455741
-0.027171254 -0.020979546 0.18455741
-0.021958634 -0.026510045 0.18629986
-0.021943934 -0.026522465 0.18629986
-0.021943934 -0.026510045 0.18632618
-0.014974169 -0.029994927 0.18465346
-0.018459052 -0.02825249 0.18594015
-0.020201489 -0.027328603 0.18629986
-0.018459052 -0.027936034 0.18629986
-0.020201489 -0.026510045 0.18711933
-0.018459052 -0.026510045 0.18742201
-0.01797685 -0.02825249 0.18629986
-0.016716614 -0.029014245 0.18629986
-0.014974169 -0.029143237 0.18629986
-0.016716614 -0.02825249 0.18729299
-0.014974169 -0.028285928 0.18804228
-0.013231732 -0.029994927 0.18568313
-0.012672096 -0.029994927 0.18629986
-0.011489287 -0.030818552 0.18629986
-0.011489287 -0.029994927 0.18729556
-0.0097468495 -0.031737365 0.18525475
-0.0080044121 -0.031737365 0.18557942
-0.0097468495 -0.031408228 0.18629986
-0.0080044121 -0.031297006 0.18629986
-0.010440715 -0.029994927 0.18804228
-0.0097468495 -0.030278079 0.18804228
-0.0082463771 -0.029994927 0.18804228
-0.0080044121 -0.029994927 0.18791565
-0.013231732 -0.029569156 0.18629986
-0.013231732 -0.028555714 0.18804228
-0.011489287 -0.029047832 0.18804228
-0.0080044121 -0.029862493 0.18804228
-0.0097468495 -0.029994927 0.18826979
-0.011489287 -0.02825249 0.18889201
-0.011489287 -0.027383313 0.18978474
-0.011489287 -0.026510045 0.19036147
-0.0097468495 -0.02825249 0.18967515
-0.0080044121 -0.02825249 0.18954551
-0.0097468495 -0.028121375 0.18978474
-0.0080044121 -0.028045937 0.18978474
-0.0097468495 -0.026510045 0.19081366
-0.0080044121 -0.026510045 0.19144076
-0.0062619671 -0.031737365 0.18528354
-0.0045195296 -0.031737365 0.1850605
-0.0062619671 -0.030677907 0.18629986
-0.0045195296 -0.03091304 0.18629986
-0.0062619671 -0.029994927 0.18712673
-0.0045195296 -0.029994927 0.18766406
-0.0027911589 -0.031737365 0.18629986
-0.0027770847 -0.031745806 0.18629986
-0.0010346472 -0.031981289 0.18629986
-0.0027770847 -0.031737365 0.18632481
-0.0010346472 -0.031737365 0.18669516
-0.0040205941 -0.029994927 0.18804228
-0.0027770847 -0.030701905 0.18804228
-0.0010346472 -0.030728221 0.18804228
-0.0062619671 -0.029336005 0.18804228
-0.0045195296 -0.029688053 0.18804228
-0.0027770847 -0.029994927 0.18861544
-0.0010346472 -0.029994927 0.18909779
-0.0062619671 -0.02825249 0.18953368
-0.0052445978 -0.02825249 0.18978474
-0.0045195296 -0.028372236 0.18978474
-0.0062619671 -0.028070211 0.18978474
-0.0045195296 -0.02825249 0.18991753
-0.0078141615 -0.026510045 0.19152719
-0.0062619671 -0.026793957 0.19152719
-0.0052358732 -0.026510045 0.19152719
-0.0045195296 -0.026510045 0.19119477
-0.0027770847 -0.028811283 0.18978474
-0.0027770847 -0.02825249 0.19032153
-0.0027770847 -0.026510045 0.19086894
-0.0062619671 -0.026510045 0.19180369
-0.029384471 -0.017797843 0.18629986
-0.028913692 -0.018241256 0.18629986
-0.030656137 -0.016055405 0.18599623
-0.030437142 -0.016055405 0.18629986
-0.028913692 -0.017797843 0.18680659
-0.028913692 -0.016055405 0.18733445
-0.031420626 -0.014312968 0.18629986
-0.030656137 -0.015715607 0.18629986
-0.031726822 -0.012570523 0.18629986
-0.030656137 -0.014312968 0.18722644
-0.029328227 -0.014312968 0.18804228
-0.028913692 -0.014638625 0.18804228
-0.030663356 -0.012570523 0.18804228
-0.030656137 -0.012605801 0.18804228
-0.028913692 -0.014312968 0.18839806
-0.030656137 -0.012570523 0.18804914
-0.028913692 -0.012570523 0.1894744
-0.032398574 -0.010828085 0.18603086
-0.032793246 -0.0090856403 0.18629986
-0.032398574 -0.01051411 0.18629986
-0.032398574 -0.0090856403 0.18688425
-0.032233708 -0.010828085 0.18629986
-0.031119458 -0.010828085 0.18804228
-0.031479701 -0.0090856403 0.18804228
-0.032985285 -0.0073432028 0.18629986
-0.034141012 -0.0056007653 0.18460196
-0.033577695 -0.0056007653 0.18629986
-0.032398574 -0.0073432028 0.18760982
-0.032458588 -0.0056007653 0.18804228
-0.032398574 -0.0061993524 0.18804228
-0.031973399 -0.0073432028 0.18804228
-0.030656137 -0.010828085 0.18864787
-0.029221714 -0.010828085 0.18978474
-0.028913692 -0.01174935 0.18978474
-0.030656137 -0.0090856403 0.1888698
-0.029521018 -0.0090856403 0.18978474
-0.028913692 -0.010828085 0.18999043
-0.028913692 -0.0090856403 0.19028372
-0.032398574 -0.0056007653 0.18808174
-0.030656137 -0.0073432028 0.18903127
-0.029840216 -0.0073432028 0.18978474
-0.030656137 -0.0056007653 0.18945503
-0.030354701 -0.0056007653 0.18978474
-0.028913692 -0.0073432028 0.19091591
-0.028913692 -0.0056007653 0.19087514
-0.034141012 -0.0038583204 0.18484181
-0.03358674 -0.0038583204 0.18629986
-0.034141012 -0.0021158829 0.18500075
-0.033373743 -0.0021158829 0.18629986
-0.032398574 -0.0047183335 0.18804228
-0.032398574 -0.0038583204 0.187904
-0.032398574 -0.0021158829 0.18764955
-0.032236353 -0.0038583204 0.18804228
-0.032046266 -0.0021158829 0.18804228
-0.034141012 -0.000373438 0.18515968
-0.03340207 -0.000373438 0.18629986
-0.034141012 0.0013689995 0.18526188
-0.033524066 0.0013689995 0.18629986
-0.032398574 -0.000373438 0.18752965
-0.032398574 0.0013689995 0.18759063
-0.031988651 -0.000373438 0.18804228
-0.031916261 0.0013689995 0.18804228
-0.030656137 -0.0038583204 0.18928674
-0.030166022 -0.0038583204 0.18978474
-0.030656137 -0.0021158829 0.18912676
-0.029734984 -0.0021158829 0.18978474
-0.028913692 -0.0038583204 0.19061598
-0.028913692 -0.0021158829 0.19044498
-0.030656137 -0.000373438 0.18925235
-0.029700756 -0.000373438 0.18978474
-0.030656137 0.0013689995 0.18901721
-0.029436775 0.0013689995 0.18978474
-0.028913692 -0.000373438 0.19031867
-0.028913692 0.0013689995 0.18997121
-0.025428809 -0.023025163 0.18531168
-0.023686372 -0.024767607 0.18554139
-0.023278512 -0.024767607 0.18629986
-0.024839446 -0.023025163 0.18629986
-0.023686372 -0.024230577 0.18629986
-0.021943934 -0.024767607 0.18774354
-0.023686372 -0.023025163 0.18747452
-0.023092382 -0.023025163 0.18804228
-0.021943934 -0.024310417 0.18804228
-0.02638834 -0.021282725 0.18629986
-0.025428809 -0.022436999 0.18629986
-0.02744972 -0.019540288 0.18629986
-0.027171254 -0.019941993 0.18629986
-0.025563426 -0.021282725 0.18804228
-0.025428809 -0.021406539 0.18804228
-0.027171254 -0.019540288 0.1872344
-0.026732087 -0.019540288 0.18804228
-0.023686372 -0.022552162 0.18804228
-0.021943934 -0.023025163 0.18897927
-0.025428809 -0.021282725 0.18815887
-0.025428809 -0.019540288 0.18928033
-0.023686372 -0.021282725 0.18922055
-0.02229844 -0.021282725 0.18978474
-0.021943934 -0.02157598 0.18978474
-0.024481654 -0.019540288 0.18978474
-0.023686372 -0.020160742 0.18978474
-0.021943934 -0.021282725 0.18993357
-0.023686372 -0.019540288 0.1900824
-0.021943934 -0.019540288 0.19080368
-0.021199107 -0.024767607 0.18804228
-0.020201489 -0.024913199 0.18804228
-0.020201489 -0.024767607 0.18817118
-0.020254508 -0.023025163 0.18978474
-0.020201489 -0.023073174 0.18978474
-0.020201489 -0.023025163 0.18981615
-0.020201489 -0.021282725 0.19072497
-0.018626846 -0.021282725 0.19152719
-0.018459052 -0.021718889 0.19152719
-0.020201489 -0.019540288 0.19140595
-0.019798122 -0.019540288 0.19152719
-0.016716614 -0.023005277 0.19152719
-0.027711116 -0.017797843 0.18804228
-0.027171254 -0.018817671 0.18804228
-0.028145969 -0.016055405 0.18804228
-0.027171254 -0.017797843 0.18858278
-0.025638312 -0.017797843 0.18978474
-0.025428809 -0.018315874 0.18978474
-0.027171254 -0.016055405 0.18894249
-0.026146084 -0.016055405 0.18978474
-0.025428809 -0.017797843 0.18992966
-0.025428809 -0.016055405 0.19046554
-0.023686372 -0.017797843 0.1911357
-0.02286727 -0.017797843 0.19152719
-0.021943934 -0.018264718 0.19152719
-0.02382049 -0.016055405 0.19152719
-0.023686372 -0.016806297 0.19152719
-0.027171254 -0.014312968 0.18964821
-0.026995003 -0.014312968 0.18978474
-0.028487831 -0.012570523 0.18978474
-0.027171254 -0.014072128 0.18978474
-0.025428809 -0.014312968 0.19112587
-0.027171254 -0.012570523 0.19053698
-0.025428809 -0.012570523 0.1913794
-0.024748571 -0.014312968 0.19152719
-0.025205933 -0.012570523 0.19152719
-0.020201489 -0.019341655 0.19152719
-0.014974169 -0.023025163 0.19180933
-0.018459052 -0.021282725 0.19163439
-0.018459052 -0.019540288 0.19210899
-0.016716614 -0.021282725 0.19241995
-0.014974169 -0.021282725 0.19228816
-0.016716614 -0.019540288 0.19260761
-0.014974169 -0.019540288 0.19222319
-0.023686372 -0.016055405 0.1915929
-0.023686372 -0.014312968 0.19200262
-0.023686372 -0.012570523 0.19241795
-0.016716614 -0.017797843 0.19262657
-0.014974169 -0.017797843 0.19211283
-0.016716614 -0.016055405 0.19292107
-0.014974169 -0.016055405 0.19304061
-0.017376341 -0.014312968 0.19326961
-0.016716614 -0.015238091 0.19326961
-0.014974169 -0.015766263 0.19326961
-0.016716614 -0.014312968 0.19365647
-0.014974169 -0.014312968 0.19410485
-0.011489287 -0.024767607 0.19137186
-0.013231732 -0.024145909 0.19152719
-0.011489287 -0.024349876 0.19152719
-0.010743842 -0.024767607 0.19152719
-0.0097468495 -0.025143258 0.19152719
-0.0080044121 -0.026385792 0.19152719
-0.0045195296 -0.025673516 0.19152719
-0.0027770847 -0.02482608 0.19152719
-0.0010346472 -0.026049703 0.19152719
-0.013231732 -0.023025163 0.19184521
-0.011489287 -0.023025163 0.19192904
-0.0097468495 -0.024767607 0.19174027
-0.0080044121 -0.024767607 0.19224867
-0.0097468495 -0.023025163 0.19228771
-0.0080044121 -0.023025163 0.19269067
-0.013231732 -0.021282725 0.19209936
-0.011489287 -0.021282725 0.19255385
-0.013231732 -0.019540288 0.19224524
-0.011489287 -0.019540288 0.19325155
-0.0097468495 -0.021282725 0.19285616
-0.0080044121 -0.021282725 0.19319263
-0.011446849 -0.019540288 0.19326961
-0.0097468495 -0.02059745 0.19326961
-0.0080044121 -0.021015771 0.19326961
-0.0097468495 -0.019540288 0.1941227
-0.0080044121 -0.019540288 0.1942023
-0.0062619671 -0.024767607 0.19275916
-0.0045195296 -0.024767607 0.19208443
-0.0062619671 -0.023025163 0.19312343
-0.0045195296 -0.023025163 0.19291386
-0.0027770847 -0.024767607 0.19158223
-0.0010346472 -0.024767607 0.1926569
-0.0030364543 -0.023025163 0.19326961
-0.0027770847 -0.023355015 0.19326961
-0.0010346472 -0.024395742 0.19326961
-0.0027770847 -0.023025163 0.19348711
-0.0010346472 -0.023025163 0.1942468
-0.0062619671 -0.021282725 0.19306147
-0.0045195296 -0.021282725 0.19271713
-0.0062619671 -0.019935258 0.19326961
-0.0045195296 -0.019662783 0.19326961
-0.0062619671 -0.019540288 0.19350314
-0.0045195296 -0.019540288 0.19336733
-0.0032462478 -0.021282725 0.19326961
-0.0027770847 -0.021282725 0.19363678
-0.0010346472 -0.021282725 0.19437739
-0.0027770847 -0.019540288 0.19376022
-0.0010346472 -0.019540288 0.19397911
-0.013231732 -0.017797843 0.19274479
-0.01267875 -0.017797843 0.19326961
-0.011489287 -0.019507378 0.19326961
-0.014229536 -0.016055405 0.19326961
-0.013231732 -0.016805768 0.19326961
-0.011489287 -0.017797843 0.19390827
-0.013231732 -0.016055405 0.19356722
-0.0097468495 -0.012570523 0.1953868
-0.0045195296 -0.012570523 0.19520715
-0.0027770847 -0.014312968 0.19553319
-0.0027770847 -0.012570523 0.19577661
-0.027171254 -0.010828085 0.19104332
-0.025428809 -0.010828085 0.19137317
-0.027257331 -0.0090856403 0.19152719
-0.027171254 -0.0091273487 0.19152719
-0.024750568 -0.010828085 0.19152719
-0.028093405 -0.0073432028 0.19152719
-0.027241386 -0.0038583204 0.19152719
