# .PCD v0.7 - Point Cloud Data file format
VERSION 0.7
FIELDS x y z
SIZE 4 4 4
TYPE F F F
COUNT 1 1 1
WIDTH 877
HEIGHT 1
VIEWPOINT 0 0 0 1 0 0 0
POINTS 877
DATA ascii
0.030082708 -0.028447716 0.19133723
0.031550188 -0.029922845 0.18845087
0.032489866 -0.031908408 0.18422878
0.032493126 -0.033234458 0.18034741
0.021511182 -0.026899278 0.19348088
0.029336613 -0.018453952 0.19273746
0.017644532 -0.034682717 0.1896807
0.023917526 -0.029637039 0.19267622
0.031808145 -0.022145553 0.19099486
0.018935677 -0.035620719 0.1865927
0.02645563 -0.034395568 0.18647295
0.033147395 -0.023785409 0.18601361
0.02382892 -0.035100214 0.18242845
0.033212118 -0.028389882 0.18283001
0.024309937 -0.03497247 0.17856473
0.033661813 -0.031894319 0.17796597
0.028959878 -0.034459829 0.1739386
0.009723898 -0.03274234 0.19227865
0.012531659 -0.030814013 0.19320846
0.018666685 -0.024508126 0.19372371
0.026783064 -0.016961318 0.19279671
0.032322992 -0.0094507718 0.19155309
0.011280195 -0.034469955 0.18919489
0.034500197 -0.016363211 0.18665728
0.033642098 -0.011626737 0.18793872
0.012170785 -0.035533126 0.18643194
0.034094363 -0.017703013 0.18323353
0.033671901 -0.013443976 0.18400726
0.020865025 -0.035248104 0.1804089
0.034155805 -0.018907329 0.17885759
0.025935285 -0.034620717 0.17544085
0.034037583 -0.020197237 0.17493293
0.026740456 -0.034245189 0.171325
0.033561666 -0.02569933 0.17096111
0.031182135 -0.031358562 0.16576239
0.00857611 -0.026163094 0.19328105
0.014602551 -0.020111615 0.19291914
0.021190865 -0.012460275 0.19204253
0.025781453 -0.0088754781 0.19297078
0.028618781 -0.0055715833 0.19277078
0.030830577 -0.0012516035 0.19075364
0.0057176547 -0.031508129 0.19096422
0.0092075663 -0.03000072 0.1935069
0.019909874 -0.018832941 0.192669
0.032486521 -0.0033368655 0.18898702
0.0066641243 -0.033450402 0.18679368
0.033513721 -0.0087695122 0.18536186
0.033137299 -0.0052774427 0.18483019
0.0094857542 -0.034295801 0.18288559
0.013560975 -0.035098739 0.18133122
0.03315831 -0.010206247 0.18106812
0.010403771 -0.034341346 0.17962414
0.014194814 -0.035236444 0.17800009
0.032875311 -0.01227745 0.17639363
0.033599559 -0.017989364 0.17206508
0.02061823 -0.034905605 0.16895309
0.032693822 -0.019413169 0.16765895
0.02535796 -0.034742683 0.16511312
0.02301643 -0.034935147 0.16043985
0.030512527 -0.031490039 0.15928456
-0.0021156278 -0.03016427 0.19079557
0.0012091566 -0.027855141 0.19168428
0.0040881652 -0.024133617 0.19295475
0.0078651374 -0.02005209 0.19289786
0.014458153 -0.013365088 0.19315526
0.021268692 -0.0054819984 0.19249046
0.024850456 -0.0016718805 0.19308782
0.028320551 0.001426816 0.19214594
0.03132489 0.004617949 0.18953577
0.033327587 0.0072952481 0.18779913
-0.00075554848 -0.032688949 0.18886405
0.002303957 -0.031722456 0.19012299
0.033004764 -0.0014808811 0.18627685
0.032544602 0.003220004 0.1859436
0.033528298 0.0070161605 0.18617791
0.00010572746 -0.033315036 0.18446416
0.0030342145 -0.033338346 0.18523207
0.033421464 -0.0026348289 0.18287402
0.033136886 0.0010060668 0.18195117
0.0048478572 -0.033895716 0.18047646
0.033027876 -0.0041210325 0.17836234
0.0076024411 -0.034028698 0.17680612
0.010767455 -0.033954985 0.17498478
0.032857116 -0.0095357858 0.17426011
0.032555036 -0.0053205648 0.17443255
0.0072053308 -0.033969697 0.17253229
0.010398628 -0.034066804 0.17077661
0.032692626 -0.011233324 0.16941831
0.031973261 -0.015831802 0.16472772
0.03277564 -0.012752901 0.16516754
0.019339208 -0.034853969 0.16216743
0.031877987 -0.018009463 0.1611717
0.020113187 -0.035069935 0.15799528
0.031099916 -0.020421572 0.15704665
0.025266288 -0.033539608 0.15366352
0.029431371 -0.025625141 0.15330312
0.030337986 0.018738415 0.1941767
-0.0075864224 -0.024760671 0.19343859
-0.0049606049 -0.022890296 0.19363034
-0.0011933167 -0.018836746 0.19389087
0.0022200071 -0.014544997 0.1926772
0.010185659 -0.0085217245 0.19355801
0.016209999 -0.0013674279 0.19259673
0.020623744 0.0031167865 0.19267267
0.023371752 0.006289551 0.19289389
0.026105948 0.0099422084 0.19146225
0.029033933 0.014265426 0.19111201
0.031507425 0.017604191 0.19112232
-0.0089024408 -0.030311521 0.18994889
-0.0064786179 -0.028119337 0.19175404
-0.002408063 -0.025703553 0.19280237
0.00095498376 -0.020958679 0.19327736
0.0042980975 -0.016583305 0.19260806
0.012147259 -0.011055509 0.19321507
0.018007936 -0.0036679353 0.19217148
0.028821465 0.0080650682 0.19038597
0.031510394 0.011543409 0.18876672
0.033430949 0.016326834 0.18733373
-0.010640641 -0.036346089 0.18615288
-0.0077371914 -0.033776693 0.18743294
-0.0044019111 -0.032069884 0.18855178
0.033096861 0.0050738426 0.18323633
0.033548858 0.0094440645 0.18403122
0.034485511 0.01461934 0.18413126
0.039097026 0.018503236 0.18186602
-0.0098603312 -0.037651122 0.18191403
-0.0068075461 -0.035102915 0.18197656
-0.0027946094 -0.033639107 0.18258265
0.03266605 0.0044505065 0.17929569
0.033339724 0.0084461942 0.17898116
-0.0052957358 -0.03558204 0.17764524
-0.0013243556 -0.034082066 0.17822814
0.032579109 0.0023557711 0.17533988
0.033317938 0.0067841392 0.17512661
-0.00014944002 -0.034259979 0.17361072
0.0036417171 -0.03390101 0.17431176
0.032306969 -0.0029489528 0.1713261
0.032819003 0.00026570447 0.17060792
0.00065870956 -0.034447085 0.16994503
0.0045917938 -0.034156501 0.16940063
0.032219391 -0.0083352318 0.16709346
0.03256204 -0.0041694464 0.16706356
0.033174999 -0.00025604852 0.16728497
0.0062326305 -0.034461331 0.16526437
0.010042983 -0.034272321 0.16422448
0.032267019 -0.010106156 0.16269833
0.03309305 -0.0052503841 0.16275194
0.0067894729 -0.034417417 0.16136047
0.011043629 -0.034633443 0.15959856
0.031643257 -0.011205507 0.15797043
0.013626418 -0.034542371 0.15506369
0.030613633 -0.017340122 0.15374255
0.015097386 -0.034368515 0.15186462
0.027688269 -0.027030561 0.15008482
0.029542726 -0.019231629 0.15008211
0.02358814 -0.032288887 0.14688623
0.027476665 -0.024784416 0.14693588
0.023279859 -0.032023631 0.1420911
0.021441821 0.015680011 0.19756854
0.016740043 0.0078579318 0.19374841
0.019565687 0.011090629 0.19413349
0.022744987 0.014202494 0.19507682
0.026506154 0.016770823 0.19486895
0.030372459 0.020454042 0.19478863
0.032784354 0.021864019 0.19372556
-0.014404547 -0.027162399 0.19181776
-0.010834944 -0.023872733 0.1932736
-0.0070431391 -0.02082381 0.19461438
-0.0033554025 -0.016701117 0.19450593
-0.00035624113 -0.011985146 0.19324344
0.0025552041 -0.0082263816 0.19268703
0.010154869 -0.0023855881 0.19304109
0.013613698 0.0012940057 0.19292086
0.016969232 0.0045548785 0.19288877
0.022130366 0.0090709133 0.19348928
0.024958499 0.012217592 0.1924454
0.027937161 0.015499627 0.1928657
0.032102615 0.019055804 0.19152284
0.034584094 0.021840237 0.19055074
-0.015330889 -0.031395666 0.1892387
-0.012185281 -0.02963298 0.19038469
0.036128767 0.020327659 0.18657514
0.038141478 0.022747256 0.18534994
-0.013235966 -0.034382217 0.18762198
0.035172086 0.01483598 0.18181881
0.037477065 0.018753663 0.18310952
-0.010306672 -0.037267927 0.18154708
0.033778802 0.01038098 0.17685804
0.035096694 0.013968649 0.17735347
0.037955053 0.017768063 0.17765227
-0.010033644 -0.037404902 0.1766133
-0.007754581 -0.036327697 0.17612869
0.032626472 0.0051297015 0.17283732
0.033655129 0.0088914949 0.17216733
0.035372086 0.013703042 0.1723783
0.036798798 0.016852465 0.17365298
-0.0064095631 -0.03634394 0.17157346
-0.0025924072 -0.035003588 0.17208847
0.032621905 0.0038189162 0.16880411
0.033478886 0.0072367396 0.16789114
-0.0058059925 -0.036681425 0.16777992
-0.0014322158 -0.035130136 0.16726881
0.032970164 0.0017346293 0.16435304
0.03353671 0.0061088037 0.16433817
-9.8153949e-05 -0.034957729 0.16361603
0.0031148922 -0.034594148 0.163118
0.032704432 -0.0035448074 0.15932229
0.03332803 6.4052641e-05 0.16094619
0.0053117545 -0.034533624 0.15850168
0.0089421999 -0.034640931 0.15677935
0.031673945 -0.0090768319 0.15597448
0.03177369 -0.0055523179 0.15661108
0.0063662017 -0.034453273 0.15553045
0.0094022909 -0.034267999 0.15301549
0.030844219 -0.011799286 0.15092617
0.030683264 -0.0075445175 0.15097362
0.011882741 -0.034218073 0.14889804
0.029668007 -0.017547674 0.14763281
0.013408804 -0.034189656 0.14377087
0.026480775 -0.026229504 0.14342153
0.028040849 -0.018847015 0.14317283
0.022698369 -0.031667862 0.13876623
0.0256822 -0.023418289 0.13967308
0.022369569 -0.031546615 0.13566941
0.015049099 0.015385262 0.19522095
-0.020067049 -0.025988681 0.19457662
-0.019164398 -0.02282089 0.19473147
-0.015768878 -0.019209493 0.19320166
-0.011373549 -0.016745839 0.19381642
-0.0073799677 -0.012114661 0.19390979
-0.0048192432 -0.0076249586 0.19319552
-0.0015891233 -0.0041197045 0.19288039
0.005767941 0.0020307801 0.19299164
0.0093397833 0.0051953997 0.19296548
0.011916963 0.0088952873 0.19249168
0.015486686 0.013484288 0.19366533
-0.019355524 -0.028354801 0.19162142
-0.016489737 -0.025123689 0.19282761
-0.01389055 -0.02206628 0.19338924
-0.019863041 -0.030248614 0.18771851
0.034773789 0.014225012 0.16907218
0.035977896 0.018769927 0.16959006
-0.010466387 -0.03701435 0.17016637
0.033344287 0.010399292 0.16545874
0.034066789 0.014515037 0.16532269
-0.006690531 -0.037059441 0.16504315
0.032323509 0.0049712192 0.16154686
0.032921422 0.0085501755 0.1609959
-0.0096662529 -0.038630493 0.15998265
-0.0066646188 -0.036515966 0.16138768
-0.0032720147 -0.034423254 0.16007215
0.031853672 0.0035598194 0.15731633
0.03232361 0.0071178563 0.15765774
-0.0015849657 -0.033475716 0.15528557
0.00097572245 -0.03361807 0.15649357
0.031164616 -0.0021791058 0.1541822
0.030330535 0.00090065505 0.15227175
0.0032154415 -0.033557601 0.15176499
0.029547218 -0.0046002418 0.14973435
0.0049007135 -0.03370386 0.14687383
0.0082360161 -0.033984251 0.14663205
0.028346879 -0.0099695791 0.14543632
0.0088039553 -0.034126908 0.14218217
0.02720378 -0.015870553 0.1407665
0.027035577 -0.011108836 0.14158711
0.011657073 -0.033649188 0.13845658
0.023347972 -0.023618875 0.13483819
0.026076041 -0.01606971 0.13698268
0.020850463 -0.030325083 0.13140872
0.017601267 -0.032540672 0.12845063
0.0031993357 0.013032954 0.19415238
0.0061652302 0.015708119 0.19481221
0.010893245 0.016964329 0.19549206
-0.020686425 -0.018832471 0.19481
-0.019259697 -0.016479859 0.19291806
-0.016013779 -0.012455406 0.19191092
-0.012440129 -0.0091595026 0.19275427
-0.0091171972 -0.0040422105 0.19347513
-0.0054234378 -0.00029989844 0.19336775
0.0010778597 0.0067416374 0.19274157
0.004775878 0.0098285265 0.19279599
0.0082782917 0.013099216 0.19269201
0.011153239 0.014739682 0.19307473
0.036016896 0.02215834 0.16704795
0.03424402 0.016912732 0.16316211
0.03491744 0.020603612 0.16379055
0.032637883 0.011460694 0.15850213
0.033455517 0.015303881 0.15982056
0.034243491 0.019123476 0.15924782
-0.0078276191 -0.035121076 0.15715146
0.030563686 0.005349081 0.15396386
0.031822577 0.0094509479 0.15438613
0.032296844 0.014067574 0.15612602
-0.0079954416 -0.03471275 0.15353546
-0.0050835134 -0.033583719 0.15378565
0.029731579 0.003762546 0.15057471
0.030460665 0.0076464918 0.15086871
-0.0037606396 -0.03412601 0.14891213
0.00011356175 -0.033356767 0.14931083
0.028908357 -0.0021204893 0.14615634
0.029287262 0.0011496898 0.1464279
-0.0028740726 -0.033828657 0.14467937
0.00086318329 -0.033315551 0.14483491
0.02596255 -0.0062156403 0.14114469
0.027281484 -0.002709033 0.14267969
0.0032124696 -0.033691563 0.14033115
0.025883915 -0.0089722034 0.13802958
0.0034684436 -0.033131965 0.13629508
0.0074488763 -0.033301987 0.13566142
0.025258504 -0.0096786208 0.13423812
0.0091853887 -0.032865278 0.1315645
0.012852647 -0.032581318 0.13072994
0.022630963 -0.01904089 0.13131499
0.019690147 -0.029048888 0.12483215
0.015309246 -0.032189742 0.12261093
-0.00079835905 0.016186483 0.19691551
0.0018828046 0.017568935 0.19658518
-0.023490356 -0.011326523 0.19482422
-0.021197343 -0.0074010785 0.19321588
-0.017728703 -0.0039798953 0.19377738
-0.013408422 -0.00025860639 0.19453231
-0.010178911 0.0031677308 0.19436029
-0.0029104319 0.011122108 0.19335765
0.00046614697 0.01355679 0.19472465
0.0039113886 0.016604248 0.19593111
-0.021605972 -0.013252974 0.19306329
-0.019158039 -0.0094347615 0.19211909
-0.015521657 -0.0067420471 0.19279116
-0.012565917 -0.0045247199 0.19341111
0.033995621 0.02411994 0.15956873
0.033221245 0.017783446 0.15660924
0.034246951 0.022064403 0.15659285
0.032134335 0.015885882 0.15301454
0.033612024 0.019950714 0.15189505
-0.0099947881 -0.03468205 0.15119562
0.029051587 0.005499593 0.14748758
0.030441333 0.0087178349 0.14809203
0.031378407 0.014735796 0.14774072
0.033433493 0.017829295 0.14758998
-0.0081989728 -0.034500208 0.14710349
0.028275477 0.0049809981 0.14355698
0.030078726 0.0089323875 0.14397722
-0.0083035957 -0.034790784 0.14237916
-0.0047056135 -0.034501836 0.14225972
0.02711118 -0.0016490696 0.13945866
0.028348502 0.0021689869 0.13961494
-0.0034675822 -0.034641836 0.13801542
-0.00012263842 -0.033941858 0.13892084
0.025699317 -0.0060196416 0.1359334
0.026605761 -0.0022151805 0.13603485
0.027632974 0.001784482 0.13522339
-0.0023234319 -0.034583643 0.13240409
0.0014851801 -0.033944134 0.13360882
0.024747051 -0.0074124262 0.13087481
0.0028049471 -0.033612039 0.12893993
0.0063704327 -0.033305261 0.12958884
0.02338198 -0.013116514 0.12854898
0.0034416215 -0.033960249 0.12502432
0.007865903 -0.03374273 0.12506729
0.020763353 -0.017603427 0.1238187
0.008881242 -0.033744648 0.12006724
0.013393466 -0.032712571 0.12046927
0.018780753 -0.023958005 0.11969531
0.01740413 -0.028816042 0.11550558
-0.025474753 -0.0020674057 0.19481713
-0.023824021 -0.00028703082 0.19466165
-0.010253975 0.01361311 0.19370741
-0.0052032578 0.017833114 0.19563758
-0.026242331 -0.0069385692 0.19480407
-0.023754112 -0.0049033454 0.19392371
-0.020220615 -0.0015389388 0.19425499
-0.01765703 0.00052065309 0.19479081
-0.0094162701 0.01041947 0.19263577
0.033532124 0.021913841 0.14897174
0.03306957 0.024862565 0.15116084
-0.01388384 -0.031632468 0.14406559
0.029166289 0.012098417 0.14035869
0.030519195 0.015408455 0.14123106
0.034081064 0.016392116 0.14329934
-0.013734004 -0.031994887 0.14140385
0.02693806 0.0073043723 0.13790292
0.027748011 0.0096004223 0.13839704
-0.0093615875 -0.035071585 0.13588831
-0.006407965 -0.034839891 0.13648281
0.025411252 -0.00068127271 0.13255388
0.026363544 0.0045758989 0.13320073
-0.0095719332 -0.035034616 0.13170025
-0.0059552277 -0.03454588 0.13166413
0.024446204 -0.0044924114 0.12920922
0.024332102 -0.00084237847 0.13018477
-0.0080832299 -0.038581699 0.12591726
-0.0049013495 -0.034235556 0.12709713
-0.00045290589 -0.033697579 0.12656033
0.022962304 -0.0054413844 0.12607551
-0.0036865352 -0.03398506 0.12360477
0.00072077475 -0.033491679 0.12150568
0.018544881 -0.015196453 0.11898023
0.0021456545 -0.033313416 0.11715943
0.0051935194 -0.033426564 0.11721647
0.0069453856 -0.032986056 0.11304969
0.010475509 -0.031952541 0.11224097
0.016974492 -0.023218764 0.11199701
0.01149816 -0.031451583 0.10808522
0.017336786 -0.023921605 0.10659683
0.016226981 -0.028719429 0.10370564
-0.023056213 0.001201828 0.19429845
-0.014206888 0.013597809 0.19328237
0.026544206 0.012289129 0.13469768
0.028617306 0.01565125 0.13571671
-0.012928034 -0.031016111 0.13541842
0.025366411 0.007872601 0.13104489
0.025742499 0.010651482 0.13174906
-0.010825466 -0.035751786 0.12903774
0.02308627 0.0014810376 0.12741715
0.02334865 0.005891595 0.1272136
-0.0091345133 -0.035382643 0.12570095
-0.0066723889 -0.03475989 0.12522429
0.02027946 -0.0028742487 0.12247711
-0.0063115777 -0.03397188 0.12069994
-0.0024053622 -0.033251964 0.11987829
-0.0052845031 -0.033037696 0.11639619
-0.00043981336 -0.033191621 0.11584282
0.016308568 -0.013693667 0.11405957
0.00078086928 -0.033551533 0.11165875
0.0045371503 -0.033146009 0.10996377
0.016689442 -0.016167987 0.11000919
0.0015518479 -0.033439141 0.1079852
0.0060151229 -0.033057958 0.10624027
0.009524026 -0.032274015 0.10531056
0.017395658 -0.017182628 0.10491884
0.0078097656 -0.033123083 0.10191727
0.010862186 -0.032214589 0.1016596
0.018112296 -0.024041971 0.10133934
0.0074113915 -0.032976247 0.098618865
0.011684434 -0.032076217 0.096544027
0.017286614 -0.025425423 0.096584201
0.014905099 -0.030831903 0.092494488
0.025055643 0.01611267 0.13158232
0.023484554 0.010455447 0.12688267
0.024242604 0.014469845 0.128447
0.020158891 0.0058531542 0.12245989
0.021489289 0.0092313001 0.12329936
0.017966241 -0.00068070646 0.11891007
0.019501023 0.0025491389 0.12123948
-0.011346629 -0.034835912 0.11802506
-0.0076478263 -0.034064796 0.11779678
0.017453987 -0.0050273947 0.11533803
0.017065432 -0.0010792911 0.11604249
-0.011263429 -0.035152514 0.11331564
-0.0080181174 -0.033260286 0.11295146
-0.0040952405 -0.032139331 0.11350101
0.016608555 -0.0044201924 0.11061859
-0.0068394914 -0.032908328 0.10891438
-0.0036427993 -0.032405913 0.10836893
0.016547536 -0.0095497062 0.10659635
5.0066039e-05 -0.03298413 0.10499126
0.017470442 -0.011830637 0.10242081
0.00057376549 -0.033012129 0.10124224
0.0036418568 -0.032852933 0.10027325
0.018231422 -0.013763938 0.098423064
0.0054701921 -0.032724127 0.09506923
0.009447217 -0.03289393 0.095574498
0.017159523 -0.019908378 0.094230711
0.0070734546 -0.033237223 0.090499282
0.010569107 -0.032765355 0.091356397
0.016530117 -0.023893094 0.089819789
0.011180684 -0.032658443 0.086446881
0.016691195 -0.025383329 0.085578978
0.012331259 -0.03283954 0.082134843
0.016701631 -0.027175933 0.081847608
0.024330033 0.019157773 0.12871319
0.022532646 0.016130541 0.1248318
0.023510618 0.019886831 0.12499708
0.020731922 0.010706368 0.12085795
0.021029778 0.015179206 0.12132001
0.017723922 0.0047808774 0.11724389
0.019161353 0.0098101478 0.11727363
0.016273655 -0.00046134274 0.11234182
0.01644893 0.0041141491 0.11299753
-0.012430658 -0.035799652 0.11042857
0.016561339 -0.0017604032 0.10816616
-0.011602361 -0.035534099 0.1066668
-0.0083613945 -0.033908874 0.10670334
0.017190054 -0.003773368 0.10453188
-0.0080021983 -0.032354731 0.10199797
-0.0043370482 -0.031910866 0.10181916
0.01811773 -0.0065663317 0.099448323
-0.0029125465 -0.031907555 0.096861362
-0.0014219666 -0.0316904 0.093428075
0.0022217967 -0.03286992 0.093903542
0.016825523 -0.012766706 0.091077089
0.0032971371 -0.032917038 0.088783681
0.0059029581 -0.033470627 0.084317207
0.0094191628 -0.033704314 0.083832145
0.017830061 -0.020332394 0.083010495
0.0060871486 -0.033066683 0.07966876
0.010546779 -0.033575572 0.079570532
0.017624484 -0.025657041 0.079149961
0.011403615 -0.0331982 0.075006247
0.017584333 -0.026966738 0.074663043
0.019701973 0.017659537 0.11841959
0.021157291 0.021449875 0.11841273
0.017992964 0.010886921 0.11415899
0.019172825 0.015907455 0.11488414
0.021296231 0.020634187 0.11461133
0.016459258 0.0069699795 0.11098623
0.017853756 0.010845661 0.11009753
0.018691212 0.014778721 0.11042941
0.025419388 0.019652519 0.109034
0.027986661 0.019374035 0.110403
0.016866105 0.0045684129 0.10692859
0.017668672 0.0096337982 0.10561365
0.028443428 0.016388839 0.10818869
0.016813265 -0.00034935214 0.10248888
0.01732149 0.0035500075 0.10188943
-0.012442394 -0.034343075 0.1005525
-0.010697592 -0.032972623 0.10032749
0.017068617 -0.0020043491 0.098454237
0.017013863 0.0015619858 0.097493827
-0.012493416 -0.034539167 0.097588003
-0.0092935879 -0.033101581 0.096355975
-0.0057668481 -0.031954035 0.09545356
0.017301761 -0.0040768068 0.093612552
-0.008478337 -0.03427811 0.09130013
-0.0041511282 -0.032263834 0.091686189
0.0173526 -0.0057612373 0.088960171
-0.0065917028 -0.034116797 0.087049067
-0.003581346 -0.032435331 0.086615205
0.017379319 -0.011026898 0.085018098
-0.0023934934 -0.032754816 0.08227098
0.0015093498 -0.032492705 0.082088649
0.018096954 -0.012591936 0.080627799
0.0029858341 -0.032550871 0.077228069
0.018717047 -0.014601048 0.076070964
0.0053633656 -0.033369839 0.073788702
0.0092427861 -0.033214182 0.072141826
0.01842051 -0.019886255 0.072098553
0.0063870642 -0.034124993 0.069070697
0.0097127985 -0.033096008 0.068620086
0.017545551 -0.026872423 0.06795001
0.020635027 -0.01799256 0.067243755
0.010555832 -0.033128954 0.064139307
0.018807098 -0.027905688 0.063163996
0.011974428 -0.03324661 0.060107231
0.019719984 -0.029318124 0.058872044
0.017177142 -0.032673728 0.054665923
0.022910222 -0.026952703 0.053970277
0.021561414 -0.031725351 0.049808323
0.023357993 -0.032181688 0.046179175
0.021393562 0.024209054 0.11580426
0.019005181 0.018120771 0.11183769
0.021845346 0.021497296 0.1118331
0.023273436 0.024540117 0.11349607
0.018376404 0.017382836 0.10722047
0.022084326 0.019515898 0.10751671
0.017899979 0.011429764 0.10294116
0.017245054 0.015977193 0.10303557
0.024677817 0.019039411 0.10395688
0.017496102 0.0058822013 0.098428369
0.017403809 0.0099981865 0.098865449
0.017338192 0.0041680601 0.094919443
0.017057687 0.0085599562 0.094717145
0.016543213 -0.00070184562 0.090343535
0.016518161 0.0029092804 0.090383708
0.017058626 -0.0024080761 0.086016119
-0.0088258451 -0.034447756 0.085062742
0.018205769 -0.0042566443 0.082289279
-0.0081537366 -0.033816531 0.079375029
-0.0041807406 -0.033307079 0.079801679
0.018829668 -0.0072816531 0.077720284
-0.0073970687 -0.034275882 0.075365067
-0.0033321604 -0.032912083 0.07492882
0.00049981847 -0.032592874 0.075425863
0.018766126 -0.0078577846 0.073182642
-0.0024473472 -0.033221878 0.070423424
0.0016570278 -0.033132583 0.070745468
0.003043443 -0.033407934 0.066334426
0.004945714 -0.033202831 0.06253159
0.0086814733 -0.03381275 0.061435044
0.010351445 -0.033040252 0.056992412
0.023128493 -0.019492509 0.055593729
0.01104808 -0.032899112 0.05202353
0.023885472 -0.024461092 0.053001881
0.016197242 -0.033858292 0.047825634
0.025980111 -0.022494834 0.046908498
0.021578142 -0.032924727 0.043504596
0.026647367 -0.024352595 0.041796982
0.025474947 -0.029590331 0.038258433
0.025989335 -0.030049618 0.03430599
0.018139705 0.018709447 0.10403967
0.017631318 0.018380772 0.10071617
0.020074336 0.020967344 0.10037142
0.017503822 0.011780534 0.096250534
0.017311925 0.016264746 0.097308815
0.017868973 0.010386643 0.092950821
0.017959166 0.014736786 0.091793358
0.016709642 0.0043973681 0.088118494
0.018394396 0.009586717 0.088407099
0.018711679 0.013804858 0.088561058
0.017074134 0.0032329401 0.08431536
0.018695451 0.0079707652 0.084214568
-0.014495173 -0.03174866 0.080634952
0.017723853 -0.0025249254 0.078583896
0.018111926 0.0022451542 0.079971135
0.018272176 0.0065989317 0.079938293
-0.0099466871 -0.033952944 0.078005433
0.018202351 -0.0031467131 0.076075077
0.01867855 0.00045459066 0.075608075
-0.0087940954 -0.035008002 0.073667347
-0.0057901442 -0.033701558 0.07275629
0.0190138 -0.0056539918 0.071491003
0.019525904 -0.0014090249 0.070985615
-0.0078795291 -0.035688188 0.069255173
-0.0039759008 -0.034014549 0.068681836
0.019528776 -0.0070598163 0.067307472
0.020613035 -0.0037341025 0.066212416
-0.0071293451 -0.035377089 0.064652324
-0.0037500747 -0.033966836 0.064584792
0.0011780299 -0.032975499 0.063505113
0.020802272 -0.0088895913 0.063035429
0.021048594 -0.004365365 0.0626176
0.001334548 -0.032700296 0.059855759
0.0031815181 -0.03271883 0.056375027
0.0067316582 -0.032400005 0.054614663
0.023761714 -0.012648189 0.05382365
0.0083972672 -0.032758795 0.05046761
0.010360462 -0.033381477 0.046637416
0.02687001 -0.016043743 0.045317948
0.01151268 -0.034021676 0.042354345
0.027123904 -0.021301391 0.041245818
0.0157804 -0.034163952 0.0371328
0.026203718 -0.027845316 0.035185337
0.02940448 -0.019141693 0.03587085
0.021290844 -0.032877635 0.032739997
0.028410712 -0.025460461 0.032824993
0.022249909 -0.033124223 0.027924776
0.029754309 -0.02708493 0.028191507
0.023206977 -0.032658417 0.02356267
0.030440923 -0.02808908 0.022763848
0.029343816 -0.029593999 0.018742085
0.017041575 0.019712083 0.094395876
0.018024709 0.022697866 0.094186783
0.017410643 0.018864796 0.089272559
0.017851142 0.022094065 0.089796305
0.018198991 0.016221208 0.084913373
0.018661093 0.010276147 0.08084327
0.018726597 0.01348218 0.081510782
0.018362125 0.0087810513 0.076681077
0.019005567 0.0030842582 0.072942853
0.018412659 0.006693644 0.072149515
0.019341353 0.0018944135 0.068050086
0.018976564 0.0052788374 0.067489088
-0.013136391 -0.03437975 0.064025581
0.020248072 0.00014191866 0.063769698
-0.0098795136 -0.035251409 0.062580109
-0.0068042045 -0.033677708 0.060672164
0.021303896 -0.0020896271 0.059053183
-0.0047914693 -0.031930584 0.057910442
-0.0016475571 -0.031969011 0.056111515
0.022111267 -0.0046427101 0.054918408
-0.0048666894 -0.03137419 0.054005563
-0.00010556728 -0.031873249 0.052233219
0.023345336 -0.0061568674 0.050131381
0.0020349873 -0.031492829 0.047224462
0.0045768777 -0.031582002 0.047626197
0.025224335 -0.0083001936 0.046076953
0.0055105733 -0.031654853 0.042855918
0.027239885 -0.010087725 0.041582465
0.0085689314 -0.032573558 0.038724422
0.0291925 -0.011617619 0.03751111
0.010377076 -0.033425301 0.03491044
0.009989229 -0.03329061 0.031369627
0.03106552 -0.018800609 0.029098988
0.015486553 -0.033721324 0.026187301
0.03109148 -0.020262515 0.024640203
0.021047102 -0.032599345 0.02050662
0.031176955 -0.022261288 0.020330906
0.026327882 -0.031427629 0.017029524
0.031239148 -0.023234639 0.016857624
0.028406531 -0.027798653 0.012651205
0.017426796 0.025847401 0.090308487
0.017016113 0.027933665 0.090360641
0.017878197 0.023415789 0.086608768
0.018843252 0.027339552 0.087018549
0.018078906 0.019090598 0.08223331
0.018532669 0.022321841 0.08275789
0.019936377 0.025758965 0.082605958
0.017623518 0.017438073 0.078132749
0.018797014 0.0216249 0.078482687
0.020192953 0.024091536 0.078442752
0.018057665 0.011366431 0.072981
0.017304281 0.015489691 0.074463248
0.017624492 0.019257935 0.074609637
0.018390656 0.0096595157 0.069930315
0.018277142 0.01344568 0.069821537
0.019233106 0.0088536013 0.066205382
0.019568585 0.011880831 0.065067649
-0.01525118 -0.032398202 0.063862264
0.019875094 0.0065250807 0.061980903
0.020279402 0.010988129 0.061729789
-0.014242966 -0.033757124 0.058841407
0.021364011 0.0047622826 0.057451844
-0.012410421 -0.033062123 0.055166841
-0.0087141376 -0.031533703 0.05484581
0.021798227 -0.0007528672 0.053506732
0.02290914 0.002942577 0.052985489
0.024134465 0.0064011784 0.049473047
-0.0072214771 -0.031336725 0.050569654
0.0228836 -0.0020696949 0.049563766
0.024360832 0.0012156358 0.048411429
0.025696568 0.0046550063 0.047090173
-0.0056420434 -0.031836897 0.04585433
-0.0018695248 -0.031513508 0.046781778
0.02430366 -0.0037656343 0.044962525
0.025739934 -0.00043949764 0.04375273
0.02706142 0.0030157994 0.042400897
-0.00013716146 -0.031742662 0.041886508
0.026249111 -0.0059775477 0.040966153
0.02747326 -0.0024448493 0.039500177
0.027883096 0.0020111687 0.03916949
0.0012765061 -0.032091491 0.036977828
0.0043681087 -0.031526085 0.037302911
0.029352061 -0.0045940215 0.0354231
0.0018892139 -0.032406941 0.032658994
0.0057321321 -0.032582559 0.032801449
0.030487768 -0.006007188 0.03047061
0.0084795719 -0.033468679 0.028010964
0.03153006 -0.012167708 0.02627039
0.03079918 -0.0080150319 0.025838494
0.0090482216 -0.033682525 0.023840725
0.012912752 -0.033161595 0.023236156
0.031240497 -0.0097179776 0.0202052
0.017922699 -0.032499935 0.018147588
0.031760417 -0.015264341 0.017497122
0.018763762 -0.033002768 0.014053464
0.031560626 -0.017130952 0.012560964
0.025061943 -0.030929301 0.0098475218
0.030086812 -0.022010822 0.0080132484
0.01703666 0.030341914 0.089071691
0.019163616 0.022606086 0.075614572
0.020024726 0.025401736 0.075538993
0.017118922 0.01723255 0.072341859
0.018159084 0.021342013 0.071352959
0.01912874 0.024916343 0.070105314
0.018169153 0.015955433 0.068344057
0.019146999 0.019796481 0.066671014
0.020986019 0.023365462 0.065067112
0.019188657 0.014665373 0.06327498
0.019646535 0.018357432 0.06170398
0.019970311 0.01263499 0.058072805
0.020044757 0.015999081 0.057655275
0.020991255 0.010539088 0.054411352
-0.015945673 -0.032625455 0.053001523
0.022106772 0.010042151 0.050073266
-0.01343835 -0.031836711 0.048542142
-0.010041931 -0.031573661 0.048098266
0.024173293 0.0086318105 0.044960558
0.024539491 0.010678066 0.043940604
-0.012658358 -0.032315731 0.044421732
-0.0082934545 -0.032626938 0.043897986
0.026482029 0.0059984084 0.04028368
0.026588099 0.008974595 0.040165067
-0.0075332811 -0.032305848 0.039170325
-0.0034318827 -0.031541724 0.03884232
0.0281354 0.0028681951 0.036637187
0.028381694 0.007528699 0.036099553
-0.0056331549 -0.032023318 0.035738707
-0.002759641 -0.031715117 0.034644842
0.029289987 0.0014846148 0.032732606
0.029747814 0.0058886521 0.031371593
-0.00059337914 -0.032149147 0.030361772
0.030009374 0.00075954664 0.027733684
0.030534584 0.0049205124 0.028069079
0.00035764836 -0.032259293 0.025165439
0.0045389635 -0.033018935 0.026966691
0.030961379 -0.0068662576 0.022601604
0.030397836 -0.0025297245 0.023910522
0.0045927754 -0.032681305 0.021332145
0.010614763 -0.032294858 0.020243883
0.030423287 -0.0064803259 0.018768966
0.030192776 -0.0037613977 0.019105196
0.0074732471 -0.032431133 0.016835928
0.01124136 -0.031933367 0.017100513
0.031285629 -0.0085519925 0.014676511
0.011432425 -0.032202713 0.012332141
0.031172238 -0.010126278 0.010011077
0.019093415 0.027397523 0.068696141
0.019821566 0.026419822 0.063266873
0.020605365 0.020491989 0.060679138
0.021201877 0.023581995 0.060284197
0.020584946 0.019361256 0.056637585
0.022071322 0.023721034 0.055331945
0.024385059 0.026171664 0.052996278
0.019992419 0.01332799 0.051714718
0.021025954 0.017221441 0.05213213
0.023372667 0.022150407 0.050508976
0.025410887 0.024961684 0.049955249
0.022514191 0.015457627 0.047532082
0.024586387 0.019979905 0.046293259
0.02700562 0.023958486 0.046380937
0.030938726 0.026329882 0.043513477
-0.017396728 -0.031546351 0.04943645
0.024160177 0.014239821 0.042998075
0.026058249 0.017696735 0.041668832
0.031968743 0.025115749 0.040475845
-0.014466067 -0.032565273 0.041957498
0.026459692 0.012419818 0.038996339
0.027779631 0.015693687 0.037325621
-0.012910166 -0.032589458 0.037967324
0.029073007 0.010466102 0.034702659
0.02962248 0.013565795 0.03312856
-0.0083320709 -0.032674573 0.033221126
0.030690867 0.0085706832 0.030260324
0.031554177 0.012256989 0.028214812
-0.0079523725 -0.032267984 0.028269112
-0.0041837832 -0.031655014 0.027636707
0.030827131 0.0060755527 0.024719596
0.032289725 0.010127563 0.024106741
-0.0068896487 -0.031633388 0.024982929
-0.0035191718 -0.031413138 0.023494244
0.029742546 0.0011105062 0.020708203
0.030600904 0.005289698 0.02045387
0.032526132 0.0087301908 0.020293295
0.000152288 -0.031698674 0.019216478
0.002777338 -0.031973328 0.017628968
0.030035997 -0.0012208652 0.016865611
0.029871786 0.0039416123 0.017364502
0.0040659253 -0.032278903 0.014178872
0.029938754 -0.0023202756 0.012110233
0.005559097 -0.032791413 0.010608971
0.0103455 -0.032767691 0.0094008446
0.031919874 -0.0093625402 0.0079417229
0.031014478 -0.0051041078 0.0083420873
0.026950531 0.0257571 0.048164487
0.025915062 0.021718668 0.044600785
0.028485358 0.024469018 0.044149578
0.027210001 0.020192806 0.040812016
0.029339647 0.022916382 0.040352106
0.028456045 0.018680336 0.035903752
0.029929357 0.022127805 0.0357306
0.032634906 0.024253249 0.03594327
0.030124327 0.016730903 0.031488895
0.03062544 0.021226693 0.031221032
0.033320192 0.023370247 0.031421781
-0.013375605 -0.031991951 0.03245312
0.031358268 0.015305378 0.028690636
0.032186378 0.019387644 0.026661158
0.034668274 0.02178828 0.027681231
-0.010078971 -0.033234619 0.026343346
0.033270031 0.013066938 0.023503423
0.032911826 0.018119294 0.021550119
-0.0091632679 -0.03205752 0.022111535
-0.0060737077 -0.030385865 0.020281613
0.031585492 0.0071638394 0.01853466
0.032751296 0.011361349 0.018780828
0.032878224 0.015830837 0.018274426
-0.0047046887 -0.030501511 0.017177761
0.029546753 0.0016614702 0.01420778
0.030688107 0.0057605235 0.014215171
0.031654984 0.010253572 0.013700187
-0.0018052077 -0.031495892 0.012426972
0.029373638 0.0016528154 0.0096908212
0.029674802 0.004418809 0.008664906
0.033952504 0.019751292 0.018659711
0.03331317 0.023021586 0.019581914
0.032096077 0.01784943 0.015468121
0.032408249 0.021301966 0.014606476
-0.010368451 -0.030479494 0.015203238
-0.0065806638 -0.030413778 0.013375521
0.031449236 0.013969677 0.011431277
0.031298753 0.017287202 0.010927677
-0.0087895133 -0.030932456 0.010189116
-0.0061966581 -0.030988023 0.010632932
0.031355284 0.019832082 0.01270026
0.030976081 0.024058012 0.012071311
-0.015353585 -0.029242573 0.01309669
-0.012561723 -0.030436959 0.0087842941
