# .PCD v0.7 - Point Cloud Data file format
VERSION 0.7
FIELDS x y z
SIZE 4 4 4
TYPE F F F
COUNT 1 1 1
WIDTH 872
HEIGHT 1
VIEWPOINT 0 0 0 1 0 0 0
POINTS 872
DATA ascii
-0.025692385 0.035709165 0.1876851
-0.031737827 0.029529022 0.18834138
-0.026793648 0.036962479 0.18514565
-0.034696598 0.032126132 0.18462569
-0.030917713 0.036805868 0.18005472
-0.036419038 0.0295981 0.18026757
-0.029699702 0.017737418 0.19255048
-0.017861176 0.035104431 0.18921822
-0.024121011 0.029428162 0.19011772
-0.031787325 0.022125911 0.19097751
-0.036275901 0.01491465 0.18903959
-0.023010602 0.035832383 0.18776986
-0.035011373 0.024012927 0.18646112
-0.037618384 0.016894436 0.18505025
-0.024396729 0.037503671 0.1832163
-0.037291829 0.021698756 0.1813294
-0.02929722 0.037114833 0.1769231
-0.037019938 0.023085937 0.17764008
-0.030041948 0.03595243 0.17301953
-0.035394162 0.028278599 0.1727865
-0.033902727 0.033731669 0.16888538
-0.01528938 0.027372669 0.19204825
-0.022535093 0.020880122 0.19185346
-0.029865786 0.013773903 0.19279563
-0.033172 0.010289494 0.19229439
-0.035278354 0.0061492193 0.19099316
-0.011776472 0.034981746 0.18873537
-0.018072167 0.030173916 0.19089153
-0.024793174 0.022718631 0.19106147
-0.036255725 0.011891237 0.18852797
-0.036885981 0.0079851588 0.18753135
-0.013731659 0.037132841 0.18511996
-0.03723336 0.013643957 0.18250778
-0.037248909 0.0099529494 0.18338749
-0.014258896 0.038001087 0.18028572
-0.036819935 0.015391075 0.17832488
-0.022359928 0.037599187 0.17534822
-0.036046643 0.016374934 0.1745438
-0.023681164 0.036970086 0.17194319
-0.034828302 0.025658917 0.17031735
-0.024866223 0.037050024 0.16666949
-0.033799969 0.032966454 0.1663835
-0.029641094 0.036742043 0.16179699
-0.035256691 0.029591627 0.16047323
-0.033749923 0.034812208 0.15780893
-0.014599803 0.017983587 0.19192979
-0.020995108 0.012273761 0.19187641
-0.025756717 0.0088520842 0.19294921
-0.028591741 0.0052386923 0.19328755
-0.031457961 0.0018377965 0.19219023
-0.033544514 -0.0011825617 0.19133312
-0.038017422 -0.0062239431 0.19080842
-0.0058058854 0.031763643 0.18966255
-0.0099125421 0.028679132 0.19136295
-0.016133046 0.021653205 0.19244227
-0.022486271 0.014904389 0.19143584
-0.034660935 0.0029800814 0.19129968
-0.03664463 0.00066519529 0.18921345
-0.038799867 -0.0037724599 0.18801963
-0.0036037788 0.036059096 0.18492508
-0.0065262141 0.03393897 0.18715075
-0.011135687 0.032131083 0.18984827
-0.037033021 0.0057703927 0.18449545
-0.037298635 0.0018261187 0.18478879
-0.039063074 -0.0033593774 0.18467182
-0.0078268535 0.035933878 0.18296948
-0.036847271 0.0072497148 0.18055463
-0.036944047 0.002857754 0.1806322
-0.010087972 0.036632143 0.17796972
-0.0365953 0.012439273 0.17561609
-0.036354713 0.0083623379 0.17550319
-0.012938462 0.03728018 0.17292625
-0.03465198 0.017362967 0.17073989
-0.035800286 0.013794164 0.17109799
-0.036237948 0.010033813 0.17152411
-0.02125866 0.036969148 0.16903156
-0.035469208 0.014480708 0.16736108
-0.021613073 0.037051544 0.16506368
-0.034100614 0.02055677 0.16281968
-0.023193583 0.037034344 0.16018656
-0.035555918 0.026295679 0.15923962
-0.024276109 0.03652215 0.15527844
-0.032694027 0.033989705 0.15410206
-0.03578271 0.02381386 0.15496445
-0.032124411 0.033401292 0.15001673
-0.026093569 -0.0038228352 0.19379762
-0.033088714 -0.011183055 0.19322103
-0.00097209681 0.026637457 0.19041216
-0.0047297329 0.024264853 0.19162127
-0.011754386 0.017356778 0.19200745
-0.017628744 0.0096990196 0.19256431
-0.020999819 0.0056740795 0.19307885
-0.024979357 0.0023228675 0.19389316
-0.028709985 -0.0010790145 0.19337174
-0.031710964 -0.0048998334 0.19145498
-0.03473343 -0.0077289306 0.19162053
0.0040894011 0.035024002 0.18767214
0.00070785545 0.033527859 0.18904796
-0.0029994166 0.03013989 0.190256
-0.0064647375 0.027520455 0.19123137
-0.039657835 -0.0072791893 0.18490279
0.00371233 0.035571553 0.18532723
-0.00047273561 0.03547667 0.18540841
-0.037276141 -0.00059489533 0.18157375
-0.039487563 -0.0043144114 0.18195349
-0.001952745 0.036962867 0.18098736
-0.037229672 0.0010136217 0.17803326
-0.03885201 -0.003287822 0.17727017
-0.040595461 -0.0060043596 0.17762828
-0.0033514816 0.037342899 0.17659461
-0.0066916225 0.036926486 0.17698765
-0.036265671 0.0062018326 0.17397943
-0.03703643 0.0020332802 0.17375258
-0.039875656 -0.0035604928 0.1732623
-0.00411609 0.037494734 0.17291993
-0.0081885746 0.036903158 0.17170942
-0.036946122 0.0081314519 0.16925347
-0.037600353 0.0043657683 0.16896862
-0.011619122 0.037411146 0.16871145
-0.013208564 0.03731522 0.16626447
-0.035589483 0.013740623 0.16453898
-0.037345171 0.0095491828 0.16457868
-0.038261093 0.0057015251 0.16470581
-0.013821262 0.037591483 0.16269627
-0.035358563 0.014432795 0.16053993
-0.036365885 0.010687364 0.16074836
-0.020944424 0.037439324 0.15797281
-0.035105586 0.016297722 0.15738982
-0.021956937 0.037130244 0.15425932
-0.036021028 0.02174064 0.15203112
-0.026981214 0.035550207 0.14826915
-0.035509109 0.028370341 0.14793336
-0.027918726 0.035872635 0.1437116
-0.035136119 0.029999729 0.1439448
-0.029372683 0.03601326 0.13945648
-0.034678716 0.030696694 0.13935474
-0.023326572 -0.011295246 0.1947847
-0.027947798 -0.015559993 0.19467387
-0.013016645 0.0048084375 0.19326422
-0.016660409 0.0015958361 0.19329986
-0.020424716 -0.0022565564 0.19330078
-0.023479696 -0.006534216 0.19357803
-0.026250023 -0.010124553 0.19258296
-0.029564202 -0.013456179 0.19313282
0.018252907 0.040739764 0.1928294
0.01717677 0.03959737 0.19273609
0.0094943047 0.030441454 0.19038332
0.0063694026 0.02795634 0.19119728
0.0028331131 0.025062792 0.19181299
-0.00092074927 0.021366503 0.19223171
-0.0046573738 0.016975338 0.19201759
-0.011621356 0.010558844 0.19277632
-0.016395483 0.0064621009 0.19280827
-0.029817123 -0.0088684503 0.19114745
0.011415943 0.034667429 0.18726563
0.0079834275 0.033947822 0.18777996
0.0045967642 0.030617297 0.18953964
0.001316146 0.02773834 0.18999377
0.010374976 0.035943948 0.18367174
0.0060393345 0.036048733 0.18251282
0.0044157244 0.037010662 0.17859328
0.0035341494 0.037557781 0.17376107
-0.00031077489 0.03754434 0.17455935
-0.03741543 6.1672181e-06 0.17084807
-0.038169459 -0.0030001011 0.17094919
-0.0014166459 0.037000541 0.16965103
-0.0057265181 0.037113305 0.16971195
-0.037419885 0.0010716561 0.16727751
-0.038205266 -0.0028833393 0.16632113
-0.002989186 0.036927417 0.16656175
-0.0070554148 0.036578707 0.16496313
-0.037240762 0.007057853 0.1611948
-0.037463799 0.0030726176 0.16243169
-0.037974544 -0.001355676 0.16296434
-0.0080172736 0.036601823 0.15961206
-0.012385155 0.037722386 0.15987456
-0.035342183 0.012053466 0.15722972
-0.036424689 0.0083595403 0.15749818
-0.037178248 0.0049404502 0.15635282
-0.012577048 0.037114002 0.15589494
-0.035057854 0.013890233 0.15403429
-0.03596865 0.0091423858 0.15290144
-0.01512684 0.036643226 0.15115032
-0.016092522 0.035661191 0.14729872
-0.035832122 0.016776672 0.14513937
-0.025139779 0.036119144 0.14130843
-0.036487889 0.018579584 0.14077163
-0.026712529 0.036372196 0.13715124
-0.03484362 0.030029902 0.13650709
-0.027509514 0.036216941 0.13225362
-0.033916686 0.030191286 0.13208035
-0.028632738 0.035984028 0.12855363
-0.033526391 0.030868514 0.12817228
-0.021189997 -0.015935211 0.19735679
-0.024209689 -0.017359979 0.19789106
0.020235924 0.028975576 0.19586089
-0.010779338 -0.0037467144 0.19326302
-0.014860732 -0.007493882 0.19317386
-0.019285906 -0.011269657 0.19452029
-0.023306498 -0.013923259 0.19565141
-0.025981504 -0.016173845 0.19606498
0.020582573 0.034255598 0.19351929
0.018354271 0.029858502 0.1933215
0.01449928 0.027005257 0.1926308
0.010627983 0.023772318 0.19309086
0.0072025685 0.020749575 0.19359979
0.0031181993 0.017002549 0.19351393
-0.00013408391 0.012514859 0.19253057
-0.0036329678 0.0096341856 0.19231138
-0.0094439192 0.0022227503 0.19314438
-0.013004834 -0.0014861841 0.19332615
-0.017079771 -0.0052131554 0.19324461
-0.025605034 -0.013385985 0.19290358
0.019328963 0.035459653 0.18996298
0.01568961 0.032609373 0.19011548
0.012218521 0.030006763 0.19092703
0.0090223458 0.02678193 0.19195315
0.018176612 0.036665417 0.18654954
0.014446728 0.035175726 0.18626463
0.011370725 0.035958603 0.18110752
0.010154151 0.036821384 0.17581892
0.0076963753 0.036935411 0.17597866
0.010149023 0.037132863 0.17223415
0.0068611698 0.037341684 0.17186475
0.0047270861 0.036968324 0.16735226
0.0012185629 0.037200928 0.16767323
-0.038350899 -0.0055822264 0.1638608
0.00021092407 0.036355805 0.16300216
-0.00402412 0.036028787 0.16282105
-0.036638446 -0.00035649911 0.16005707
-0.038091928 -0.0034116432 0.16012266
-0.0014473498 0.036071014 0.1588769
-0.0033868421 0.035748444 0.15863025
-0.036620881 0.00094165653 0.15598655
-0.037539169 -0.0024137311 0.15509462
-0.0068486938 0.03614758 0.15376204
-0.010680278 0.036603764 0.1528877
-0.036828186 0.0078655137 0.15075177
-0.037290841 0.0041414537 0.15127978
-0.037746605 -0.0011320356 0.15166432
-0.007308987 0.035846937 0.14906946
-0.010769987 0.036139704 0.14851719
-0.036512043 0.0092334738 0.14688072
-0.03705553 0.0044840667 0.14660031
-0.014031199 0.036054511 0.14464474
-0.035665248 0.013678513 0.1425975
-0.036001325 0.010014609 0.14324084
-0.017621143 0.035442665 0.14026907
-0.020794731 0.035961814 0.13501936
-0.036500584 0.014388533 0.13426614
-0.024666006 0.036362968 0.13068342
-0.03507635 0.023714121 0.13020638
-0.022579391 0.036715996 0.12793231
-0.030917969 0.033987924 0.12569422
-0.03492156 0.024831796 0.12582707
-0.030654537 0.034034044 0.12074518
-0.034948446 0.026998401 0.12290096
-0.033883579 0.031875197 0.11727315
-0.013596409 -0.014927572 0.19601414
0.019791767 0.026150541 0.1956799
0.018853404 0.022691716 0.19541106
0.015843118 0.019510901 0.19404927
0.012261257 0.016450651 0.19379672
0.0080230115 0.011773405 0.19367871
0.0048189252 0.0076249763 0.19319552
0.0017984919 0.0039237887 0.19270962
-0.0017097356 0.00068058079 0.19262257
-0.0057090754 -0.0020869742 0.19294333
-0.0081392415 -0.0068950653 0.19338983
-0.010998737 -0.010327335 0.19314811
-0.014608939 -0.01291674 0.19385394
0.021752086 0.030954845 0.19431743
0.016432703 0.025098765 0.19376123
0.013718838 0.022217916 0.19352591
0.0020238003 0.010387504 0.19277725
-0.0017114379 0.0062970528 0.19239646
0.019854477 0.036392894 0.18323109
0.019636041 0.035804998 0.17911538
0.015650755 0.034851085 0.17967498
0.018625122 0.035517238 0.17538765
0.015516942 0.034955654 0.17491907
0.013900004 0.035307057 0.16976026
0.008499234 0.03677395 0.16901436
0.0085709607 0.0363212 0.1649991
0.0058759814 0.036421232 0.16092902
0.0032373555 0.035953674 0.15958616
-0.037032586 -0.0066880304 0.15614766
-0.036004175 -0.010096841 0.15590116
0.0055259159 0.036214296 0.156809
0.0020828396 0.03577663 0.15594441
-0.036750413 -0.0062489044 0.15197447
7.6357275e-05 0.035729468 0.15185726
-0.0026634857 0.035536055 0.1525161
-0.036223136 -0.00034655817 0.14947563
-0.037445303 -0.0032510553 0.14855808
-0.0040363278 0.035414975 0.14735663
-0.036210135 0.0017135143 0.14403608
-0.036362845 -0.0023111384 0.1447266
-0.0059718732 0.035898995 0.14313039
-0.009982449 0.035956938 0.14271629
-0.035301711 0.0083075492 0.13980138
-0.036235593 0.0035322383 0.13999909
-0.01168107 0.035216231 0.13791299
-0.035419963 0.0097947558 0.13518703
-0.036065619 0.0060739797 0.13585579
-0.013096545 0.034500733 0.13315246
-0.03597093 0.012639729 0.13077676
-0.035625931 0.017033353 0.12714773
-0.036216754 0.013570474 0.12635338
-0.03561303 0.023145072 0.12307072
-0.020923447 0.035583843 0.12068129
-0.035284884 0.024971705 0.11977291
-0.026829446 0.036121592 0.11609089
-0.034097336 0.030820021 0.11428475
-0.036306322 0.022014128 0.11499441
-0.029966293 0.034038499 0.10964906
-0.034654029 0.027359072 0.11124128
-0.0046156496 -0.016005835 0.1983133
-0.0033739908 -0.011922803 0.19455889
-0.0070561576 -0.014535367 0.19620398
-0.010367608 -0.01691065 0.19734332
0.018951925 0.016113499 0.19426525
0.015584359 0.012724945 0.1937466
0.013071567 0.0087912995 0.19380099
0.0085858945 0.0045318715 0.19390118
0.0052903378 0.0004240626 0.19347504
-0.00132672 -0.006502605 0.19294491
-0.0047479086 -0.0093243811 0.19347283
-0.0089971442 -0.012437927 0.19419131
0.024940494 0.036110751 0.17679673
0.022193138 0.036421318 0.1771445
0.023826117 0.037541874 0.17229211
0.020896537 0.036122248 0.17260891
0.017139532 0.035012066 0.17201206
0.023265284 0.038510554 0.16732296
0.020472936 0.036686737 0.16763011
0.016400622 0.035475776 0.16830552
0.021887446 0.039996423 0.1648379
0.019186787 0.036757465 0.16379005
0.014753994 0.035567872 0.16347229
0.010571916 0.03544673 0.16181061
0.014135134 0.036524378 0.15841144
0.010058541 0.035710711 0.15789008
-0.035635911 -0.010407394 0.15368599
0.0084743286 0.035921618 0.15345031
-0.035743862 -0.010085279 0.14817154
0.0061948933 0.036161974 0.14980483
0.0033383872 0.035793819 0.14956248
-0.037541263 -0.0057677608 0.14637336
-0.036673836 -0.010132022 0.14473158
0.0020359177 0.035450861 0.14488026
-0.0014288463 0.035020251 0.14404652
-0.035664186 -0.00059631653 0.14145055
-0.037112571 -0.0040197894 0.14203876
-0.037815813 -0.0075225923 0.13888246
0.0011965334 0.035055622 0.13996795
-0.002283873 0.035567783 0.14039177
-0.036095239 0.0011322331 0.13869554
-0.036803104 -0.0027116947 0.13751641
-0.038987692 -0.0062426217 0.13814962
-0.0042361636 0.035462372 0.13620761
-0.0078288736 0.035087656 0.13645127
-0.036553778 0.0035578031 0.13390169
-0.035525959 -0.0004167892 0.13376629
-0.0092793182 0.03463272 0.13150394
-0.013324064 0.034213699 0.12988064
-0.035510827 0.0090342639 0.12903309
-0.035790719 0.0049888864 0.1292088
-0.010320188 0.034865193 0.126845
-0.014219903 0.034786765 0.12624282
-0.036183462 0.010554276 0.12384742
-0.03590909 0.0067683896 0.12461519
-0.011138198 0.03479765 0.12329715
-0.035446867 0.016335931 0.11929089
-0.036042687 0.012977724 0.11999476
-0.035828076 0.017483391 0.1156987
-0.035633542 0.01437833 0.1163587
-0.02196346 0.034885976 0.11297369
-0.035822172 0.019791353 0.11156183
-0.033178847 0.029066904 0.10816801
-0.035248332 0.021292847 0.10816383
-0.02932656 0.03373912 0.10421783
-0.03346955 0.026552027 0.10426962
-0.032452371 0.030815274 0.099407911
0.0045881835 -0.013774017 0.19579288
0.00050306879 -0.015460555 0.1975325
-0.003918428 -0.01786229 0.19815585
0.020153733 0.0069045322 0.19526023
0.017855909 0.0045516635 0.19447935
0.013296422 -0.00016292278 0.19406244
0.009169573 -0.0028596434 0.19375539
0.0021707728 -0.010412758 0.19395751
-0.00077099865 -0.013584903 0.19532314
0.020714771 0.013343116 0.19419274
0.017661937 0.0096304324 0.19371706
0.012608309 0.0044859354 0.19337735
0.025598038 0.038309187 0.17002657
0.025106955 0.038886864 0.1686179
0.020807812 0.037646148 0.16162255
0.019135512 0.038173407 0.15779132
0.016073372 0.037354663 0.15654248
0.018521518 0.038514543 0.15259159
0.01440228 0.037048619 0.15265948
0.010515796 0.036422785 0.15087786
0.013826214 0.038247444 0.14815277
0.0093112318 0.036284115 0.14722967
0.0088503389 0.036234744 0.14214152
0.0050845956 0.035612904 0.14233306
-0.036656 -0.010186596 0.1393041
0.0071562212 0.036243696 0.13783386
0.0033219364 0.035753679 0.13837957
-0.036158614 -0.0032731947 0.13451287
-0.038317464 -0.007309013 0.13497192
0.0018823445 0.035795383 0.13363296
-0.0014727898 0.035855323 0.13387334
-0.036067262 -0.0023456514 0.13082996
-0.037979305 -0.0063502844 0.13015354
-0.0028897189 0.035046488 0.12949258
-0.0068156375 0.03467178 0.12896508
-0.036032118 0.0027769562 0.1259656
-0.035646603 -0.0015239231 0.12611109
-0.037217457 -0.0053299088 0.1261518
-0.0040279925 0.035124909 0.12445354
-0.0076231556 0.035170812 0.12522453
-0.035829309 0.0036649033 0.12204176
-0.0087821214 0.035264447 0.12019962
-0.035916828 0.0099755302 0.11803001
-0.035871055 0.006446573 0.1180622
-0.010427065 0.03463845 0.11598843
-0.013947191 0.034163941 0.11549163
-0.035697293 0.011472872 0.11415017
-0.03517374 0.0070616174 0.11411941
-0.035027888 0.016410571 0.10929644
-0.034840211 0.012491712 0.10980958
-0.021301787 0.034021512 0.10491252
-0.034923911 0.018538691 0.10498077
-0.033974696 0.024662446 0.10122913
-0.025168004 0.034551635 0.097564101
-0.033053592 0.030546002 0.0968768
-0.035342004 0.022049192 0.095713615
-0.032862891 0.031172417 0.092637122
-0.030147064 0.034038201 0.088175535
0.021260928 0.00042537879 0.19569802
0.018122215 -0.0032638558 0.1952686
0.01146843 -0.012534368 0.19372007
0.0059360527 -0.018645842 0.19686803
0.019353421 0.00088458695 0.19414181
0.0172728 -0.00085422397 0.19416901
0.01027138 -0.010703336 0.19264928
0.014371559 0.036680132 0.14194164
0.01360572 0.036995865 0.13622636
0.010551867 0.036669761 0.13707277
0.0068450989 0.034611858 0.13421428
0.0096673099 0.035960533 0.13192725
0.0058547789 0.035065409 0.13100567
0.0045233127 0.034860104 0.12676233
-0.0004317984 0.035450928 0.12634081
-0.034966104 -0.0040629338 0.12281632
-0.037182502 -0.0068550641 0.124026
0.0026947185 0.035002552 0.12264681
-4.9458817e-05 0.0345794 0.12136924
-0.03402108 -0.0028030761 0.11929756
-0.0024655443 0.03474953 0.11709851
-0.035140775 0.0022968389 0.11546999
-0.0344074 -0.00073762983 0.1134786
-0.0036111362 0.034972027 0.11381698
-0.0067175459 0.034190014 0.11264831
-0.011078911 0.033265136 0.11259627
-0.035240352 0.0046615871 0.11062026
-0.035554022 0.00058580749 0.11078823
-0.0084419847 0.033850268 0.10813421
-0.011666667 0.033226386 0.10850042
-0.034561042 0.010263735 0.10665876
-0.035198241 0.0057972409 0.10579312
-0.013144376 0.03363407 0.10388833
-0.034340143 0.011412118 0.10220432
-0.017874371 0.033451974 0.099688709
-0.035042509 0.013023694 0.097748458
-0.035128459 0.018216301 0.094022751
-0.022562753 0.03355965 0.090622544
-0.033985421 0.024056941 0.089797378
-0.023520328 0.033594046 0.087106586
-0.032795608 0.031567097 0.084781766
-0.028872084 0.033169173 0.081596971
-0.033822898 0.027462075 0.08090198
0.013761414 -0.013841399 0.19435489
0.017145328 0.035782408 0.13788715
0.015585427 0.037514091 0.13460442
0.013791335 0.03781065 0.13118109
0.012043122 0.036762074 0.12997749
0.013719455 0.037702188 0.12673354
0.0097004166 0.036401622 0.12625271
0.0068606539 0.035362288 0.12479675
0.0091209635 0.036935098 0.12060237
0.0053087231 0.035506092 0.12138247
-0.033580102 -0.0056925416 0.11702049
-0.034573779 -0.0087631308 0.11757404
0.0049957549 0.035248674 0.11630046
0.0011205655 0.03475105 0.11635
-0.034047876 -0.0041402997 0.11317086
-0.035523154 -0.0077835284 0.11221057
-0.0014688708 0.034896776 0.11153495
-0.035318919 -0.0022196472 0.10840398
-0.03677284 -0.0060584061 0.10817498
-0.0020013452 0.035067819 0.10710073
-0.0058475174 0.034528486 0.10631728
-0.035856646 0.0035660025 0.10360962
-0.036176577 -0.00016453676 0.10414183
-0.037597239 -0.0052811392 0.10461032
-0.0032115597 0.035344034 0.10385048
-0.0074847499 0.034310337 0.10207945
-0.010887677 0.033844795 0.10186577
-0.035770424 0.0059896894 0.09990716
-0.036316264 0.0010802131 0.099461079
-0.0085136481 0.034103476 0.097794652
-0.011909023 0.033569865 0.096923232
-0.035620164 0.010730415 0.095462203
-0.03605248 0.00717788 0.094976902
-0.01392156 0.034056135 0.092469215
-0.035856109 0.012335862 0.091457188
-0.036050763 0.0090534491 0.090703607
-0.018350136 0.034091923 0.088724971
-0.035808992 0.01398532 0.086561024
-0.023503872 0.033054247 0.083405256
-0.03429896 0.019982304 0.08317697
-0.024780497 0.032586165 0.079469979
-0.034033284 0.021076754 0.077780366
-0.033779658 0.026521103 0.074461699
-0.033381958 0.02840195 0.069980443
0.011937313 0.037891336 0.1177808
-0.034230325 -0.010427299 0.11414635
0.010307676 0.036387552 0.11377358
0.0068162857 0.035249136 0.11285943
-0.035429247 -0.011351677 0.10924989
0.0099032316 0.036963526 0.10867929
0.0060590282 0.035135377 0.10916728
0.0028911205 0.033644494 0.10890889
-0.037531622 -0.008396429 0.1063782
0.0059825322 0.035006028 0.10461724
0.0022461396 0.034081083 0.10395026
-0.036272436 -0.0030291062 0.10218483
-0.036824457 -0.0071573714 0.10085833
4.5148656e-05 0.034329921 0.10004979
-0.0042132968 0.034347102 0.099781513
-0.035106368 -0.0030718949 0.096144021
-0.035750315 -0.0057413336 0.096402168
-0.004914104 0.03372208 0.095461369
-0.035741657 0.0039202999 0.092697978
-0.03501888 0.00079169683 0.092594087
-0.0067613311 0.033808209 0.0910694
-0.010336933 0.034040406 0.091622114
-0.035434704 0.0053667352 0.088295281
-0.0077702207 0.034143381 0.087306142
-0.011585892 0.034118906 0.086223543
-0.035394385 0.0074744411 0.084391177
-0.012293929 0.033899266 0.081772685
-0.033813298 0.016659658 0.0796808
-0.035008695 0.012842312 0.079995513
-0.03478919 0.0082084388 0.080413818
-0.013715745 0.033719435 0.077912927
-0.022524165 0.032136925 0.076565981
-0.034494285 0.014047001 0.075449347
-0.022679515 0.031423129 0.072122276
-0.032994274 0.023357073 0.069849014
-0.034320429 0.015219654 0.071932673
-0.02857271 0.031429566 0.067438722
-0.033239558 0.021431057 0.066771328
-0.029197186 0.031293571 0.062443972
-0.033207465 0.023941554 0.063081563
-0.032496531 0.028657196 0.057851195
0.012130598 0.037816569 0.10765153
0.0090008583 0.037384227 0.10291457
0.0064203842 0.035810895 0.10212088
0.0090678297 0.037724983 0.0980106
0.0063056983 0.035558306 0.097434402
0.0023762118 0.034297645 0.097106397
-0.03702125 -0.0071110595 0.094595969
0.0012446344 0.033408832 0.093122125
-0.034465555 -0.0032655895 0.090038657
-0.036469471 -0.0059106406 0.089575052
-0.0036659613 0.034076706 0.088712633
-0.034381352 -0.00055159442 0.085821867
-0.036079936 -0.0049800258 0.085823774
-0.005659068 0.034235027 0.084218383
-0.034949806 0.0043319855 0.082359791
-0.03448876 0.0015408993 0.080522537
-0.0071037589 0.033974662 0.080726027
-0.010233567 0.034075662 0.079011321
-0.034493871 0.0066331932 0.076888919
-0.034487847 0.0032678898 0.077408016
-0.01190522 0.033964034 0.075447559
-0.034848943 0.01209936 0.074500918
-0.034498651 0.0094449194 0.072763026
-0.033561729 0.014574357 0.069079876
-0.034244381 0.010538923 0.069137633
-0.021200489 0.032667141 0.065859079
-0.032145701 0.015693247 0.064831376
-0.023372313 0.033054646 0.061836362
-0.025213212 0.033473574 0.057540894
-0.0331829 0.026628451 0.056373179
-0.025457973 0.033080205 0.052836418
-0.032502722 0.029160898 0.052612185
0.010206132 0.037066989 0.093003869
0.0076475339 0.035354532 0.091738701
0.0041279122 0.033845231 0.091223061
-0.036449421 -0.0095077204 0.088568807
0.0098203477 0.037800539 0.088499129
0.007360829 0.035717983 0.086531639
0.0027872398 0.033425551 0.087325752
-0.035852093 -0.0051361406 0.083573639
-0.036835745 -0.0089635262 0.084986091
0.0056672161 0.035309933 0.083061099
0.0020644218 0.033926927 0.082336485
-0.001615312 0.033210628 0.081525981
-0.03410377 -0.001425039 0.079653084
-0.035686363 -0.0051503778 0.079374194
0.0013654679 0.0340361 0.078382075
-0.0030704401 0.033374779 0.077573955
-0.034194142 -0.00012026541 0.074613333
-0.035655469 -0.0045209965 0.07477206
-0.0043148631 0.03383857 0.07324481
-0.0097968718 0.033711404 0.072728753
-0.033909716 0.0061522154 0.070524931
-0.034281924 0.0021526776 0.070459306
-0.0061209965 0.034478638 0.068615437
-0.0099269627 0.033288728 0.068849087
-0.032946814 0.012920843 0.065697789
-0.033810783 0.0070424965 0.06615454
-0.034177922 0.0033960817 0.066980541
-0.010613427 0.033674307 0.064059734
-0.032600544 0.013917102 0.062288642
-0.03366071 0.0092984801 0.062270999
-0.012581192 0.033863872 0.059763014
-0.032249622 0.018558407 0.057225406
-0.017275251 0.033713579 0.054511368
-0.032883529 0.020583456 0.053569078
-0.018917095 0.033726592 0.050598264
-0.027138008 0.032642491 0.049316645
-0.032681167 0.022122636 0.049292028
-0.028370893 0.031426296 0.04565227
-0.032992806 0.023523418 0.04490459
-0.027821954 0.031453539 0.041574419
-0.033289727 0.025175706 0.041865945
0.0077043576 0.035047796 0.079378605
0.003960005 0.034911804 0.079595387
0.0068212645 0.035563305 0.075713873
0.0027929004 0.034397639 0.075179756
-0.036013342 -0.0051150629 0.071823955
-0.038028494 -0.0071835741 0.07117188
0.0014460795 0.0345724 0.070349336
-0.001920633 0.034369234 0.069943607
-0.033766545 -0.001895519 0.067826927
-0.035654813 -0.0044266907 0.067617774
-0.036373816 -0.0088164331 0.067272067
-0.0025827549 0.034144681 0.065995216
-0.033896148 0.0018085595 0.063394964
-0.0056656934 0.033917107 0.062297165
-0.0088795265 0.034778707 0.061421275
-0.033535164 0.006064753 0.059338868
-0.033769011 0.0024961643 0.059269011
-0.0099807372 0.033824082 0.057259023
-0.032420963 0.011690523 0.055277288
-0.032331973 0.0082690986 0.054643452
-0.011295395 0.033718027 0.052128613
-0.032907043 0.013364212 0.050875664
-0.0328632 0.0099896966 0.050282836
-0.032926936 0.019795399 0.046795189
-0.018160276 0.033369049 0.044662893
-0.032857832 0.020544922 0.04245156
-0.022039112 0.032464515 0.038234472
-0.03213504 0.026589008 0.037833691
-0.02355307 0.032333061 0.034326553
-0.030895017 0.027931361 0.033686757
-0.030150959 0.028608575 0.029394388
0.0074596386 0.035560708 0.072951794
0.0079442551 0.035632707 0.069188297
0.0046672309 0.034991886 0.069927394
-0.035778668 -0.010556893 0.063854754
0.0067071393 0.035743196 0.065092325
0.0032186117 0.034458108 0.064808667
-0.032891914 -0.0025709607 0.061744928
-0.034955449 -0.005587942 0.061529577
-0.036205284 -0.0097427061 0.060782135
-0.001709586 0.033374541 0.059827566
-0.033248 -0.00052737445 0.056633592
-0.035040677 -0.0053075915 0.05663538
-0.038485464 -0.0073909461 0.056668162
-0.0029839836 0.033013806 0.055033922
-0.0061605601 0.032634683 0.054440975
-0.032566957 0.0055509098 0.052720606
-0.033682186 0.0020325501 0.052911758
-0.039885074 -0.0069996566 0.053445637
-0.0073141316 0.032836638 0.050972462
-0.033160269 0.0071561458 0.048732758
-0.033916786 0.0033225687 0.048422635
-0.010510832 0.03351602 0.046802521
-0.032798536 0.012606598 0.044427752
-0.033445369 0.0088507636 0.044618607
-0.011256148 0.033719931 0.043089986
-0.033225868 0.014686418 0.0404194
-0.033987839 0.010674672 0.040080667
-0.019556381 0.032923356 0.036661804
-0.033488099 0.015840827 0.03589344
-0.034274444 0.012160849 0.035391629
-0.020958969 0.032588515 0.032978594
-0.032723274 0.021946922 0.032049298
-0.022625014 0.032746501 0.028028667
-0.030987624 0.027768033 0.027738929
-0.033710871 0.019191096 0.027658522
-0.031206453 0.028814029 0.0236848
-0.028927181 0.031499177 0.01972419
0.013743246 0.03640417 0.060661316
0.010351477 0.034886923 0.06158787
0.0070646014 0.033450969 0.060398698
-0.036241956 -0.011061066 0.057502985
0.0042676236 0.032267794 0.057510495
-0.033829696 -0.0049022017 0.053505003
0.00068987533 0.032370903 0.052634358
-0.032833651 -0.002164145 0.050356686
-0.034435168 -0.0050313324 0.049783766
-0.037395947 -0.0079177609 0.05012393
-0.0017678514 0.031781204 0.047784805
-0.005008515 0.03196767 0.048099279
-0.033110663 -0.00043589622 0.045172751
-0.033675674 -0.0035330886 0.045746922
-0.0058692778 0.031599183 0.043023229
-0.03305535 0.0057616448 0.041445017
-0.03300488 0.0023249714 0.040811896
-0.0095740724 0.032346781 0.039152205
-0.033640563 0.0071915584 0.036771297
-0.033588719 0.0040606428 0.037493348
-0.0084396303 0.031467788 0.035814822
-0.013254194 0.033171486 0.033896565
-0.033643328 0.0092039173 0.032653213
-0.018394943 0.032259073 0.029124498
-0.033306677 0.010665894 0.028521538
-0.019279383 0.032578774 0.02552247
-0.03373839 0.017374273 0.024360716
-0.025009733 0.031496461 0.020274103
-0.033280857 0.018346757 0.019648433
-0.026349539 0.031488918 0.016355813
-0.032453489 0.023777405 0.016410053
-0.026796782 0.030965051 0.012645125
-0.03158991 0.025018113 0.012764931
0.014080562 0.033650264 0.062042356
0.01587305 0.034750536 0.056425333
0.012380634 0.033459533 0.055417299
0.0087675564 0.031487487 0.054789543
0.0064443033 0.03152395 0.050678372
0.0050187018 0.03185958 0.045675933
0.0018045707 0.03191537 0.046953082
-0.03412661 -0.0062504299 0.043646097
-0.035778955 -0.009559311 0.042850256
-0.03760381 -0.011497881 0.040977955
7.4861571e-05 0.031797778 0.041954875
-0.0037116436 0.031174565 0.041552126
-0.032222439 -0.0023534726 0.039234698
-0.033253372 -0.0049156835 0.038252354
-0.035753436 -0.0084030768 0.0375278
-0.03803147 -0.011747764 0.037485003
-0.0015286291 0.031787187 0.036393166
-0.0044913152 0.031289838 0.0373348
-0.032877013 0.00096159615 0.035185993
-0.033352822 -0.0033733463 0.03314805
-0.036535617 -0.0074068317 0.033189654
-0.038884327 -0.0098467451 0.033018827
-0.0059981914 0.031990446 0.032315731
-0.032946881 0.0061680935 0.029821396
-0.033170011 0.0027205599 0.029964745
-0.008276606 0.033031013 0.028051257
-0.011599154 0.032758038 0.027641177
-0.032563936 0.0071654581 0.025894403
-0.032890033 0.0038197869 0.026156664
-0.0095605878 0.033408038 0.023602962
-0.012470581 0.03243579 0.024037242
-0.032605812 0.010443736 0.022008896
-0.017850304 0.031626724 0.018271446
-0.032339107 0.010998729 0.017299235
-0.019231152 0.032354314 0.01414907
-0.032768354 0.016954476 0.012623549
-0.024866257 0.031192083 0.0097961426
-0.031718988 0.022643367 0.0088269114
0.015939236 0.034861226 0.054325044
0.014479146 0.03404944 0.052501142
0.018202115 0.033096552 0.049918115
0.014152651 0.031876829 0.048390746
0.01102109 0.030562639 0.049101472
0.0099250395 0.031048615 0.044198036
0.0070658205 0.031506691 0.040026307
0.003628727 0.031368516 0.038625717
-0.037958026 -0.010916183 0.035078824
0.0060672658 0.031643149 0.035261989
0.0027686181 0.031305067 0.03474766
-0.033707753 -0.0029146699 0.031109929
-0.03728221 -0.0077383611 0.030165017
-0.039626155 -0.008968953 0.030737817
8.8650733e-05 0.031409569 0.030914068
-0.033134107 -0.0037348215 0.027487278
-0.03590833 -0.0074898871 0.026744485
-0.0015051262 0.032367196 0.028073311
-0.0036844602 0.032257944 0.025995135
-0.032270983 0.0026919385 0.022917807
-0.032597035 -0.0025766734 0.024169624
-0.0051877741 0.032453153 0.021535099
-0.032019343 0.008107326 0.019641757
-0.031901874 0.0040885843 0.018776476
-0.0079128621 0.032144934 0.018558741
-0.0099966601 0.030993929 0.01642102
-0.032112651 0.0090153432 0.015351295
-0.031813934 0.005658322 0.014680147
-0.011741929 0.031560078 0.012216926
-0.032346845 0.010114927 0.010151863
0.016572569 0.032586344 0.046204388
0.015166971 0.03121379 0.04214704
0.0140023 0.031040328 0.036962926
0.010698872 0.031201456 0.037274003
0.0093037421 0.031538054 0.032288671
0.0077760741 0.031352092 0.027949512
0.0038067456 0.030773643 0.028397143
0.0028590504 0.030844048 0.023740888
-0.03207114 -0.0042206701 0.02028966
-0.033978105 -0.0080314893 0.020832717
0.0013444107 0.030296512 0.018562675
-0.0016533872 0.030823201 0.018441975
-0.031952038 0.00075181108 0.017135441
-0.031743549 -0.0037873713 0.01634872
-0.0050298395 0.030850697 0.013836682
-0.032129608 0.003212804 0.012207747
-0.0053044623 0.031390943 0.0099257231
-0.010237903 0.031452406 0.0095922947
0.021375902 0.031066554 0.038331628
0.019054528 0.030794192 0.039446652
0.021811606 0.03086601 0.035791814
0.018563423 0.030422278 0.035142303
0.014580453 0.030951802 0.031139374
0.014921789 0.030987404 0.026589811
0.011625844 0.031204738 0.025848925
0.0094208186 0.030642007 0.021817088
0.0062770601 0.029065266 0.01933831
-0.033389572 -0.010217316 0.01766628
0.0043075206 0.029202398 0.016150117
-0.032194819 -0.0055075157 0.014059126
-0.032545004 -0.0093419803 0.014788866
0.0027650753 0.029421184 0.011653543
-4.607439e-05 0.029694594 0.012369633
-0.031257994 -0.00394616 0.0096585751
0.022131173 0.030850928 0.032325685
0.020134114 0.030376215 0.032056808
0.023241894 0.031297922 0.028687954
0.01959344 0.029782774 0.028049707
0.01787284 0.030722819 0.024759352
0.016083855 0.030400546 0.020056546
0.01129488 0.030990351 0.01985532
0.011268075 0.03008824 0.015324414
0.0069298605 0.029185418 0.014613569
-0.031076541 -0.012467187 0.011239529
-0.030223602 -0.015873946 0.010080755
0.0099516585 0.029757133 0.010992527
0.0069897939 0.029065635 0.010061383
0.024022587 0.030809151 0.025750041
0.023737326 0.030786889 0.022027254
0.020441609 0.030149288 0.021475375
0.019440718 0.029883269 0.016708076
0.017115582 0.03001361 0.01256007
0.014222221 0.029651843 0.011410236
-0.030483402 -0.01552936 0.0082234144
0.026502211 0.030194104 0.019546092
0.02633106 0.029549977 0.014789224
0.022488803 0.029560281 0.014760673
0.025475128 0.029482275 0.010762691
0.022014933 0.029428726 0.010032892
0.028727068 0.028843556 0.010742486
