# .PCD v0.7 - Point Cloud Data file format
VERSION 0.7
FIELDS x y z
SIZE 4 4 4
TYPE F F F
COUNT 1 1 1
WIDTH 1212
HEIGHT 1
VIEWPOINT 0 0 0 1 0 0 0
POINTS 1212
DATA ascii
0.033484444 0.059463494 0.81946671
0.037505511 0.058345921 0.81906688
0.041366022 0.058425423 0.81916684
0.032705262 0.06248394 0.81909639
0.037226848 0.06238097 0.81774819
0.042613283 0.062449068 0.81863886
0.033475615 0.067067459 0.81924456
0.037249614 0.066986278 0.81825191
0.041662965 0.066835232 0.81873339
0.03426297 0.070925131 0.81980014
0.037300203 0.070886724 0.81935573
0.040886316 0.070667222 0.81975555
0.03846921 0.054077655 0.82257766
0.041749023 0.054186158 0.82267988
0.022918364 0.058273882 0.8242113
0.027652023 0.057924442 0.82260513
0.032650508 0.056861848 0.82154644
0.036631189 0.055788919 0.82148314
0.043119438 0.056521766 0.82103312
0.04635182 0.0573994 0.8226732
0.023695802 0.062896982 0.82451135
0.027447032 0.062688701 0.8217833
0.046635639 0.062728003 0.82228869
0.023707937 0.065998323 0.82493347
0.027689612 0.06721811 0.8227818
0.031243166 0.067194797 0.82079977
0.044222694 0.067145228 0.82019985
0.045141064 0.068140157 0.82300007
0.029444881 0.071675129 0.8240335
0.032374445 0.072079241 0.8217712
0.037398297 0.073365338 0.82151085
0.042538662 0.072402202 0.82213324
0.045239791 0.070590511 0.82480019
0.032918915 0.075160943 0.82444453
0.037483241 0.075063713 0.82337779
0.041719675 0.075470574 0.82363343
0.0099203177 0.054043308 0.82986683
0.013393713 0.05362267 0.8293336
0.017635711 0.053203169 0.82881135
0.022261128 0.053172965 0.82834452
0.027143739 0.053413093 0.82808882
0.033546545 0.052845258 0.82725573
0.037436634 0.051889252 0.82719052
0.042284828 0.051559374 0.82717776
0.046754953 0.05255834 0.82777512
0.0095265107 0.057476133 0.82928371
0.012984348 0.056996398 0.82792598
0.017587317 0.057668898 0.82653326
0.021427685 0.056861658 0.8259778
0.026818855 0.055328012 0.82600003
0.048363175 0.05760432 0.82560003
0.0095274132 0.061339095 0.82936692
0.013144488 0.061952524 0.82827348
0.017600292 0.063098408 0.82714063
0.02141233 0.062966086 0.82541126
0.048433464 0.062302202 0.82679987
0.014564624 0.066398308 0.82993352
0.01782845 0.067655712 0.82878357
0.022028642 0.067885824 0.8268916
0.025275011 0.069145523 0.8258667
0.046878248 0.06766922 0.82656682
0.019188074 0.070955649 0.82906699
0.022454517 0.072245806 0.82838345
0.026632469 0.072438776 0.82619166
0.046315432 0.072668783 0.82750666
0.023057144 0.075594515 0.82920033
0.027740769 0.076510891 0.82797784
0.032609303 0.077882864 0.82775241
0.037627462 0.077659078 0.82654428
0.0425326 0.077760257 0.82598674
0.046163168 0.07698521 0.8275556
0.033505213 0.080630384 0.82943356
0.037863865 0.082271367 0.82864875
0.042212818 0.082257956 0.82850933
0.045459177 0.080183223 0.82880026
0.040864713 0.086440407 0.82966679
0.02789047 0.049717795 0.83499974
0.032555364 0.049707871 0.83483303
0.038328957 0.049234219 0.83340001
0.042566981 0.048805088 0.83269995
0.047305051 0.048886929 0.8340888
0.050454982 0.049701918 0.83473319
-0.00091931585 0.054377582 0.83499974
0.0025049285 0.053725056 0.83451986
0.0072958055 0.05337825 0.83326656
0.012741864 0.051718049 0.8322134
0.017705599 0.051093698 0.83211112
0.022387644 0.05114964 0.83302218
0.027426334 0.05151993 0.83276665
0.031343699 0.051679961 0.83160007
0.048667774 0.051013179 0.83080006
0.051467661 0.052703779 0.83310479
-0.0015421717 0.057791065 0.83494645
0.0021897955 0.057366237 0.8332963
0.006640743 0.057021409 0.8310917
0.05093614 0.056994863 0.83240002
-0.00091927912 0.061364852 0.83496642
0.0021910735 0.062048052 0.8337037
0.0070125833 0.062424686 0.831837
0.012251749 0.064903975 0.83056664
0.0021948393 0.065241724 0.8348887
0.0079473061 0.066880807 0.83401334
0.01285949 0.068333216 0.83233333
0.016133161 0.069575302 0.83099991
0.047129683 0.068029478 0.83100015
0.013856902 0.072925933 0.83395553
0.017501807 0.07291761 0.83165002
0.020757644 0.07412345 0.83000022
0.04879665 0.07439138 0.833
0.013872555 0.076111086 0.8348664
0.018048106 0.076612987 0.83355999
0.022145106 0.077870145 0.83231413
0.026210029 0.078859732 0.83109987
0.048816182 0.076747268 0.83333337
0.023460129 0.081238434 0.83435553
0.027073657 0.082223535 0.83384442
0.031855214 0.082603753 0.83182502
0.036237232 0.084931172 0.83000004
0.04399471 0.084965274 0.83033329
0.046547659 0.082317933 0.83166665
0.028150016 0.085960545 0.83499974
0.032732204 0.086747542 0.83395743
0.037840977 0.08815179 0.83124435
0.042667147 0.088303499 0.83085823
0.045732219 0.086869694 0.83377767
0.034379169 0.090620361 0.83499974
0.037948973 0.093056172 0.83362216
0.042566903 0.092951484 0.83268148
0.045760859 0.090803012 0.8342998
0.039179198 0.097476713 0.83496642
0.041506045 0.097455509 0.83478308
0.0084701339 0.049987726 0.83953339
0.012888957 0.049403135 0.83845568
0.017837994 0.049132664 0.83828884
0.022504592 0.049082607 0.83743334
0.026974058 0.047868699 0.83761901
0.032333124 0.047652494 0.83771425
0.037343871 0.04726854 0.83748889
0.042838797 0.045999274 0.83802229
0.047520816 0.045992766 0.83789998
0.051927261 0.048671246 0.83838671
-0.011344536 0.052509595 0.83823329
-0.007171039 0.052990668 0.83763236
-0.0026772371 0.052745953 0.83684158
0.0018108162 0.05177211 0.83683324
0.0076566404 0.051353961 0.8363499
0.053613476 0.052851431 0.83543324
-0.011475173 0.057326898 0.83836675
-0.0071692369 0.057648692 0.83738512
-0.0036492595 0.057165548 0.8360166
0.053184036 0.057611272 0.83684444
-0.0069574816 0.061973315 0.83869535
-0.0029278626 0.062487416 0.8366285
0.051036701 0.061969735 0.83788335
-0.0071849888 0.065570801 0.8391
-0.0022904931 0.066837005 0.83784175
0.0021984309 0.067693211 0.83638883
0.0068691638 0.068894923 0.83524418
0.049171567 0.067155369 0.83939999
0.050765283 0.065630712 0.83986646
-0.00092474674 0.070323221 0.83993322
0.0024278755 0.071330257 0.83863819
0.0071694492 0.072370358 0.83730906
0.010931198 0.073433563 0.83619988
0.049036179 0.071639597 0.83708876
0.050737064 0.074962921 0.83939987
0.006902976 0.075749233 0.83946669
0.012685878 0.077894561 0.8373428
0.017396238 0.078923583 0.83586645
0.049003646 0.07937526 0.83653343
0.050761256 0.076560855 0.83979976
0.014192116 0.081636377 0.83844447
0.017820984 0.082587376 0.8375333
0.021939704 0.082927264 0.83573318
0.04905181 0.082569063 0.83735555
0.019420289 0.086643279 0.83910012
0.022516366 0.087297231 0.83788145
0.026631989 0.087643951 0.8362332
0.030248111 0.088612966 0.83559996
0.048290227 0.087274194 0.83766675
0.024110295 0.091307431 0.83893353
0.027196955 0.091947049 0.83764446
0.032311615 0.092452183 0.83657992
0.047688469 0.092499621 0.83737499
0.028783558 0.095140643 0.83833349
0.033117 0.096847042 0.83809638
0.036784589 0.098577105 0.83661109
0.043640137 0.09822692 0.83539981
0.046841823 0.097742639 0.83772379
0.03812208 0.10215963 0.83742863
0.042627521 0.10266587 0.83769166
0.04653782 0.10197441 0.83895564
0.03979598 0.10701935 0.83976674
0.041368745 0.10703635 0.83990002
0.024284655 0.044025782 0.84499991
0.027393119 0.043957476 0.84368914
0.032093439 0.043928534 0.84313363
0.037107125 0.043445677 0.84392232
0.043117389 0.043552961 0.84346682
0.047839403 0.043162718 0.8435111
0.052208349 0.043591134 0.84420002
-0.0056514358 0.048683688 0.84400004
0.0032694389 0.048180237 0.84435558
0.0071309963 0.047263421 0.84320009
0.012123093 0.046747942 0.84310663
0.017950069 0.046303812 0.84356666
0.022624345 0.046210889 0.84187794
0.027326817 0.045416564 0.84164429
0.032022879 0.045396179 0.84126645
0.037531562 0.045418665 0.84168333
0.053008541 0.046496857 0.84232229
-0.012707228 0.05483707 0.84205562
-0.0056500966 0.050241787 0.84380007
-0.0025010016 0.050203975 0.84316522
0.0022141249 0.050167684 0.8425557
0.0061311238 0.050067119 0.84086645
0.055508401 0.053173851 0.84053326
-0.01509586 0.059673712 0.84400004
-0.012694757 0.05791904 0.84131092
0.053927939 0.059414461 0.84033328
0.056300819 0.057721533 0.84300005
-0.01508791 0.062780015 0.84355563
-0.011910124 0.062613204 0.84130263
-0.0079755494 0.064086206 0.84009981
0.053419899 0.062994167 0.84219992
0.055728506 0.061234035 0.84386659
-0.015042202 0.068848133 0.84100002
-0.011921201 0.067376137 0.84213918
-0.0071998918 0.067729972 0.84098095
-0.0040590088 0.06878265 0.84019983
0.052715912 0.067626536 0.84284163
-0.011166804 0.070703596 0.84447622
-0.0069990125 0.071767256 0.84378088
-0.0026953421 0.072279155 0.84223342
0.001426128 0.073515162 0.84069979
0.051664714 0.072040148 0.84174442
-0.0023077684 0.076771811 0.84425831
0.0022157293 0.076853588 0.8429926
0.0067286622 0.078531578 0.84207511
0.01056799 0.079216957 0.84035534
0.052220967 0.077568643 0.84226674
-0.00093032554 0.080178641 0.84499991
0.0026152299 0.080565281 0.84493315
0.0071665486 0.082789794 0.84414291
0.011809258 0.083376564 0.84201485
0.051843066 0.082657859 0.84281212
0.0085252859 0.086466081 0.84499991
0.012662777 0.087785989 0.8439455
0.017457578 0.087899305 0.84151423
0.0516821 0.087727249 0.84202224
0.014041064 0.091181673 0.84499991
0.018473895 0.092069231 0.84352231
0.022179527 0.092652537 0.8420285
0.051587056 0.092224762 0.84304011
0.023742259 0.096353084 0.84439999
0.027361717 0.097206697 0.84271431
0.030948097 0.097993881 0.84051102
0.049355119 0.096402362 0.84253335
0.051063474 0.095874526 0.8448
0.029010156 0.10060493 0.84493321
0.032073427 0.10190003 0.84263813
0.03671433 0.10403958 0.84093314
0.044552803 0.1048132 0.84086663
0.047772672 0.10290139 0.8423112
0.033721633 0.10527024 0.84453332
0.037145749 0.10767203 0.8428371
0.043458547 0.10822957 0.84136188
0.0471594 0.10781801 0.8434
0.038440127 0.11075095 0.84440005
0.043452214 0.11209269 0.84385359
0.047092974 0.11151463 0.84423339
0.043383326 0.039481808 0.84868902
0.048126772 0.03868641 0.84857798
0.052837223 0.038320996 0.84798115
0.0560675 0.039496291 0.84900033
0.003023223 0.04422722 0.84886706
0.0069720293 0.043382481 0.8478002
0.012713183 0.042703643 0.84715152
0.018036135 0.042779688 0.8476001
0.022583904 0.042389192 0.84768349
0.027513621 0.041784514 0.84738892
0.032242823 0.041768517 0.8470667
0.037375834 0.041374411 0.84705013
0.042360794 0.041620642 0.84633332
0.047950685 0.040904641 0.84546643
0.052996539 0.041534126 0.84547997
0.057400636 0.042812053 0.84820855
-0.0022892894 0.047781967 0.84792501
0.0016995469 0.046737079 0.84667784
0.0053738421 0.04560126 0.84506649
0.056714941 0.047271516 0.84683353
0.057152681 0.051643781 0.84746677
0.057389595 0.057397045 0.84515184
0.056702457 0.063011102 0.84665012
0.056394286 0.06784007 0.84795016
-0.011581423 0.072406694 0.84601259
-0.0080278814 0.073940724 0.84556675
0.054281604 0.07239116 0.84584451
0.056076303 0.071093522 0.84913367
-0.011491003 0.076349176 0.84902471
-0.0070549776 0.077023104 0.84701687
-0.0040879939 0.078718394 0.84620011
0.054306567 0.07714963 0.84623349
-0.0056822379 0.080520198 0.84860039
-0.0027123638 0.08220014 0.84760022
0.0019082511 0.082815178 0.84623992
0.0061651124 0.084951147 0.84556657
0.054380719 0.081981003 0.84738904
-0.0017264893 0.08529608 0.84900039
0.0024554892 0.086355932 0.84832412
0.0069674067 0.08801616 0.84731132
0.010110789 0.089694664 0.84579986
0.054336514 0.086639524 0.84670001
0.0080362791 0.091596849 0.84884471
0.012407895 0.093164988 0.8471483
0.016941536 0.093865775 0.84557772
0.05358002 0.092202768 0.84720004
0.014099524 0.09629821 0.84853369
0.018498475 0.097602248 0.84809554
0.022239016 0.098240346 0.84712237
0.025874874 0.09909568 0.84546649
0.049519144 0.099080056 0.84533334
0.052100439 0.097916141 0.84886682
0.023130594 0.10171305 0.84893358
0.027317563 0.10267936 0.84745008
0.030639065 0.10392849 0.8463999
0.049696818 0.1033823 0.84836686
0.028629368 0.10638156 0.84922248
0.03205834 0.10740605 0.84743345
0.033106938 0.1105606 0.84896696
0.036752325 0.11233082 0.84700006
0.041914668 0.11432443 0.8456555
0.046911251 0.11380465 0.84568882
0.037566394 0.11627197 0.84838909
0.042300958 0.11806481 0.84717584
0.047313865 0.11677308 0.8482002
0.038683541 0.1201444 0.84973365
0.043087389 0.1213157 0.84908038
0.048423491 0.033821005 0.85382718
0.052878179 0.033486396 0.85183454
0.058012631 0.034181461 0.85432535
0.06174193 0.034453031 0.85448408
-0.0035899375 0.03915469 0.85299999
0.003043504 0.039752141 0.85450006
0.0070273858 0.039754622 0.85455346
0.012744611 0.039373912 0.85320663
0.01839154 0.038576119 0.85362381
0.022940231 0.038574595 0.85359049
0.027677929 0.038862478 0.85244441
0.032437731 0.038510986 0.8521952
0.037391424 0.038241338 0.85187089
0.042009335 0.037824731 0.85289448
0.047041614 0.036777087 0.8518734
0.052971222 0.036386177 0.8501336
0.058023971 0.037832137 0.8515625
0.062643506 0.038062342 0.85229623
0.065806448 0.038052928 0.85208875
-0.002528375 0.042838797 0.85268378
0.0020126544 0.042351644 0.85200787
0.007003516 0.041201908 0.85161096
0.010170958 0.041164283 0.8508333
0.018098649 0.041149762 0.85053337
0.059350595 0.041156221 0.85066664
0.062551528 0.042757697 0.85104066
0.067249797 0.043043114 0.85275811
-0.0056983083 0.04750444 0.85100001
-0.0033145263 0.045876451 0.85016674
0.05934827 0.047484893 0.85063332
0.062464584 0.047394462 0.85255831
0.065997817 0.046909057 0.85456681
0.059528124 0.052389335 0.85321122
0.061615538 0.052075587 0.85457516
0.059472546 0.057095557 0.85241461
0.059023421 0.06259118 0.85165846
0.061172284 0.061171047 0.85395014
0.057742581 0.068031967 0.85035014
-0.012837543 0.073606849 0.85080004
0.057214051 0.073227063 0.85190666
-0.015262797 0.077794611 0.85333329
-0.012326832 0.078204207 0.85202628
-0.0088704722 0.079146296 0.85079992
0.056982327 0.077466108 0.85320252
-0.012085032 0.082586139 0.85363406
-0.0074898768 0.082581349 0.85153741
0.05639571 0.082617916 0.85396999
-0.012084293 0.08640255 0.85368681
-0.0071088383 0.087143071 0.8535459
-0.0027526107 0.087568685 0.85134751
0.0014432316 0.08864224 0.85079992
0.056336213 0.088878646 0.85306907
-0.0015773956 0.091842435 0.85406673
0.0022400436 0.091984004 0.85242212
0.006468385 0.092605345 0.85085541
0.010167373 0.094943084 0.85053325
0.05465205 0.09268856 0.85161662
0.0030418744 0.096137576 0.85411674
0.0068189241 0.097055644 0.85345
0.012555466 0.098184794 0.8512041
0.016512392 0.098898888 0.85053337
0.054339737 0.097589053 0.85293341
0.012936587 0.10167035 0.85388088
0.018127326 0.1030249 0.8519333
0.022458527 0.10403223 0.85046685
0.052134655 0.10271467 0.85199994
0.018973518 0.10727307 0.8542251
0.022880666 0.10771558 0.85143697
0.027089864 0.108138 0.85061121
0.049912911 0.10779367 0.85205561
0.051594689 0.10798744 0.85358906
0.023886092 0.11239552 0.85329998
0.027659589 0.11252721 0.85188884
0.032155376 0.11282389 0.85071903
0.049866699 0.11165163 0.85126662
0.051597379 0.11196217 0.85363346
0.028055895 0.11665473 0.85427344
0.0324568 0.11739351 0.85270375
0.036078874 0.11815736 0.8506
0.048222363 0.1186382 0.8502667
0.033710636 0.1219728 0.85423338
0.03700259 0.12226466 0.85211247
0.041879218 0.1233832 0.85026675
0.047165483 0.12222238 0.85161895
0.037595399 0.12612465 0.85383338
0.041992918 0.12689245 0.85257775
0.046611711 0.12681736 0.85341668
0.042887807 0.13036576 0.85456681
0.046848953 0.13029964 0.85413343
0.039141834 0.028802954 0.85980016
0.041919239 0.028383626 0.85921752
0.022308139 0.033606324 0.8599335
0.027919237 0.033603717 0.85986686
0.03795081 0.032191403 0.85878092
0.042240452 0.03191952 0.85760742
0.046407726 0.031321805 0.8557952
0.050114699 0.031841688 0.85550004
0.062892966 0.033440601 0.85569227
0.0038603982 0.038363587 0.85900003
0.0070558824 0.038716778 0.85799855
0.011846898 0.037490688 0.85731673
0.016849406 0.036104906 0.85758346
0.023035863 0.035728592 0.85714674
0.027825853 0.035881486 0.85698897
0.032623 0.03572477 0.8570534
0.036989905 0.035458252 0.8563835
0.041769516 0.035448272 0.85613352
0.045322832 0.035020392 0.85540032
0.064505473 0.035041396 0.85591322
0.064441703 0.049322035 0.85506684
0.068135567 0.047993612 0.85568106
0.063907087 0.052906573 0.85644019
0.067328095 0.052396286 0.85701513
0.062566653 0.057207085 0.85744762
0.066407107 0.055996981 0.8598665
0.062529154 0.062257081 0.85798901
0.059682373 0.066846266 0.85542232
0.059830442 0.071799986 0.8575446
0.058252688 0.079803258 0.85786211
-0.01211465 0.088764191 0.85578954
-0.0089219101 0.08915624 0.85573351
0.056595817 0.086897202 0.85700011
-0.011084377 0.091566384 0.85842806
-0.0073414021 0.092519291 0.85738575
-0.0037364371 0.092763476 0.85596687
0.05656841 0.091636464 0.85658514
-0.0065554427 0.095925398 0.85933334
-0.0020876836 0.097108185 0.85766679
0.00161145 0.097800292 0.85614693
0.056712374 0.098258257 0.85876507
0.0024864192 0.10181595 0.85893333
0.0070492234 0.10207663 0.85728163
0.010766156 0.10299784 0.85611135
0.054886274 0.10024433 0.85526681
0.055015702 0.10287264 0.85728335
0.0078724399 0.10556979 0.85976672
0.012067059 0.10684696 0.85877502
0.016625928 0.10789221 0.85643828
0.053358357 0.10674295 0.85634452
0.017459776 0.11224113 0.85819328
0.021799088 0.11342771 0.85570025
0.052502841 0.11301202 0.8580001
0.019353027 0.11616782 0.85928899
0.023040835 0.11804295 0.85742229
0.027395252 0.11904489 0.85603362
0.050968278 0.11790583 0.85642785
0.024161423 0.12203187 0.85931116
0.028061533 0.12272564 0.85810006
0.031620517 0.12292486 0.85588026
0.050972696 0.12269437 0.85650015
0.029525183 0.12638561 0.8599335
0.032825641 0.12737258 0.85715014
0.036989406 0.12865189 0.8563835
0.048502155 0.12887155 0.85520035
0.050984222 0.12750381 0.85670018
0.03349369 0.13102686 0.85890001
0.037854526 0.13127132 0.85788339
0.042035405 0.13295588 0.85808575
0.047022294 0.13317357 0.8572889
0.050880123 0.13211235 0.85764009
0.043398663 0.13643582 0.85942239
0.047102273 0.13659464 0.85874438
0.050356835 0.13673581 0.85963345
0.029678544 0.028957052 0.86440021
0.032798212 0.028064592 0.86167783
0.037232004 0.027854105 0.86013573
0.0038783744 0.032120839 0.86300004
0.0072999205 0.031925384 0.8631137
0.01192753 0.032123551 0.86308521
0.017547991 0.032100078 0.86248606
0.023173809 0.031827137 0.86233896
0.02822059 0.032083802 0.86206198
0.03277649 0.032048855 0.86109632
0.035943106 0.031209294 0.86000019
0.0038788242 0.036137737 0.86310005
0.0070890426 0.036096007 0.86210841
0.011491812 0.035635978 0.86066669
0.064931586 0.057710372 0.86156678
0.066655487 0.057816625 0.86311555
0.063344359 0.064140938 0.86183333
0.06518279 0.062760308 0.86490023
0.062401302 0.067047752 0.8621068
0.06179313 0.071420819 0.86261678
0.060207982 0.0770678 0.86295551
0.058470443 0.083305627 0.8610689
0.058603827 0.088312209 0.86303347
-0.011657794 0.09401837 0.86138105
0.058223739 0.09356086 0.86334181
-0.011567215 0.0975767 0.86263007
-0.007608267 0.098256685 0.86174905
-0.0041577201 0.098472193 0.86063349
0.058200285 0.097539954 0.86299872
-0.010631761 0.10138514 0.86499995
-0.0064257928 0.10248649 0.86342669
-0.0025569273 0.10261061 0.86177051
0.0014592557 0.10403493 0.86030018
0.057618894 0.10240348 0.86273271
-0.0022407197 0.10672345 0.86392689
0.0022658387 0.10746634 0.86214453
0.0068525784 0.10780245 0.8611716
0.010282929 0.10882326 0.86020017
0.056130905 0.10746119 0.86210698
0.003076389 0.11169895 0.86387515
0.0072957724 0.11215048 0.86270839
0.01189446 0.11210129 0.8607927
0.015092262 0.11359721 0.86000019
0.055453375 0.11172885 0.86410344
0.0079138558 0.11577302 0.86430025
0.011923305 0.11718865 0.86287785
0.016708912 0.11729261 0.86070007
0.053707212 0.1170617 0.86194342
0.013563636 0.12066606 0.86480021
0.018173587 0.1215944 0.86250746
0.022732191 0.12331101 0.86080003
0.026319636 0.12479562 0.86000019
0.053807456 0.12209786 0.86355209
0.022647312 0.1267959 0.86272603
0.02774434 0.12829538 0.86066681
0.031131383 0.12959486 0.86000019
0.053802975 0.12610398 0.86348021
0.024294177 0.13073881 0.86403352
0.028658098 0.1325857 0.86280012
0.03255837 0.13346767 0.86139047
0.03722902 0.13376468 0.86006689
0.053399362 0.13252276 0.86345142
0.029681977 0.13670555 0.86450016
0.033063702 0.13793069 0.86335421
0.037614923 0.13784572 0.86157036
0.041827802 0.13813959 0.86007792
0.047170479 0.13919352 0.86000019
0.052132744 0.13766591 0.86246938
0.034500256 0.14145352 0.86403352
0.037870526 0.14265987 0.86282086
0.04241557 0.1425875 0.86117035
0.047226142 0.14256078 0.86100745
0.051347684 0.14285658 0.8627944
0.039328471 0.14625283 0.86390018
0.043031842 0.14713362 0.86277777
0.047333542 0.14770178 0.86297029
0.050597005 0.14702901 0.86373329
0.048221692 0.15117297 0.86446667
0.016835315 0.029049732 0.86716676
0.023718467 0.028656721 0.86749178
0.02782383 0.028073918 0.86692679
0.0038918571 0.033843424 0.86600006
0.00550638 0.033839867 0.86590904
0.024880506 0.030612139 0.8657335
0.026477758 0.030592104 0.86516684
0.067884557 0.058985792 0.86852777
0.066221885 0.063384332 0.86792511
0.063621208 0.069251843 0.86560017
0.067098349 0.067891598 0.86880004
0.063261218 0.072924823 0.8661918
0.06708511 0.072727509 0.8686372
0.063036598 0.07757663 0.86866134
0.065567158 0.076077305 0.86999995
0.061220676 0.082701758 0.86817312
0.061237503 0.086923398 0.86841333
0.06057233 0.092067249 0.86817771
-0.010647124 0.099920265 0.86625004
0.060475424 0.096757911 0.86678892
-0.011636124 0.10363473 0.86767501
-0.0086297309 0.10356617 0.86641335
0.05887318 0.10484516 0.86700004
0.060455676 0.10236651 0.86650598
-0.010661487 0.10812245 0.86741853
-0.0074258912 0.10810716 0.8672874
-0.0029733179 0.10916676 0.86610025
-0.0071136169 0.1121634 0.86871612
-0.0025748517 0.11304304 0.86801845
0.0016334556 0.11363791 0.86763334
0.0055044126 0.11433694 0.86560017
0.056716781 0.11290821 0.86698884
-0.00095770316 0.11651862 0.86986679
0.0028243354 0.11747304 0.86894441
0.0069011748 0.11825554 0.86734295
0.055692494 0.11786246 0.86782962
0.0075548328 0.1217031 0.86933327
0.011998436 0.12276577 0.86826664
0.015747324 0.12361488 0.86667794
0.055827197 0.12138166 0.86992872
0.013636837 0.1269784 0.8694666
0.016854074 0.12760332 0.86821485
0.020048659 0.12812003 0.86625016
0.053897683 0.12873927 0.86500013
0.055781644 0.12775013 0.86921883
0.017954389 0.13151342 0.86915547
0.022110568 0.13260654 0.86792493
0.027317457 0.13375697 0.86623347
0.055816971 0.13106704 0.86976933
0.024429686 0.13631512 0.86884433
0.027710458 0.13744387 0.86770481
0.05403268 0.13793394 0.86716664
0.029414518 0.14178386 0.8685168
0.032434132 0.14235418 0.8662501
0.036185518 0.14496388 0.86580014
0.054140884 0.14225216 0.8689034
0.03339047 0.1460996 0.86872005
0.037565831 0.14789267 0.86786002
0.041838095 0.14899337 0.86581677
0.051865667 0.14838643 0.86697793
0.038760498 0.15038954 0.86923337
0.042750414 0.15205546 0.86797231
0.047137517 0.1527835 0.86675853
0.051625818 0.15169889 0.86747509
0.043882515 0.15573762 0.86899996
0.04713108 0.15630084 0.86913329
0.068923011 0.059990019 0.87140012
0.068479627 0.062791787 0.87092501
0.070629135 0.064115375 0.87240005
0.070503898 0.068051547 0.87085325
0.070910409 0.073317721 0.87085819
0.067589074 0.078124523 0.87252039
0.071220428 0.076880954 0.87299997
0.063721783 0.082382008 0.87249154
0.063624799 0.087708443 0.87302208
0.062502719 0.092527993 0.87252218
0.062640145 0.097611859 0.87444073
0.06164743 0.10219806 0.871921
-0.013158167 0.10707187 0.87200004
0.059168421 0.10699179 0.8713479
0.060882032 0.10633767 0.87261659
-0.010707811 0.11264522 0.87118751
-0.0074513564 0.11415136 0.87032515
-0.0066516595 0.11680804 0.87201738
-0.0029096541 0.11768253 0.87129343
0.0012069506 0.11937086 0.87100023
0.057633385 0.11689833 0.87271112
-0.0023599674 0.12146591 0.87385708
0.0022910584 0.12244788 0.87175566
0.0068372423 0.12410858 0.8708936
0.010407252 0.12471428 0.8706001
0.056948144 0.12266497 0.87216532
0.0033844367 0.12575324 0.87406659
0.0081533669 0.12793495 0.87267983
0.011575513 0.12828456 0.87127632
0.057747334 0.12689078 0.87443656
0.0071944287 0.13019781 0.87479997
0.012610345 0.13268445 0.87331104
0.016379932 0.13351062 0.87163347
0.020158587 0.13449292 0.87100023
0.056876954 0.13163927 0.87357861
0.017616007 0.13753293 0.87383997
0.021602746 0.13808885 0.87195843
0.025010791 0.13923632 0.8702668
0.056105599 0.13743618 0.87426674
0.022260673 0.14184156 0.87384993
0.026466988 0.142878 0.87149173
0.028650794 0.14672084 0.87241328
0.032207031 0.14888802 0.87180012
0.054390952 0.14696911 0.8729167
0.033249553 0.15275964 0.87353331
0.037811358 0.15284714 0.87139064
0.04126979 0.15391214 0.87086689
0.052707549 0.15411241 0.87199998
0.034365822 0.15668537 0.87428886
0.038080178 0.15740016 0.87223697
0.04235765 0.1577123 0.87097794
0.048849303 0.15823223 0.87086684
0.051913153 0.15741141 0.87229997
0.039246656 0.16151769 0.87403327
0.043181252 0.162131 0.87259161
0.047853187 0.16230397 0.87242961
0.051996838 0.16254257 0.87371653
0.047166616 0.16599834 0.87479997
0.070895679 0.079832979 0.87569243
0.067408919 0.082096674 0.87812459
0.064419895 0.089685984 0.87646675
0.06627056 0.086708508 0.87933326
0.064363547 0.092865504 0.8757
0.066310734 0.09167061 0.87986642
0.063923307 0.097366862 0.87711829
0.066308245 0.096577063 0.87983328
0.062812597 0.10195774 0.87684816
0.05947075 0.10916763 0.87580013
0.06237882 0.10785802 0.87840861
0.059560221 0.11096349 0.87711775
0.061164595 0.11090643 0.87666661
0.059561595 0.11912427 0.8771379
-0.007042822 0.12262786 0.87717831
-0.0034164984 0.12387241 0.87610012
0.059586938 0.12244055 0.8775112
-0.0073181335 0.12730522 0.87870079
-0.0026036268 0.12734832 0.87758541
0.0017582158 0.1276738 0.87608337
0.0055645062 0.1277934 0.87505007
0.059715956 0.12761249 0.87941098
-0.0067075035 0.13086531 0.87928486
-0.002061133 0.13194221 0.87918878
0.002309639 0.13242459 0.87877035
0.0069796401 0.13265565 0.87721449
0.010470605 0.13362025 0.87590009
0.057824645 0.13194674 0.87560707
0.0039547752 0.13588263 0.87999976
0.0074662589 0.13696627 0.87944752
0.0119223 0.13735409 0.87762934
0.016179528 0.13843712 0.87545007
0.056170568 0.13759586 0.87527907
0.012699229 0.14179564 0.8794443
0.016834933 0.1422675 0.87772936
0.021899596 0.14390098 0.87566668
0.056222185 0.14261235 0.87608337
0.017543536 0.14703007 0.87953317
0.021756297 0.14723292 0.87812936
0.026401438 0.14830948 0.87605011
0.054576829 0.14991365 0.87590015
0.056399375 0.14714946 0.87884444
0.018725671 0.15061539 0.87999976
0.02241011 0.15097044 0.87968314
0.026667152 0.15212339 0.87807095
0.030087106 0.152428 0.8763001
0.054701541 0.15270707 0.87790126
0.056452129 0.15055834 0.87966645
0.027146041 0.15658402 0.87937129
0.031952046 0.15786369 0.87707514
0.054802552 0.15707783 0.87952209
0.028572934 0.16043715 0.87999976
0.032158203 0.1616199 0.8793065
0.036927283 0.16288926 0.87703896
0.041565202 0.16480322 0.87710011
0.054761708 0.16023056 0.87886643
0.037564918 0.16519776 0.87919998
0.042795714 0.16738598 0.87841904
0.048446249 0.16810723 0.87730682
0.051914632 0.16694331 0.87691122
0.044985052 0.17025901 0.87999976
0.048486225 0.17184071 0.87971419
0.051499125 0.17009138 0.8791334
0.068827756 0.083554402 0.88057685
0.068538897 0.086574882 0.88214517
0.068040602 0.091554902 0.88100523
0.064753078 0.099982806 0.88099998
0.067737103 0.096937351 0.88063222
0.064933524 0.10272717 0.88345456
0.067107297 0.10077515 0.88314939
0.064946018 0.10521185 0.88362503
0.059872355 0.1140059 0.88171434
0.062410846 0.11249188 0.8827213
-0.007535845 0.11954693 0.88024998
0.059832286 0.11720723 0.88112438
0.06156287 0.11819302 0.88237524
0.061918471 0.12300467 0.88156122
-0.0091793034 0.12939665 0.8804211
0.062397804 0.12806426 0.88252527
-0.0075496929 0.13290077 0.88192415
-0.0037084634 0.13383542 0.8808887
0.059295353 0.1328011 0.88127774
0.061649486 0.13233295 0.88361669
-0.0017977685 0.13648482 0.88390017
0.0023190961 0.1379112 0.88249999
0.0064205662 0.1392462 0.88056636
0.05835763 0.13809426 0.88367778
0.0039749974 0.14151353 0.88450015
0.0074672359 0.1427215 0.88305831
0.011071779 0.14359075 0.88042194
0.058293793 0.14286755 0.88271111
0.012390644 0.14744383 0.88182908
0.015447352 0.14819938 0.88023305
0.058256369 0.14770107 0.88214445
0.01386007 0.15124862 0.88370007
0.017128909 0.1526556 0.8823238
0.021698166 0.15336739 0.88075984
0.057507947 0.15282351 0.88329166
0.018815044 0.1562686 0.8842001
0.022275953 0.15740827 0.88251245
0.026132381 0.15893252 0.88073313
0.056730945 0.15787943 0.88401109
0.023782786 0.16134273 0.88496685
0.027353406 0.16230059 0.88300669
0.030797541 0.16336147 0.88105541
0.054938246 0.16402741 0.88169986
0.055866428 0.16187203 0.88336664
0.032514002 0.16701557 0.88303882
0.036633134 0.16786264 0.88214749
0.040103916 0.16880088 0.88093305
0.054023042 0.16701967 0.88018322
0.055097125 0.16861466 0.88425004
0.037768655 0.17102653 0.8839668
0.041797474 0.17229217 0.88202214
0.045565143 0.173114 0.88064414
0.052612264 0.17247537 0.88128644
0.055112701 0.1711297 0.88449997
0.042303331 0.1763771 0.88400012
0.047349237 0.17713724 0.88237864
0.051763527 0.17753908 0.88363999
0.047707435 0.18106993 0.88483346
0.068025231 0.10352644 0.88796145
0.066218533 0.10764357 0.88741243
0.063456729 0.11371477 0.88583994
0.065247357 0.11147954 0.88772488
0.063596457 0.11726914 0.88779068
0.065397434 0.1175291 0.88976681
0.063615024 0.12143138 0.88804996
0.065401107 0.12332892 0.88981688
0.063403718 0.12514502 0.88510007
-0.0092339963 0.13346264 0.88566673
0.063471772 0.13269702 0.88604999
-0.0066076419 0.1374234 0.88782704
-0.0030451869 0.13821164 0.88706648
0.06105924 0.13696447 0.88699991
-0.0066176616 0.1422728 0.88924283
-0.0026348957 0.14209324 0.88811845
0.001778813 0.14236552 0.88638878
0.060923208 0.14165165 0.88742656
-0.0067819743 0.14720117 0.88903755
-0.0026367099 0.1471886 0.88896304
0.0023334466 0.14699069 0.88776278
0.0070536509 0.14724602 0.88646179
0.010589747 0.14997162 0.88586682
0.060716331 0.14744911 0.88803321
-0.0026386508 0.1505754 0.88943332
0.0028907598 0.15164661 0.8892445
0.0073046735 0.15203492 0.88828874
0.011915855 0.15267727 0.88626659
0.015534511 0.15479867 0.8852002
0.058491178 0.1548861 0.88569999
0.061017524 0.15179233 0.8888067
0.0081414739 0.15631656 0.88914996
0.012269974 0.15693666 0.88797766
0.016865561 0.15753677 0.88577998
0.020484917 0.15972055 0.88510013
0.05851429 0.15742019 0.88604993
0.060425945 0.15727006 0.88986683
0.013386698 0.16093142 0.88875556
0.017447749 0.16170119 0.88805825
0.021856431 0.16273805 0.88718641
0.026013548 0.16427813 0.88599998
0.05810225 0.16192588 0.88816667
0.018924275 0.16544744 0.88933337
0.022424862 0.16672345 0.88841659
0.027131816 0.16740592 0.88656098
0.030975616 0.16925006 0.8861444
0.056993347 0.16687024 0.88809997
0.023894753 0.17037214 0.88913333
0.027198924 0.17112698 0.88875556
0.032131474 0.17256646 0.88765544
0.036807679 0.17360914 0.88635701
0.055258095 0.17405565 0.88683331
0.032419421 0.17649853 0.88904756
0.037335958 0.17788137 0.88769501
0.041652679 0.17898813 0.8859334
0.053569891 0.17889106 0.88626665
0.055421144 0.1778785 0.88944995
0.037493862 0.18162724 0.88917333
0.042273574 0.18270783 0.88707596
0.046726968 0.18350327 0.88636172
0.051713612 0.18265207 0.88680464
0.042128965 0.18660814 0.88899994
0.047031477 0.18742718 0.88765532
0.051789109 0.18683921 0.88878876
0.043813393 0.19030523 0.88953328
0.047441915 0.19088142 0.88913333
0.050980587 0.19077595 0.88915557
0.068833627 0.10778389 0.89128619
0.067741536 0.11314853 0.8925156
0.067464687 0.11787593 0.89239436
0.067752391 0.12265588 0.89266461
0.067081571 0.12769376 0.89284146
0.066403642 0.13277759 0.89437354
0.063900374 0.13774227 0.89203352
-0.007619313 0.1423935 0.88999999
0.063331068 0.14268196 0.89181131
-0.009283185 0.1457676 0.89038461
0.063260667 0.14742145 0.89237356
-0.0066431137 0.1524429 0.89261264
-0.0026431193 0.15334672 0.8911112
0.0012350436 0.15366109 0.89133358
0.062427413 0.15480718 0.89476681
-0.0059792916 0.1561562 0.89296311
-0.0026476525 0.15615435 0.89295262
0.0030146167 0.15723406 0.8934204
0.0066635213 0.1581694 0.89120024
0.060455363 0.15734646 0.89030015
0.0077598067 0.16156942 0.89304197
0.011985597 0.16284227 0.89136696
0.015619913 0.16392824 0.89006686
0.059041467 0.16465877 0.89403361
0.060566273 0.16178408 0.8919335
0.014021093 0.16714165 0.89396691
0.017105633 0.16778253 0.891846
0.020610673 0.16898377 0.89053357
0.019021107 0.17211404 0.89388365
0.022308733 0.17259111 0.89204782
0.027267212 0.17404467 0.89100027
0.057277847 0.17268582 0.89253336
0.023198944 0.17634961 0.89428353
0.027324975 0.17773767 0.89289284
0.031408403 0.17893663 0.8906002
0.029024271 0.18126252 0.89390045
0.032304201 0.18262631 0.89242989
0.036124855 0.18340737 0.89085579
0.055512864 0.18231595 0.89092225
0.033487286 0.186903 0.89436692
0.037546456 0.18718731 0.89269555
0.041429855 0.18913475 0.89181691
0.053801611 0.18794286 0.89010012
0.055658937 0.1877809 0.89326674
0.042653184 0.19238624 0.89304698
0.046801884 0.19355589 0.89116693
0.052806128 0.19303899 0.89196688
0.044062957 0.19638163 0.89460045
0.047545165 0.19757906 0.89342523
0.051215794 0.19663806 0.89324468
0.071713217 0.1075321 0.89611423
0.071644105 0.11151804 0.89733332
0.071649671 0.11720194 0.89740008
0.071839236 0.12191377 0.89767641
0.071393982 0.12645726 0.89733988
0.069237143 0.13176207 0.89651114
0.071074151 0.13206916 0.89859742
0.067598648 0.13655263 0.8969447
0.064115293 0.14486371 0.89503348
0.065969922 0.14193238 0.89755577
0.06416782 0.15164763 0.89576685
-0.0018205462 0.1582303 0.89530015
0.0015189736 0.15826565 0.89550006
0.062577434 0.15768135 0.89691687
-0.0018249471 0.16192001 0.89728349
0.0021479269 0.16201782 0.89667082
0.0065299664 0.16328132 0.89560008
0.010702914 0.16489817 0.89533335
0.062669292 0.16041967 0.89823329
0.0040379139 0.16548143 0.89850026
0.0076210685 0.16653016 0.89771444
0.011546835 0.16753399 0.89606667
0.059215382 0.16764596 0.89666677
0.060987271 0.16541387 0.89813346
0.012617887 0.17186166 0.89799184
0.01656279 0.17256014 0.8962
0.020717133 0.17485204 0.89513332
0.059262339 0.17195344 0.89737791
0.017903874 0.17677072 0.89762402
0.022402354 0.17830981 0.89577329
0.058455624 0.17704512 0.89781678
0.019118635 0.1813533 0.89846694
0.022229776 0.18215111 0.89725018
0.027075846 0.18261494 0.89564002
0.057593722 0.18198465 0.89745569
0.023593985 0.18614793 0.89875579
0.027451048 0.18689753 0.89700007
0.031311318 0.18774407 0.89573336
0.037419837 0.18988059 0.89533335
0.05771637 0.185717 0.89936674
0.028629338 0.19120844 0.89896697
0.032474216 0.1910947 0.89712238
0.03723884 0.19232111 0.89672381
0.041617438 0.19415253 0.89583331
0.055907145 0.19279245 0.89725018
0.038560964 0.19692168 0.89858025
0.041958123 0.19750388 0.89717793
0.045792725 0.1999777 0.89579999
0.052904569 0.19835192 0.89598352
0.043032251 0.20189714 0.89798117
0.047490802 0.20259559 0.89632225
0.05260789 0.20238887 0.8980478
0.044255052 0.20559457 0.89850032
0.047833163 0.20673309 0.89825743
0.051535558 0.20622861 0.89883357
0.072944574 0.12739308 0.90100002
0.072944574 0.13074516 0.90100002
0.068788134 0.13921282 0.90156686
0.071351662 0.13677903 0.90210629
0.068011463 0.14270535 0.9024334
0.066236123 0.14753382 0.90117788
0.0646955 0.15457477 0.90313351
0.066383526 0.15206425 0.90318334
0.064693905 0.1579314 0.90311116
-0.0043592444 0.16451156 0.90234792
0.062893718 0.16351044 0.90145016
-0.0024376921 0.16746421 0.90274805
0.0021609336 0.1679958 0.901896
0.006571447 0.1693534 0.90131688
0.061907303 0.1680633 0.9034
-0.002683924 0.17002672 0.90490001
0.0040626316 0.17153923 0.90400004
0.0079784514 0.17229055 0.90206122
0.010773043 0.17436077 0.90120035
0.061311718 0.17301381 0.90291119
0.0091175186 0.17652546 0.90369999
0.012681206 0.17775452 0.90246665
0.015811194 0.17850606 0.90096688
0.059530176 0.17943637 0.90143359
0.061360765 0.17651245 0.90363324
0.01418003 0.18164897 0.90410006
0.017183017 0.18266401 0.90246665
0.059610158 0.18303657 0.90264446
0.018666523 0.18659778 0.90363336
0.021986002 0.18840039 0.90152788
0.058803272 0.18817921 0.90315837
0.022940796 0.1923587 0.90384662
0.027173411 0.19289094 0.90161687
0.032603119 0.19436733 0.90068913
0.057954885 0.19236428 0.90308332
0.028518956 0.19598797 0.90429997
0.032998741 0.19706516 0.90230006
0.036408354 0.19827254 0.90130013
0.056232203 0.19726913 0.90246665
0.034444369 0.200326 0.90490001
0.038717162 0.20275562 0.90222675
0.041006796 0.20360023 0.90076697
0.054426182 0.20268703 0.90043354
0.056315288 0.20260113 0.90380013
0.038644042 0.20611468 0.90445
0.042753354 0.20783997 0.90220016
0.046862874 0.20935985 0.90031695
0.053328384 0.2083544 0.90079474
0.056323592 0.20683791 0.90393347
0.043691322 0.21109638 0.9041667
0.048130639 0.21211314 0.90205336
0.052856077 0.21233539 0.90228349
0.049622249 0.21542785 0.90469998
0.071667582 0.1399128 0.90610015
0.069908187 0.14145771 0.90520012
0.071268581 0.14305134 0.90818912
0.068458639 0.14786747 0.90836692
0.071084 0.14677329 0.90944165
0.068576694 0.15066066 0.90993327
0.066633828 0.15685298 0.90658903
0.064854309 0.1625329 0.90534997
0.066804521 0.16232795 0.90891129
0.063341402 0.16889532 0.90786684
0.065090708 0.16650617 0.90865028
-0.002349647 0.17233048 0.90638685
0.0020440838 0.17294399 0.90607339
0.0057587773 0.1735274 0.90560013
0.063277841 0.17210007 0.90695572
0.065160356 0.17260642 0.90962249
-0.0015654234 0.17637771 0.90871143
0.0023870936 0.17742656 0.90830761
0.0069696321 0.17726745 0.90626204
0.06284593 0.17755494 0.90681684
0.065156378 0.17767136 0.9095667
0.0040842029 0.18090278 0.90880024
0.0074668801 0.18244535 0.90805942
0.011955717 0.18257712 0.90592241
0.062468916 0.18232846 0.90747809
0.0086070718 0.18660672 0.90913337
0.012543852 0.18745953 0.90780026
0.016574141 0.18741326 0.90594685
0.062358867 0.18723355 0.90834701
0.013829961 0.19231763 0.90881681
0.017603522 0.19231266 0.90680027
0.020950118 0.19365694 0.9052
0.059862569 0.19224207 0.90646678
0.06177498 0.19293459 0.90973336
0.018645033 0.19730826 0.9080537
0.022690441 0.19748364 0.90730405
0.027159296 0.1977257 0.90583891
0.031075934 0.1986865 0.90509999
0.058890574 0.19710234 0.90710688
0.060018864 0.19950609 0.90883356
0.024008688 0.20253751 0.90915847
0.027784685 0.20267519 0.90788186
0.03261438 0.20265059 0.90682518
0.036153995 0.20297451 0.90544999
0.057519089 0.20277317 0.9068135
0.028672259 0.20634794 0.9091835
0.033139579 0.20746812 0.90879548
0.037329778 0.20802955 0.9066835
0.05767196 0.20763993 0.90744454
0.038208421 0.21245508 0.90843356
0.042404246 0.21309608 0.90671134
0.046278372 0.21388675 0.90530008
0.056511905 0.2125916 0.90695578
0.073777109 0.14325678 0.91128337
0.075529657 0.14420468 0.91192305
0.072844617 0.14800532 0.91234875
0.068734966 0.15355295 0.91203332
0.07168024 0.15252563 0.91240489
0.06882038 0.15799086 0.91316682
0.071476489 0.15736517 0.91446698
0.068945996 0.16253349 0.91483355
0.06705226 0.16767423 0.91226006
-0.0044066799 0.17308889 0.91216683
0.06797488 0.17159367 0.91324168
-0.0021353078 0.17905314 0.91085553
0.067593925 0.17638259 0.91385007
-0.0018570712 0.18261251 0.91311669
0.0023962462 0.18289287 0.91169447
0.065904751 0.18155675 0.91208893
-0.0015745107 0.18596865 0.91431135
0.0024026926 0.18705551 0.91408122
0.0070723589 0.18826242 0.91169173
0.063508861 0.18966112 0.91026664
0.065391958 0.18680443 0.91285563
0.0075167096 0.19186445 0.91403919
0.011473313 0.19292761 0.91236681
0.063671663 0.19269419 0.91260004
0.065519303 0.19057088 0.91463351
0.0092295073 0.19571076 0.91480041
0.012963352 0.19677843 0.91343355
0.016548572 0.19823138 0.91074443
0.063009396 0.19733043 0.91284668
0.014349937 0.20084505 0.91493374
0.018060669 0.20241487 0.91280013
0.021656601 0.20286123 0.91124445
0.061101485 0.20197165 0.91233343
0.019459099 0.20584594 0.91446692
0.023196425 0.2070801 0.91390687
0.027452301 0.2080088 0.9109
0.060329258 0.20733674 0.91353351
0.028213469 0.21204318 0.91394299
0.032820106 0.21241747 0.91255003
0.058500007 0.21197911 0.91157788
0.074207537 0.15346949 0.91660005
0.075846627 0.15247615 0.91575003
0.074346989 0.15717559 0.91832209
0.076099709 0.15640317 0.9188056
0.072008632 0.16160375 0.91760391
0.069001257 0.16777331 0.91556704
0.070901014 0.16737585 0.91805536
0.068988711 0.17370243 0.91540009
0.070907027 0.17080531 0.91813338
0.06908039 0.17819634 0.9166168
0.067916952 0.18239324 0.91628903
-0.001864648 0.18843618 0.91666681
0.00070046802 0.18931693 0.9167999
0.067378648 0.18759416 0.91672224
-0.0010093206 0.19186506 0.91674989
0.0024100253 0.19277555 0.91702205
0.0066746636 0.19413981 0.91541684
0.066260695 0.19333743 0.91700011
0.0027570378 0.19720739 0.91859978
0.0073273331 0.19810262 0.91700423
0.011512421 0.19869183 0.91546708
0.065641083 0.19603881 0.9163335
0.0041334126 0.20104711 0.91974992
0.0078959633 0.20230758 0.91847974
0.012679887 0.20284744 0.9175722
0.016067119 0.20353563 0.91555035
0.063117236 0.20298128 0.91689998
0.013131276 0.20648962 0.91922486
0.017800758 0.20782536 0.9169445
0.02175116 0.20885612 0.91523367
0.06227294 0.20643117 0.91706663
0.014428878 0.21050659 0.9199667
0.017832419 0.21160787 0.91855544
0.022921197 0.21228556 0.91656113
0.027149625 0.21447644 0.91500038
0.072790734 0.16436067 0.92029995
0.072847188 0.16705868 0.92101383
0.071779139 0.17266409 0.9219901
0.071179911 0.1774635 0.92166662
0.071378127 0.18053636 0.92423332
0.069621764 0.18560706 0.92380017
0.068625435 0.19123976 0.92196667
-0.0010157981 0.19567035 0.92263317
0.067196101 0.19725491 0.9220221
0.0029981874 0.20250583 0.92250007
0.005852466 0.20374249 0.92033345
0.064215846 0.20375729 0.92040002
0.065968238 0.20044182 0.92090005
0.0041526635 0.20628051 0.92403346
0.0078340564 0.20723371 0.92280477
0.011876183 0.20831895 0.92164171
0.063794248 0.20766492 0.92255551
0.073244199 0.17399755 0.9260332
0.07338658 0.17778854 0.92783332
0.075133711 0.17782731 0.92804003
0.069739819 0.18420047 0.92536664
0.071616255 0.18372698 0.92731667
0.069783792 0.18862253 0.92594999
0.072336406 0.18668282 0.92915559
0.069943316 0.19509624 0.92806661
0.070003606 0.19699231 0.92886668
0.067712307 0.20222992 0.92713326
0.0028717364 0.20762342 0.92811668
0.073600136 0.18263249 0.93053353
0.075345755 0.18265684 0.93065929
0.073667362 0.18799776 0.93138343
0.075370178 0.18704724 0.93096095
0.071564689 0.19294386 0.93226671
0.071451314 0.19780363 0.93268895
0.074182808 0.19629115 0.93790007
