# .PCD v0.7 - Point Cloud Data file format
VERSION 0.7
FIELDS x y z
SIZE 4 4 4
TYPE F F F
COUNT 1 1 1
WIDTH 1292
HEIGHT 1
VIEWPOINT 0 0 0 1 0 0 0
POINTS 1292
DATA ascii
0.020019114 0.031629402 0.032844067
-0.016353413 0.032865644 0.032978773
0.0025232332 0.032519996 0.032190859
0.012854694 0.032609284 0.032904744
-0.023312977 0.033318393 0.032559812
-0.015517739 0.033022664 0.032872915
-0.012497558 0.033169031 0.032541513
-0.010533264 0.033449668 0.032843232
-0.0049163159 0.033276983 0.03251338
3.9958395e-05 0.033526987 0.032587767
-0.015269529 -0.031335533 0.033259332
-0.012844114 -0.031569362 0.033097088
-0.010613969 -0.031386681 0.033724546
-0.0078260545 -0.03184402 0.033121049
0.010502386 -0.031609863 0.033519566
0.015199667 -0.030986818 0.033822715
0.0260402 -0.030141041 0.033178866
-0.019346222 -0.029492704 0.033692002
-0.01547779 -0.029992206 0.033348501
0.031386726 -0.027793258 0.033542752
0.031196143 -0.026291683 0.033578336
-0.022717366 -0.025803855 0.033709645
-0.02577715 -0.021785989 0.03334862
0.031125791 -0.021002444 0.033860862
-0.028841708 -0.019355739 0.033515155
0.030300796 -0.019239452 0.033446312
0.03084106 -0.016081437 0.033753216
-0.031418756 -0.015127385 0.033346295
0.031270076 -0.011463509 0.033940673
-0.032800257 -0.0071967845 0.03330183
-0.033665922 -0.0067016394 0.033892512
-0.032615364 -0.0030306992 0.033318937
-0.032492384 0.0074704448 0.033435404
0.031429838 0.011173441 0.033389688
-0.032013733 0.012318094 0.033934772
0.031263519 0.015559167 0.033687949
-0.032795928 0.01604831 0.033914387
-0.033797909 0.02297722 0.033117533
0.030647971 0.02537303 0.033117056
0.031719934 0.030077398 0.033960164
0.027158242 0.031513147 0.033294678
0.0044660838 0.032716453 0.033712804
0.0066749565 0.032746788 0.033343077
0.011220695 0.032809347 0.033957481
0.016027935 0.032743145 0.033866763
-0.019849373 0.03328187 0.033748865
-0.0071825711 0.033347189 0.033228755
-0.0030369973 0.033059597 0.033690512
0.022511821 0.033803269 0.033483267
-0.0041736793 -0.031310227 0.034551144
0.016087385 -0.03177736 0.034931242
0.029790826 -0.029020928 0.034917057
-0.01968088 -0.028229745 0.034051418
-0.029278148 -0.018717499 0.034009218
-0.032933466 -0.010607369 0.034062862
-0.031480141 0.0042424202 0.034703851
-0.03324604 0.0077837235 0.034292936
-0.033137362 0.011350404 0.03425318
-0.032938898 0.012792964 0.03424257
0.031313755 0.01559029 0.034363687
0.031546209 0.019349143 0.034502506
-0.026662853 0.033812746 0.034875512
-0.015917756 0.033544604 0.034235299
-0.011055278 0.033408958 0.034110546
-0.0071880026 0.03331982 0.034465134
0.0077881562 0.033097982 0.034169197
0.021112615 -0.032215372 0.03576225
-0.011713663 -0.031507678 0.035401583
0.00022910722 -0.031756189 0.035441935
0.026204463 -0.031651925 0.035350442
0.0056646653 -0.030680239 0.035844386
0.010662783 -0.030315936 0.035334945
0.027449286 -0.030578423 0.035175443
0.030641271 -0.022849316 0.035462499
-0.031996548 -0.012797877 0.035343826
0.030522138 -0.01148023 0.035415471
0.030414045 -0.0026771021 0.035968482
-0.031894814 -0.00044570584 0.035923958
0.03060062 0.00074396003 0.035454154
0.030451 0.0014932541 0.035826564
0.030488789 0.007330311 0.035616457
0.030142009 0.012329382 0.035121441
0.030370831 0.015663257 0.035173535
0.032110993 0.021068837 0.0356673
-0.031506881 0.022538358 0.035757661
0.031587671 0.026177511 0.03529191
-0.031230463 0.027268268 0.035597503
-0.031162759 0.030768767 0.035003543
0.027158085 0.030519623 0.035365999
0.028511761 0.030014051 0.035000145
-0.027119329 0.031579092 0.035539865
0.0033231536 0.031530786 0.035475731
-0.0033642007 0.032713383 0.035035133
-4.557427e-05 0.032200422 0.035840631
-0.022126216 0.034170922 0.035737991
0.011810682 -0.032081887 0.036968231
0.021611899 -0.032056127 0.036522031
0.0034863409 -0.0313279 0.036814451
-0.00683387 -0.030909657 0.03655225
0.00233436 -0.030905426 0.03616935
0.012705885 -0.030878782 0.036989331
0.026104487 -0.030022468 0.036313295
0.029788177 -0.026687417 0.036316574
0.030484449 -0.026378917 0.036313891
-0.025151677 -0.023767311 0.036938667
-0.024508061 -0.023792347 0.036142766
0.02989617 -0.014197777 0.036563456
-0.031711817 -0.012332462 0.036424041
0.030123651 -0.0076447004 0.036994159
0.030397749 -0.0038940213 0.036101699
0.031497654 -0.00088727288 0.036876798
0.031048203 0.0042201541 0.036942303
-0.032266654 0.010018608 0.036901236
0.031676333 0.012525258 0.036056101
-0.033169668 0.022122419 0.036032856
0.031606734 0.022234935 0.0361709
0.030214187 0.02661974 0.036272287
-0.032624692 0.027264528 0.036414027
0.03150551 0.029944928 0.036955118
-0.029629126 0.030898066 0.036345482
-0.026522972 0.031917445 0.036617458
0.022085741 0.031776499 0.036050737
0.027135599 0.032276936 0.036101639
-0.023016384 0.033187531 0.036189795
-0.017534278 0.033086836 0.036747634
-0.016390661 0.033735789 0.036333382
0.00047646463 0.033041023 0.036871433
0.022128625 0.033185869 0.036047399
-0.00060842838 -0.032105695 0.037429512
-0.0158269 -0.031255007 0.037609816
-0.014464723 -0.031249691 0.037255347
-0.0058571016 -0.031940274 0.03739053
-0.0026109554 -0.031405687 0.037849069
0.0023856275 -0.031063914 0.03757
0.0077169687 -0.03151077 0.037719488
0.010075387 -0.031188736 0.037838817
-0.013076436 -0.030566216 0.037055969
-0.018969748 -0.029789269 0.037650049
-0.022578137 -0.026951743 0.03722769
-0.023246372 -0.025960663 0.037833631
0.031581603 -0.021839749 0.037366927
-0.028544713 -0.020100776 0.037305534
0.030077964 -0.017380483 0.037040472
-0.031485964 -0.015550456 0.037493825
-0.030267477 -0.015730496 0.037205279
0.031654332 -0.015092115 0.037648618
0.030412734 -0.012983306 0.037242532
-0.033156507 -0.010849067 0.037486374
0.031805161 -0.010391461 0.03793329
-0.032984793 -0.0073509668 0.037686825
-0.032906175 -0.0023655803 0.037827849
-0.032875612 0.00044423062 0.03706938
0.030878544 0.0028117071 0.037716746
-0.032544006 0.0061002504 0.037930608
0.031001151 0.0073913275 0.03762877
-0.0331336 0.010749871 0.037741721
0.030405521 0.012399946 0.037457585
-0.0316603 0.01449758 0.037467301
0.031592596 0.014421116 0.037964702
-0.03224092 0.02870322 0.037890911
0.0061426219 0.032821998 0.037751019
0.010279193 0.032525484 0.037205279
0.014417769 0.032143705 0.037159324
-0.018343886 0.033881787 0.037507236
-0.012078105 0.033999443 0.037732124
-0.010112265 0.033541374 0.03758204
0.011309066 0.033365514 0.037588179
-0.0073234467 0.034233868 0.037671149
-0.010586459 -0.032342128 0.038067579
0.014871804 -0.032273494 0.038794041
-0.0080083665 -0.031119406 0.038364649
0.0013396218 -0.031527478 0.038058639
0.0058724415 -0.031141344 0.038041472
0.014611926 -0.03086653 0.038011312
0.028597353 -0.02909141 0.038233638
-0.0203928 -0.028778207 0.03888166
-0.023480941 -0.025246561 0.038635671
-0.026128769 -0.022406613 0.038154125
-0.029498741 -0.018471535 0.0388273
-0.031466134 -0.013986373 0.038406849
0.030445397 -0.010922306 0.038457155
0.030038582 -0.0099981409 0.038830221
-0.03323625 -0.0055278675 0.038171172
0.030968241 -0.0057093832 0.038022041
0.030781925 -0.0025814069 0.03839004
-0.033060431 0.0026170495 0.038162231
0.031043049 0.0064697005 0.038837314
-0.033325255 0.0075955498 0.038588703
0.031516545 0.010219916 0.038135767
-0.033191502 0.01258673 0.038683772
0.031617437 0.014619931 0.038954318
-0.03102397 0.029030651 0.038477778
0.028142221 0.030163474 0.038490534
-0.02816039 0.031385437 0.038853645
-0.030205838 0.032609448 0.038298666
-0.010497806 0.032999676 0.038922191
-0.00093845837 0.032952555 0.038787484
0.0076067941 0.032952726 0.038279414
0.012602721 0.032755077 0.038322091
-0.014225478 0.033783406 0.0388363
-0.0057780663 0.033257063 0.038522005
-0.0023707794 0.03326422 0.038124979
0.0026164586 0.033083737 0.038181603
-0.027648665 0.034006078 0.038153708
-0.011730047 -0.031170249 0.039090693
0.025966754 -0.030729577 0.039821982
0.029167231 -0.027463956 0.039211869
-0.032928426 -0.0018426152 0.039020419
-0.03236917 0.0019698581 0.03964293
-0.031359289 0.021001764 0.039293289
0.031825077 0.021377653 0.039998353
0.030968675 0.025833219 0.039373755
0.028232533 0.03010378 0.039624929
0.021191042 0.031552281 0.039518714
0.025679909 0.031290237 0.039697766
-0.020652656 0.033719752 0.039281011
-0.016631586 0.033333994 0.039851904
-0.00060450751 -0.03122782 0.040193081
0.00040078908 -0.031231888 0.040889978
0.01626284 -0.031469785 0.040494204
0.021321028 -0.031899065 0.040213168
-0.019686896 -0.02960081 0.040835261
-0.022806061 -0.026735956 0.040843427
0.029905342 -0.025911996 0.040795624
0.030890254 -0.025235271 0.040248036
0.030581508 -0.020492092 0.040286034
-0.029431561 -0.019777868 0.040759206
-0.031733796 -0.015771713 0.04046309
-0.033384867 -0.011092414 0.040899754
0.029725645 -0.0023474917 0.040136635
0.030870836 -0.00071411487 0.040944159
0.030303499 0.001410367 0.040086091
-0.033294525 0.011497893 0.040977716
-0.032526456 0.015998913 0.040136695
0.03158104 0.016058575 0.040243328
0.031426899 0.020769022 0.040512562
-0.032403782 0.021585433 0.040533483
0.030511558 0.025255296 0.040004373
0.016729861 0.031933226 0.040840983
0.026728222 0.031882521 0.040926456
0.016134439 0.032875478 0.040447354
0.021665685 0.032616213 0.040721774
-0.021698996 0.033163302 0.040352583
-0.017119404 0.033608288 0.040872812
-0.011220051 0.033745673 0.040515542
0.011180492 0.033370838 0.040711164
-0.016544607 0.034238994 0.040459275
-0.013233579 0.034437895 0.040761113
-0.011622872 -0.032348443 0.041155457
0.0025219973 -0.0324862 0.041699171
0.0075004995 -0.032664597 0.041639686
0.012169331 -0.032081962 0.041808069
-0.015810074 -0.031572554 0.041008413
-0.012202661 -0.031676508 0.041610241
-0.019468717 -0.029679229 0.041942298
0.026711756 -0.029428612 0.041451931
-0.024968512 -0.025637783 0.041541398
-0.026153257 -0.022620844 0.041454971
-0.028386449 -0.020161912 0.041460335
0.03190067 -0.012336777 0.04107362
0.029779198 -0.00049041957 0.041635275
-0.03231629 2.6548281e-05 0.041505098
-0.032837294 0.0042653065 0.041722417
0.031181395 0.012284343 0.041723073
-0.031490803 0.026530676 0.041610479
-0.028221115 0.029965308 0.041425586
0.030592177 0.029997634 0.041094124
-0.00013875403 0.032437596 0.041273236
0.0043279529 0.032991473 0.041859567
0.012584232 0.032618515 0.041837692
-0.0074410136 0.034652591 0.041178942
-0.002755696 -0.03236109 0.042657435
0.012658095 -0.032524846 0.042997599
0.017218692 -0.032437712 0.042313874
-0.0074151028 -0.031616509 0.042448044
-0.0041434374 -0.031936426 0.042412877
2.7175993e-06 -0.0314961 0.042893946
0.0048692706 -0.031092361 0.042655706
0.0094920509 -0.031487394 0.042135358
0.030222325 -0.027463982 0.042601883
-0.031794786 -0.012760162 0.042208731
0.030402074 -0.012681918 0.042505801
-0.032314427 -0.010054109 0.042485058
0.032069709 -0.0087512862 0.042035341
0.030624211 -0.0073982929 0.042684197
0.031525552 -0.0051702629 0.04247117
-0.033295035 -0.0045800796 0.042881489
-0.032798052 0.0024489402 0.042162657
0.032064378 0.0020167246 0.042776167
0.030935388 0.0047982633 0.042514563
0.031976283 0.0075327731 0.042123914
-0.033406198 0.0090660863 0.042938948
0.031667661 0.0095716165 0.042297602
-0.032051072 0.011967097 0.042199731
-0.033237696 0.012388833 0.042937875
-0.031486936 0.023351088 0.042567134
0.030694891 0.026964258 0.042178035
-0.031499531 0.027766861 0.042608023
0.023406073 0.031543132 0.042632401
0.0024465742 0.032903016 0.042249203
-0.028039631 0.033898845 0.042898118
-0.013305203 0.033191197 0.042710543
-0.022885315 0.034571778 0.042678297
0.0098044872 -0.032015387 0.043221474
-0.014886403 -0.031241216 0.043956161
-0.012359994 -0.031365573 0.043499708
0.020765129 -0.03142073 0.04395175
0.023462446 -0.031635113 0.043196797
0.027186681 -0.030396957 0.043015003
0.026089581 -0.029433915 0.043569267
0.02854727 -0.025429027 0.043756723
-0.024335373 -0.024687545 0.043307662
-0.025562093 -0.02395118 0.043901205
-0.031736519 -0.013929754 0.04366982
0.031313598 -0.0023958017 0.043043315
-0.033209298 -0.00059758592 0.043380678
0.030853715 0.00030130893 0.043324292
0.031703331 0.012790757 0.043200731
-0.031725235 0.015154284 0.043965816
-0.031758457 0.019386575 0.043949902
0.031304732 0.02071576 0.043847799
0.030353136 0.027598865 0.043319404
0.02638977 0.031661991 0.043538213
0.028115682 0.031273525 0.043556511
-0.028244333 0.032124285 0.043480635
0.0077201845 0.032825351 0.043246031
0.012360961 0.032650411 0.043505311
0.019965136 0.032105442 0.043624282
-0.024156485 0.033088371 0.043781519
-0.017496355 0.033326447 0.043522358
-0.012329075 0.03347677 0.043947518
-0.0047384193 0.033646282 0.043198287
-0.00049015135 0.033503532 0.043315411
-0.007158231 -0.032758478 0.044088006
0.0076129138 -0.032580256 0.044720113
0.013009708 -0.032393515 0.044867635
-0.010350253 -0.03182565 0.044521391
0.010672472 -0.031247605 0.044980168
0.016014999 -0.031296384 0.044394493
0.019767428 -0.031897187 0.04497242
-0.015019767 -0.030134184 0.044911623
-0.018693058 -0.029729288 0.044425964
-0.023741366 -0.027033016 0.044129074
-0.022529067 -0.025880802 0.044643998
-0.02531952 -0.021999504 0.044806242
-0.028273353 -0.020154841 0.044092715
0.03005711 -0.020607397 0.044992566
0.030301193 -0.019284407 0.044505358
-0.028709169 -0.018357225 0.044865847
-0.031415753 -0.015829604 0.044885933
0.030732088 -0.01502466 0.044757843
-0.032359291 -0.010591293 0.044619322
0.031611927 -0.010477303 0.044670105
-0.033192456 -0.0075802212 0.044173837
-0.033264637 -0.0026148618 0.044439793
0.030494774 -0.0025026398 0.044388771
-0.033194184 0.0023425887 0.044850588
-0.032936554 0.0060120081 0.044516981
-0.032606501 0.010430582 0.044529796
-0.03181646 0.015975084 0.044665456
0.031130906 0.01594365 0.044246614
-0.031269379 0.02448299 0.044913709
0.019416731 0.031986549 0.044700623
-0.01570962 0.032986283 0.044186175
0.015003689 0.032355461 0.044221878
0.01611381 0.032174606 0.04498136
-0.020603592 0.033343107 0.044752538
-0.011402687 0.033121642 0.044535875
-0.0077808751 0.033642232 0.044272304
-0.0024005056 0.033429742 0.044322133
0.0023426851 0.033194244 0.044850588
0.0060710278 0.033083007 0.044646323
0.010885101 0.033065904 0.044583023
-0.0018880628 -0.03257978 0.045640111
0.002646951 -0.032708108 0.045031667
0.015495769 -0.032453604 0.045573175
-0.019585785 -0.028175652 0.04506731
-0.023147997 -0.026026657 0.0457775
0.029076712 -0.025114512 0.045331359
-0.030272961 -0.014339093 0.045702338
-0.031947494 -0.011785228 0.045078039
0.029624926 -0.010842284 0.045794785
-0.033080701 -0.0064021233 0.045321763
0.032064099 -0.0067957886 0.045545518
0.030546866 -0.003092614 0.045924366
0.030722838 0.0010745302 0.045993567
0.032371283 0.0037595998 0.045059144
-0.033153594 0.0071048266 0.045014977
0.03211993 0.0076470538 0.0453915
0.031398889 0.010739154 0.045115709
-0.031377975 0.011098969 0.045508802
-0.033101141 0.012268012 0.045524299
0.031966329 0.013440618 0.045024514
0.031448856 0.015868986 0.045690238
-0.031310599 0.020650191 0.045082152
0.030957306 0.020206353 0.045164347
-0.027770076 0.030186187 0.045017719
0.028425803 0.030624662 0.045612514
-0.0007476816 0.032271698 0.045989513
-0.01614921 0.033173475 0.045475483
-0.0064699817 0.033232588 0.045458496
-0.027669214 0.034534529 0.045383036
-0.0072507709 -0.032494783 0.046318531
-0.0032782871 -0.031002728 0.046324968
0.0011174064 -0.031138595 0.046021819
-0.010658317 -0.030986652 0.046077311
0.0048284647 -0.030550621 0.046438277
0.025542043 -0.029802583 0.046529293
0.026116248 -0.029684279 0.046501637
-0.030982876 -0.014868087 0.046431124
0.030608535 -0.0072141816 0.046874583
-0.03245201 -0.00067319814 0.046148419
0.030799188 0.0049395515 0.046660006
-0.03275311 0.016791705 0.046402216
-0.032345228 0.026376711 0.046999335
0.031019036 0.027010161 0.04681623
-0.031657308 0.02878122 0.046176314
-0.031422757 0.029018352 0.046026349
-0.029134654 0.031364113 0.046195865
0.0068484703 0.032878697 0.046091557
0.01221647 0.032596409 0.046608448
0.017190378 0.032522678 0.046755075
-0.00041373167 -0.031460859 0.047204852
0.007754311 -0.031424463 0.047963381
0.01271693 -0.031173408 0.047552109
0.021712001 -0.031496584 0.047099054
0.022871114 -0.031709813 0.047518134
-0.013012243 -0.030858815 0.047320485
0.030419126 -0.025954474 0.04706049
0.028202422 -0.024154074 0.047912836
-0.023914365 -0.023686711 0.047987461
0.030887978 -0.022441523 0.047953486
0.030552149 -0.012193353 0.047036171
0.030962229 -0.0038877227 0.047024429
0.031295151 -0.00019762013 0.047737122
-0.032943729 0.00073063467 0.047458529
0.031368695 0.011775009 0.047068715
0.031098485 0.012731695 0.047938347
-0.030934155 0.02151525 0.04779911
0.031405743 0.021673698 0.047018051
0.030882157 0.022993989 0.047707081
-0.03245258 0.023139367 0.047574461
0.030504849 0.026463527 0.047657728
-0.030033179 0.031319104 0.04769963
0.013993287 0.031626295 0.047997773
0.025969742 0.031983688 0.047590137
-0.026897229 0.032506727 0.047737837
-0.017441418 0.032695532 0.047810614
0.021701571 0.032198772 0.04701376
0.022691257 0.03263744 0.047681868
-0.022675235 0.033283304 0.047956705
0.00022346992 0.033465452 0.047299087
-0.022142913 0.034475878 0.047272444
-0.017925244 0.034193233 0.047621727
0.0027994066 -0.032088697 0.048710227
-0.0021664593 -0.031900048 0.048764169
-0.012924827 -0.030568279 0.048267663
0.015126156 -0.030735141 0.048701704
0.026777551 -0.03080339 0.048014283
-0.018066386 -0.02871982 0.0485394
0.028837096 -0.026886228 0.048135638
-0.027475141 -0.019532822 0.048356771
0.029343763 -0.019538296 0.048850179
0.029831469 -0.017339028 0.048447132
-0.030857861 -0.0125539 0.048609614
0.030962581 -0.0097901095 0.048925102
-0.032215536 -0.0077609387 0.048607051
-0.032413721 -0.0028041773 0.04897511
0.031356752 0.0030417419 0.048553109
-0.032146692 0.004920322 0.048092008
0.031144321 0.0075318827 0.048193157
-0.031173281 0.013154329 0.048388064
-0.030874949 0.015167585 0.04865551
0.03047964 0.015362179 0.048669159
-0.030994676 0.018796541 0.048975468
0.03054885 0.01810387 0.048990607
-0.03177001 0.026529785 0.048363686
-0.029220229 0.03022551 0.048763454
0.027575998 0.030848807 0.048571408
0.030780751 0.030937191 0.048688889
0.014366325 0.031806834 0.048714757
-0.027978607 0.032783616 0.04826951
-0.012938994 0.03279084 0.048411965
-0.010513196 0.032541763 0.048829317
-0.0075133508 0.032826543 0.048667312
-0.0030309604 0.032948375 0.048953533
0.0047169393 0.032317061 0.048594356
0.010209109 0.032439917 0.048853993
0.026643869 0.0326332 0.048787832
-0.02437634 0.034015466 0.048922896
-0.0099360673 -0.031329993 0.049246967
-0.0070967674 -0.031486034 0.04967916
-0.0051228586 -0.031343512 0.049316108
-0.0011019334 -0.031836849 0.049669802
0.014741378 -0.031798348 0.049999118
0.019160092 -0.031604268 0.049167812
0.01036129 -0.030654959 0.049078703
-0.014698856 -0.029904338 0.049865007
-0.019172076 -0.027733214 0.049832702
0.02991342 -0.027637007 0.049894452
-0.021531381 -0.025768174 0.049024224
-0.02356047 -0.024700589 0.049584568
-0.02481756 -0.021786824 0.049621999
-0.028144777 -0.018093603 0.049618065
-0.03036155 -0.015593994 0.04923749
0.030199576 -0.015069509 0.049428225
-0.031089135 -0.013730159 0.04980135
0.029554162 -0.013015755 0.049165964
-0.03173602 -0.011028143 0.049307704
-0.032333437 -0.005679219 0.049089432
0.0310417 -0.0050009172 0.049052179
0.031246364 -0.0019197152 0.049529433
-0.032681756 0.00012642145 0.049425483
-0.032242775 0.0021587512 0.049042702
-0.032326698 0.0071177515 0.049317896
-0.031841248 0.010393754 0.049000084
0.030848101 0.010446224 0.049250066
-0.032375455 0.012078799 0.049564421
-0.031449024 0.027697166 0.04904741
-0.02849099 0.031240365 0.04909426
0.017060611 0.031958461 0.04943341
-0.014734556 0.032984357 0.049668849
-0.0058411364 0.032694299 0.04941082
3.6154874e-05 0.032462049 0.049232781
0.0021555806 0.032392144 0.049164236
0.0071190083 0.032291591 0.049289227
0.012085044 0.032199681 0.049421787
0.0012413068 -0.032216728 0.050931513
0.0052609514 -0.031177603 0.050181985
-0.011818599 -0.030914247 0.050010562
0.025327852 -0.029188709 0.050525248
0.028047662 -0.029631142 0.050082564
-0.02600329 -0.022673588 0.050593972
0.030848563 -0.012036688 0.050414979
-0.032521915 -0.010802598 0.050380111
0.031125367 -0.0070614968 0.050431192
-0.032985736 -0.0012183003 0.050118387
0.031980429 0.0020433897 0.050968528
0.031298127 0.005314819 0.050288618
0.031240437 0.014189735 0.05005765
-0.032136738 0.017030628 0.050025105
-0.031316295 0.027034232 0.05056572
0.029631184 0.028047705 0.050082624
-0.029721476 0.030212807 0.050916433
-0.025054466 0.03283364 0.050039768
-0.010938504 0.032647151 0.050529718
-0.0010019615 0.033282954 0.050187528
0.010609361 -0.032275222 0.051173031
0.017260071 -0.031318009 0.051819146
0.021378884 -0.031331729 0.051568091
0.026134353 -0.029424274 0.051141739
0.028026618 -0.025730817 0.051161826
0.031040547 -0.024776967 0.051542759
0.030746259 -0.021145195 0.051670074
0.031553544 -0.0016874317 0.05172503
-0.032061689 0.019925015 0.05123347
0.030436166 0.021157984 0.051935256
0.031340268 0.021382114 0.051574945
0.031299699 0.025466271 0.051278949
0.02767472 0.031575225 0.051129103
0.011945443 0.032034636 0.05151248
0.01992189 0.032058321 0.051230073
-0.016861323 0.033947926 0.051750839
-0.012666088 0.033130512 0.051956892
0.0026380997 0.033686791 0.051002443
-0.009263115 -0.031135259 0.052521586
0.00096960925 -0.031524017 0.05289793
0.0032031927 -0.031421125 0.052775979
0.012890961 -0.031331062 0.052892327
0.021481114 -0.031405006 0.052403748
-0.016987203 -0.029292483 0.052113056
0.027811073 -0.027996678 0.052979469
-0.020301964 -0.026787614 0.052748919
0.029595098 -0.025204219 0.052273929
-0.024764672 -0.021918442 0.052791953
-0.026785847 -0.020085769 0.052414298
0.030183392 -0.020519026 0.052628517
-0.028959256 -0.016958518 0.052706122
0.03007951 -0.016605962 0.052310824
0.030297335 -0.013829353 0.052978694
-0.031639725 -0.0091345683 0.052631915
0.030667977 -0.0088944295 0.052918792
-0.031894982 -0.0079003721 0.052307725
-0.03185147 -0.0029569739 0.052687824
-0.031935155 0.0019934583 0.052962422
0.031787932 0.0010743914 0.052792311
-0.032469526 0.0046183215 0.052846253
0.031332552 0.0079285363 0.052754939
0.031017987 0.0094921887 0.052948534
-0.031778645 0.012381225 0.052773833
0.031395137 0.012863086 0.052112937
-0.031606976 0.015313139 0.052375615
0.030833378 0.016781252 0.052010953
-0.031570274 0.020886943 0.052478194
0.03008212 0.02479375 0.05237639
-0.031399604 0.025926128 0.052822948
0.030295089 0.0283092 0.052667201
0.026911678 0.030609077 0.05286324
0.0019973526 0.031750202 0.052813411
0.012872026 0.031849068 0.05241251
-0.007481697 0.032529533 0.052526355
-0.0029586321 0.032001197 0.052808762
-0.00053595658 0.032482125 0.052702904
0.016429331 0.032805651 0.052259684
0.020776507 0.032411303 0.052206516
-0.022817841 0.033394255 0.052859068
-0.018033108 0.033207007 0.052129328
-0.01199933 0.033145726 0.052316129
-0.0039748359 -0.031084465 0.053696573
-0.0019610189 -0.031458437 0.053617358
0.0077269003 -0.031531453 0.053010106
-0.014600141 -0.030005809 0.053033888
-0.012852028 -0.030778393 0.0531106
0.010185163 -0.030667592 0.053007424
0.026652316 -0.029890293 0.053723574
-0.01925128 -0.027501892 0.053654313
0.0300589 -0.02601335 0.053484797
-0.023887152 -0.023857074 0.053045571
-0.028245535 -0.017832855 0.053189814
-0.030730307 -0.012926143 0.053448796
0.029995229 -0.011386652 0.053037345
-0.03218529 -0.0056252219 0.053919435
0.031005694 -0.0042151543 0.053276181
-0.032995284 -0.00032334495 0.053150713
0.031352401 0.0027934904 0.05359292
-0.032150865 0.0069400235 0.053343654
-0.032071363 0.0088902833 0.053250074
-0.032093704 0.011894923 0.053504944
-0.032142192 0.023455488 0.053418338
-0.031271175 0.027283693 0.053194046
0.029464517 0.027029961 0.053849995
0.029994853 0.028342616 0.053032696
-0.028568279 0.030588731 0.053584158
-0.028300829 0.031814281 0.053006887
0.012114431 0.031960905 0.053852916
0.023135785 0.031815864 0.053046703
0.02609266 0.031843588 0.053209543
-0.02335212 0.032292087 0.053550601
-0.013346513 0.032486748 0.053828359
-0.0055829235 0.032500546 0.053159833
0.0047002877 0.032102026 0.053202093
0.0069443891 0.032001197 0.053223014
0.0082956813 0.032098752 0.053409815
-0.021003997 0.033207554 0.053234339
0.00027715228 -0.031633329 0.054403007
0.0051620491 -0.031038443 0.05467099
-0.012070581 -0.030510962 0.054765821
-0.0068864375 -0.030844569 0.054371238
0.014207256 -0.030969612 0.05442524
0.024775345 -0.030756414 0.054130256
0.030187044 -0.02650496 0.054419339
-0.022811253 -0.024627574 0.054303169
-0.030495398 -0.01372263 0.054225445
0.030866563 -0.011842246 0.054596484
0.031479239 -0.0068682865 0.054880798
0.031281054 -0.0019216747 0.054513991
-0.032645952 -0.00049975794 0.054971099
0.031493008 0.00045377482 0.054604828
0.031393778 0.0055581708 0.054601192
0.030654881 0.013601668 0.05442977
-0.031569872 0.015058111 0.054786444
-0.03189081 0.016571231 0.054578066
0.030756416 0.024775341 0.054130256
-0.031356156 0.025818737 0.054620981
-0.030896917 0.028418321 0.054005146
0.016810335 0.031815171 0.054526687
0.02587793 0.031514145 0.054757833
0.028760353 0.031036085 0.054305434
-0.00050529465 0.032657981 0.054981768
-0.018022798 0.033716634 0.054560542
0.0096682683 -0.032120109 0.055743515
0.016074019 -0.031517677 0.055901527
0.020657144 -0.031345721 0.05553335
0.023313364 -0.030754047 0.055086493
-0.018161133 -0.029112121 0.055392742
0.028944716 -0.027799219 0.055071414
-0.022113781 -0.026123032 0.055813015
0.031360906 -0.019527711 0.055743515
0.030333648 -0.017524013 0.055081487
-0.032678604 -0.0080072805 0.055743098
-0.032476623 0.0056604715 0.055887699
-0.032238301 0.010417365 0.055702925
0.031832218 0.012960528 0.055374026
-0.032396805 0.015140329 0.055801809
0.031309765 0.01598441 0.05571878
0.031310368 0.019751582 0.055260599
-0.029732287 0.028648652 0.055660248
0.01469606 0.031442598 0.055366516
0.021799404 0.032463215 0.055272758
-0.017534461 0.033824682 0.055955827
-0.01314723 0.034318268 0.055884182
0.0022595879 -0.032271683 0.056176007
-0.011161336 -0.031174418 0.056570888
-0.010264736 -0.031943332 0.056264639
0.011379039 -0.031253967 0.056582332
0.019720592 -0.031090554 0.056961894
0.015749587 -0.030022228 0.056769431
0.016324092 -0.030732632 0.056426048
-0.025588062 -0.022963338 0.056967139
-0.02826418 -0.020016257 0.056326449
-0.028305408 -0.019154977 0.0567469
-0.030812565 -0.01583872 0.05615139
-0.029823339 -0.015536952 0.0565359
0.031608123 -0.015131093 0.056466699
-0.030766308 -0.014676701 0.05652225
-0.032387905 -0.011595037 0.056204617
0.031811211 -0.011033833 0.056573153
-0.032360442 -0.0078453645 0.056990802
-0.03299576 -0.0030950592 0.056723118
0.031171596 -0.0035417462 0.056976557
-0.032815348 -0.00089714583 0.056771755
-0.033043742 0.0018406842 0.056968689
-0.03272146 0.0067867315 0.056916952
0.032454669 0.0088465232 0.056046963
-0.032346368 0.01174088 0.056823075
0.031867672 0.011759939 0.056286156
0.029913738 0.015633602 0.056641996
-0.032440588 0.018890481 0.056004167
-0.032571409 0.019113882 0.056485772
0.030936787 0.019557076 0.056780517
-0.02900283 0.031300019 0.05621469
-0.020508131 0.032487653 0.056676984
-0.0067076781 0.032897234 0.056573033
-0.0011102203 0.032301091 0.056326747
0.0018559536 0.032329381 0.056394994
0.0067777336 0.032589894 0.056564867
0.01092383 0.032144308 0.056626379
0.018927576 0.032478094 0.056046903
-0.011243115 0.033555992 0.056050301
-0.0083333803 0.033833385 0.056347251
-0.0030948622 0.033075213 0.056787014
0.010731332 0.03313534 0.056050777
0.015402461 0.033261057 0.05621469
-0.014941554 -0.031237928 0.057165504
-0.0026208572 -0.031120121 0.057531953
0.001242267 -0.031318702 0.057855964
0.02295769 -0.031055378 0.057313621
-0.011687046 -0.03021729 0.057881057
-0.0067405477 -0.030388117 0.057637334
0.005229238 -0.030214164 0.057778478
0.026683606 -0.029682703 0.057239115
0.027579237 -0.029390283 0.057500064
-0.018819755 -0.028796434 0.057252645
0.030386431 -0.026742561 0.05775708
0.029970447 -0.025254061 0.057046711
0.03019901 -0.025172491 0.057894349
-0.022858599 -0.023570679 0.057971537
0.031007238 -0.020876542 0.057455659
0.030152863 -0.011660518 0.057013512
0.031132162 -0.008390001 0.057783842
0.031500205 0.0011417046 0.057329655
0.030876486 0.0043048323 0.057685018
-0.032062147 0.020000169 0.057500362
-0.031819738 0.020872816 0.057789326
0.031596366 0.022965737 0.057531178
0.030052178 0.026459079 0.057480037
0.030543825 0.028656304 0.05708915
-0.031325631 0.02921983 0.057833076
0.024513133 0.031106461 0.057630301
-0.016666908 0.032599892 0.057029903
0.019975508 0.032036994 0.057471871
-0.023563426 0.033378839 0.057186246
-0.018038413 0.033457585 0.057470143
-0.0023680776 -0.031331234 0.058070481
0.00016127154 -0.0307974 0.058942497
0.012689753 -0.030749567 0.058326304
0.022911865 -0.030920956 0.058416188
0.031281084 -0.020262752 0.058355868
-0.030545244 -0.012469573 0.058086574
0.03033483 -0.01166804 0.058320403
-0.031994633 -0.0010814341 0.058532834
0.030901479 -0.00016460288 0.05872643
0.030069649 0.012812323 0.0586797
0.030692855 0.022317598 0.058645606
-0.031825662 0.02428098 0.058293581
-0.030830549 0.025407378 0.058437228
0.029374462 0.027871072 0.058113396
0.028452413 0.028192813 0.05860436
-0.028917119 0.029933041 0.058613658
-0.026396859 0.031368431 0.058169365
-0.00060412288 0.031882405 0.058839142
0.025537286 0.031176798 0.058735788
0.028943295 0.031812429 0.058098137
-0.022792924 0.03200059 0.058804512
0.013009533 0.03227675 0.058950484
0.020841217 0.032632176 0.058165252
-0.013158992 0.033625115 0.058690846
0.015742579 0.033257984 0.058571875
-0.0049838978 -0.032176677 0.059874892
0.013704292 -0.032284439 0.059586108
0.018402139 -0.031932164 0.059504688
0.02778447 -0.028231613 0.059607983
-0.024770953 -0.024651572 0.059631407
0.032140706 -0.016126346 0.059268892
-0.031992614 -0.013087556 0.059294403
0.031537443 -0.0044990648 0.059641123
0.031755377 -0.00068401732 0.059868157
0.032602668 0.0032084896 0.059507728
-0.033857968 0.0052109612 0.059838533
-0.033495605 0.0086438935 0.05972904
0.03303647 0.0081387963 0.059647799
-0.033630446 0.012310807 0.059029818
-0.032514192 0.01324692 0.059219122
0.032913327 0.013064945 0.05934298
-0.032621805 0.015896443 0.059022546
0.032082155 0.017576503 0.059396565
-0.00013139844 0.032972869 0.059945762
0.0048038866 0.033521812 0.059897423
0.0087423678 0.03374178 0.059941232
0.012427304 0.033925738 0.059284806
-0.016307458 0.034655154 0.059568644
-0.0064756451 0.034591258 0.059930384
0.0032272805 -0.033905685 0.060549498
0.0079222769 -0.033117294 0.060163975
-0.0089707561 -0.032911956 0.060107648
-0.01363168 -0.031710997 0.060120702
0.0029289247 -0.03182108 0.060746253
0.011091482 -0.031789396 0.060974658
-0.018170172 -0.030248381 0.06007576
-0.019459013 -0.028546678 0.060397625
-0.025952311 -0.023528846 0.060592413
-0.028241903 -0.02109693 0.06018436
-0.028845545 -0.019006722 0.060716152
-0.03038168 -0.017823311 0.060238063
0.030673977 -0.016836312 0.060025275
0.030856466 -0.012838604 0.060331345
-0.032849889 -0.010585478 0.060854375
-0.033857942 -0.0081460439 0.06030494
0.03165016 -0.0085453903 0.060012221
-0.032668572 -0.0061409338 0.060647309
0.032131314 -0.0064060078 0.060826063
-0.033966541 -0.0036182594 0.060066223
0.032324493 -0.0016965442 0.060265005
-0.033813123 0.00021608826 0.060669482
-0.033586621 0.0017015428 0.060501516
0.031268414 0.0022407835 0.060886025
-0.033174992 0.0066382694 0.060379803
0.031832289 0.0063849194 0.060755134
0.032486368 0.010424681 0.060536623
-0.03295362 0.011574805 0.060409784
0.030668728 0.018977057 0.06096077
0.031974375 0.021974638 0.060497522
-0.032007046 0.027665302 0.060016334
-0.032711774 0.028047804 0.060405374
0.032102484 0.028138198 0.060199022
-0.030344006 0.030579938 0.060868144
-0.029005013 0.032992072 0.060288727
-0.014900229 0.032407414 0.060842156
-0.0061205085 0.032732062 0.060358405
0.0068607936 0.03290087 0.060611844
0.011320443 0.032935262 0.060826778
-0.010255609 0.033525743 0.060589075
0.0017076329 0.033290565 0.060265303
0.010238344 0.033507638 0.060720444
-0.025827385 0.034375578 0.060620904
-0.0031959463 0.034534693 0.060022712
-0.011170357 -0.032078981 0.061966896
-0.0014221612 -0.032560408 0.061292171
0.022642914 -0.032096077 0.061454237
-0.0065822881 -0.03163445 0.061420441
0.0062787649 -0.031275231 0.061445534
0.015264492 -0.030767113 0.061783254
0.019015595 -0.030704957 0.061003089
0.028917439 -0.030019954 0.061401784
0.024826027 -0.029861618 0.061811447
0.028596306 -0.029787069 0.061132073
0.03132933 -0.026896792 0.061243176
-0.022564435 -0.02527174 0.061891973
0.030856961 -0.022261387 0.061810851
-0.030266065 -0.014728473 0.061198711
-0.031740852 -0.010769213 0.061342955
-0.032134425 0.015925795 0.061297596
0.030374808 0.015013216 0.061553776
-0.033111095 0.016666947 0.061523378
-0.031995337 0.018910555 0.061967969
-0.031841807 0.022735413 0.061081886
0.02996164 0.029302729 0.061164498
-0.027127326 0.031885006 0.061963916
0.026933543 0.031367179 0.061285734
-0.0020129876 0.03275992 0.0619452
0.016267776 0.032860994 0.061306596
0.019107819 0.032475457 0.061726391
0.023254225 0.032371014 0.061677337
-0.018013116 0.033991218 0.061027825
-0.017851342 0.033926297 0.061281741
-0.014541286 0.033890843 0.061351478
-0.0092340438 0.034046113 0.061628342
-0.010717002 -0.033082761 0.06289351
0.0098916776 -0.033298314 0.062877476
0.013167836 -0.033231378 0.062686265
0.017768925 -0.032235418 0.062652946
-0.0149632 -0.031849086 0.062520862
-0.00041136891 -0.031178916 0.06218636
-0.017848428 -0.030413423 0.062754989
-0.022210244 -0.027326632 0.062665164
0.030661061 -0.02708235 0.062209249
0.029911108 -0.024809349 0.06271553
-0.028023869 -0.021084083 0.062078416
0.031143492 -0.020255223 0.062623918
0.030827193 -0.018637696 0.062723756
-0.031097084 -0.016651116 0.062981844
0.031180799 -0.016430207 0.062302172
0.03188026 -0.014755224 0.062472045
-0.033231378 -0.013167836 0.062686265
0.031982243 -0.011465481 0.062730372
0.032628804 -0.011278547 0.062587619
-0.033328474 -0.0090727098 0.062935889
-0.033981442 -0.0029879608 0.062887907
-0.033259403 -0.0013365401 0.062140703
0.031751387 -0.0010551559 0.062444448
-0.033953093 0.0051302076 0.062973082
0.033315122 0.0090726446 0.062925279
-0.033536889 0.010548468 0.062733412
0.032548495 0.012085179 0.062813103
-0.032884315 0.014262162 0.062770724
0.03319782 0.014805922 0.062590599
-0.03272976 0.015339408 0.062515855
0.033017691 0.017485872 0.062482357
-0.031845611 0.020300262 0.062558591
-0.031416267 0.025083302 0.06266737
0.014337244 0.032959446 0.062855184
0.020369371 0.032568652 0.062849104
-0.010920824 0.033001669 0.062170088
-0.003306254 0.033889115 0.062595248
0.010474077 0.033877183 0.062696815
0.015827322 0.03333243 0.062348008
0.0033393502 -0.033432364 0.063259959
-0.014743224 -0.032208622 0.063048422
0.00090322457 -0.03207342 0.063939512
0.021303765 -0.030947451 0.063062787
-0.018860219 -0.029390439 0.063583374
0.026614796 -0.028425539 0.06363827
-0.025691601 -0.023440497 0.063479543
-0.028342865 -0.019727131 0.063586354
-0.032529134 -0.012327693 0.063136935
-0.032898743 -0.0083763693 0.063738108
0.033532917 -0.001574891 0.063546836
-0.033780634 0.0015695352 0.063743591
0.033450127 0.0033396049 0.063274086
-0.033651173 0.0064886822 0.06384778
0.032898746 0.0083763618 0.063738108
0.030579548 0.021332301 0.063202024
0.028554346 0.027612854 0.063374341
-0.029166341 0.030034136 0.063392818
0.025577154 0.031803187 0.063119233
-0.016679404 0.032284357 0.063268542
-0.012655543 0.033576746 0.063034058
-0.0076692468 0.033324674 0.063870192
0.0015748934 0.033532858 0.063546836
0.0057817088 0.033635959 0.063403428
-0.010950256 -0.032858107 0.064917624
-0.0029885126 -0.032292746 0.064652085
-0.0015076306 -0.03270793 0.064946771
0.01246806 -0.032032546 0.064173639
0.024737623 -0.032689184 0.064516008
0.028329646 -0.030829063 0.064617872
-0.022745755 -0.027334101 0.064236641
0.031557083 -0.016312748 0.064659536
0.030890653 -0.014440222 0.064902723
0.031834599 -0.011522731 0.064525872
0.032222703 -0.0037046233 0.064674735
-0.034029432 -0.0020811083 0.06467557
0.032619201 0.00089024846 0.064074755
-0.034359694 0.0016787937 0.064139605
0.032612823 0.0056532789 0.064861178
-0.033733904 0.011403374 0.064120531
-0.033801019 0.01467954 0.064311862
-0.032327883 0.025378739 0.064973235
-0.032454647 0.029817652 0.064137757
0.032048218 0.029141121 0.064526796
-0.00068357866 0.033679716 0.064314961
0.0032052398 0.033763673 0.06423521
0.010218651 0.033671223 0.064916492
0.01222241 0.033750713 0.064168394
0.017955691 0.033868015 0.064503074
-0.0096986499 -0.032875359 0.065424919
-0.0064287372 -0.032578111 0.065051496
0.0059933932 -0.032080721 0.065375745
0.01625023 -0.032534223 0.065553963
-0.0028976137 -0.031216115 0.065691829
0.0010185912 -0.031465955 0.065430462
0.013993858 -0.031562667 0.065700829
0.025863517 -0.03156662 0.065192461
0.030565627 -0.029595375 0.065723479
-0.023760015 -0.025343977 0.065495253
0.031552162 -0.025963115 0.065314233
-0.031188071 -0.016036715 0.065060496
-0.031461339 -0.0142384 0.065085173
0.032790661 -0.0064227921 0.065219641
0.032051805 0.0012360644 0.065592527
-0.033332855 0.0032017529 0.065810919
-0.03345542 0.010776605 0.065130591
0.031393856 0.013812009 0.065504789
-0.031711813 0.025838703 0.065912604
0.030369317 0.029558191 0.065694094
-0.030359706 0.030320629 0.06563735
-0.026078377 0.031770952 0.065427661
-0.029699616 0.032894548 0.065061629
0.022272423 0.032699473 0.065909326
0.025604468 0.032557677 0.065230072
0.0032459041 0.033236235 0.065726757
0.021492096 0.033114627 0.065128207
-0.013138671 -0.032557115 0.066556692
-0.0052610892 -0.032094184 0.066211104
0.0034794845 -0.032107592 0.066315949
0.0092108995 -0.032059908 0.066036105
0.014941406 -0.032358289 0.066028953
0.010753419 -0.031980619 0.066118836
-0.016417224 -0.030913098 0.066518128
-0.02638549 -0.022137279 0.066317201
-0.026377134 -0.02178647 0.066512108
0.031269446 -0.019886974 0.06610924
-0.031956613 -0.013973422 0.066163957
-0.032639924 -0.010326003 0.066060424
-0.032844424 -0.0096997172 0.066429496
0.031786375 -0.0093864053 0.066987395
0.031740446 -0.0051981588 0.066895962
0.031579074 -0.0027301675 0.06600523
-0.033627875 -0.0010981811 0.066131175
-0.03402346 -0.00034482218 0.066291034
-0.033420362 0.003575691 0.066170871
0.033121049 0.0097001996 0.066648006
-0.032996505 0.013235804 0.066743433
0.033002794 0.014939671 0.066537917
-0.032392986 0.017134702 0.066261649
0.030984221 0.025728663 0.066137195
-0.029984398 0.029080136 0.06629473
-0.028378814 0.032827392 0.066426814
0.025515903 0.032008618 0.066015482
-0.014919366 0.033539355 0.066377759
-0.011034761 0.03330062 0.066797733
-0.0013228431 0.033288494 0.066022813
0.0034699906 0.0332244 0.06667912
0.012845851 0.03359003 0.066417813
0.016769132 0.033181205 0.066461682
-0.011454595 -0.032330751 0.067379475
-0.0063085016 -0.032049716 0.06771028
-0.0013891924 -0.032304227 0.067702532
0.011537087 -0.032170687 0.067549169
-0.014691307 -0.031713195 0.067282677
-0.0094158705 -0.031860366 0.067050517
0.01538969 -0.030494487 0.067864776
-0.01864415 -0.028511239 0.067809343
0.027376223 -0.028816763 0.067743719
-0.02130015 -0.027365552 0.067076623
-0.022474173 -0.02549519 0.06755209
-0.02523979 -0.022902446 0.067474127
-0.027951038 -0.019010834 0.06759727
-0.029198458 -0.017865997 0.067327976
0.030683644 -0.016488709 0.067026258
-0.030623825 -0.015065212 0.067671657
0.032325979 -0.014939683 0.067561865
-0.03250299 -0.012809799 0.067693472
0.031580549 -0.01266833 0.067305267
0.031804264 -0.011232409 0.06772542
-0.032753211 -0.0067125643 0.067299306
0.032156289 -0.0063059763 0.067794085
-0.033332646 -0.0040982352 0.067443252
-0.033366345 -0.0028326157 0.067421317
0.03300029 -0.0014171791 0.067226708
-0.033611953 0.0014041584 0.067709446
0.032875657 0.0040920093 0.067082465
-0.033242464 0.0063202451 0.067624927
0.032231379 0.0067635654 0.067510486
-0.032954596 0.0085432306 0.067277491
0.032145701 0.010791143 0.067094445
-0.033449113 0.01122231 0.06799531
0.03271329 0.012210353 0.067182064
-0.033743873 0.017346332 0.067015052
-0.016476028 0.032690376 0.067875564
-0.0068090227 0.032969188 0.067485511
0.0063329665 0.032781661 0.067261517
-0.028244004 0.033949416 0.06776464
-0.010035942 0.033351004 0.067021132
-0.0043143751 0.033374965 0.067281425
-0.00048331264 0.033778436 0.067095757
0.001412575 0.033213019 0.067394555
0.0084773647 0.033358581 0.067116082
0.011229903 0.033236563 0.067827404
-0.026801836 0.034697488 0.067943752
0.012769135 0.034195367 0.067816138
0.015733624 -0.033086918 0.068900466
-0.00058260374 -0.032249123 0.068424225
-0.015043218 -0.031753719 0.068188787
0.0068125213 -0.031809106 0.068162024
0.03003932 -0.031009546 0.068119943
0.031457197 -0.02862495 0.06869328
-0.025421504 -0.023549533 0.06863755
0.031904817 -0.016146654 0.068012297
0.0337147 0.0032442287 0.06816417
-0.033455696 0.014133234 0.068045318
0.03067936 0.015587427 0.068077505
-0.033325136 0.016137449 0.068104506
-0.032445621 0.020028977 0.068506122
0.03036131 0.026955482 0.068652868
-0.032319747 0.027528947 0.068289399
-0.032330301 0.029445292 0.068180919
-0.03048623 0.03028826 0.068439484
0.031055689 0.030067135 0.068789482
-0.030739263 0.031328309 0.068493724
0.02964968 0.031019358 0.068853974
-0.0031780144 0.032654248 0.068350673
0.027750693 0.032547958 0.068543196
0.028314609 0.032208305 0.068660736
-0.015004962 0.033439875 0.068927944
-0.012707699 0.033193164 0.068376243
0.014848974 0.033892512 0.068719208
0.016137391 0.033325195 0.068104446
0.024236489 -0.033054434 0.069518864
0.028294679 -0.032641485 0.069174647
0.029098187 -0.0308653 0.069165349
0.031303648 -0.02292181 0.069095969
0.031271748 -0.019366004 0.069027185
0.032328639 -0.016614323 0.069839537
0.03343454 0.015307144 0.06938833
-0.033222463 0.019895079 0.069741607
-0.032264486 0.023321727 0.069333076
0.03121501 0.023514779 0.069858074
0.033334266 0.024015881 0.069573522
9.9775381e-05 0.033133637 0.069900513
0.020701984 0.033680096 0.069046617
0.023604222 0.033104278 0.069437146
-0.023181617 0.034167565 0.069637477
-0.014965921 0.034971029 0.069339573
-0.011229027 -0.032950483 0.070691466
0.0021905378 -0.032926638 0.070694149
-0.0026612198 -0.031902902 0.070345044
0.00025723595 -0.031828351 0.070052683
0.010207217 -0.031581461 0.07073921
-0.016548652 -0.030926742 0.070868731
0.023467746 -0.030922171 0.07006979
0.031638786 -0.02514964 0.070219457
-0.025562512 -0.021984866 0.070871592
0.032413725 -0.020179722 0.070095956
-0.031201601 -0.015358672 0.070661306
0.030724168 -0.014761132 0.070808649
0.032631993 -0.013145825 0.070915341
0.032068469 -0.011034862 0.070701778
-0.031749904 -0.010598712 0.070343733
-0.032684445 -0.0052782712 0.070790052
-0.033776008 -0.0024038097 0.070538223
0.031994615 -0.0023849709 0.070445538
0.031855427 0.00079946872 0.070008993
0.033061195 0.0024688225 0.07059741
-0.032728404 0.0082949623 0.070867419
-0.033421818 0.011266821 0.070862889
-0.032077711 0.015424233 0.07020241
-0.032840166 0.025379755 0.070578098
0.029120822 0.029699806 0.07048285
-0.030500151 0.030151693 0.070862532
-0.028572597 0.032676522 0.070601761
-0.023173135 0.032305013 0.070065737
0.0023002336 0.032874614 0.070908904
-0.019658837 0.033039469 0.070932209
-0.01064402 0.033336792 0.070812643
-0.0022832667 0.033555366 0.070679724
0.019931497 0.033915177 0.070064604
-0.019814922 0.034983069 0.07012099
0.01477427 -0.032450438 0.071020007
-0.014371669 -0.031383917 0.071261764
-0.011041444 -0.031824648 0.071830153
-0.0080346093 -0.031131353 0.071180582
-0.0010006726 -0.031550407 0.071955621
0.0044067167 -0.031395674 0.071179986
0.0062058717 -0.031595875 0.071866512
0.019185556 -0.030235333 0.071077108
0.030203756 -0.029471122 0.071797967
0.02900769 -0.028864745 0.071139812
-0.0205446 -0.027981512 0.071046948
-0.018601222 -0.027820315 0.071907759
-0.023059599 -0.026154324 0.071077347
0.031501688 -0.026515132 0.071321726
-0.024237392 -0.023619931 0.071427047
-0.029228913 -0.017370846 0.071055532
-0.03228309 -0.011990918 0.071063459
0.031317219 -0.0081087537 0.071337044
-0.033188816 0.0024285521 0.071173728
0.032208383 0.0048385835 0.071310341
-0.032213628 0.0061247642 0.071925521
0.032671988 0.010204466 0.071387172
0.034074664 0.014255272 0.07149905
-0.03239236 0.026252197 0.071639717
0.032273509 0.028497493 0.071662962
-0.032114811 0.030078156 0.071987569
-0.0305738 0.03017321 0.071974039
0.0061367312 0.031773269 0.071582139
0.011038727 0.031900287 0.071889162
-0.029363368 0.032675445 0.071171165
-0.0044850009 0.032485306 0.071346998
0.0074048587 0.032748707 0.071089625
0.025750814 0.03282949 0.071320295
0.026745377 0.03258045 0.071661353
-0.010178774 0.033224404 0.071005583
0.010807323 0.033931132 0.071031809
-0.025497254 0.034185164 0.071569443
0.016766053 -0.033363879 0.072873712
0.025495276 -0.033125412 0.072517753
-0.0020203274 -0.032409817 0.072963357
0.010803023 -0.032139331 0.072006464
0.02248282 -0.032044329 0.072952747
0.028230514 -0.032403123 0.072047234
-0.0060957577 -0.031639159 0.072495937
0.0019632857 -0.031809997 0.072324872
0.010690046 -0.031646632 0.072901547
0.028408755 -0.031702932 0.072223842
-0.015727606 -0.030731857 0.072451651
0.014261805 -0.03063032 0.072129011
0.03143429 -0.028236635 0.072468758
-0.022497728 -0.024882212 0.072098911
-0.026126239 -0.022056019 0.072501183
-0.02739368 -0.018748015 0.07224822
0.031175852 -0.015925776 0.072550833
-0.030390099 -0.014468139 0.07219398
0.03110224 -0.011019169 0.072285175
-0.032365184 -0.010615154 0.072598219
-0.031940367 -0.0063602719 0.0721609
0.031744838 -0.006351654 0.072006166
0.032409817 -0.0020203302 0.072963357
-0.032622419 -0.0015716245 0.072003543
0.032780945 -0.00073961396 0.07228595
-0.033276439 0.00094267499 0.07219696
0.031345718 0.0015188279 0.072584689
-0.033182904 0.0023014573 0.072777033
0.031445231 0.0061862445 0.072078466
0.031623587 0.010028153 0.07244283
-0.032100379 0.011031765 0.072045088
0.032087028 0.011307532 0.072626472
0.031139243 0.01438542 0.072149575
-0.032133937 0.015936095 0.072279215
0.033407912 0.025880344 0.07215333
0.030366641 0.030774865 0.072194934
0.015942167 0.03198719 0.072164953
-0.027284916 0.032187149 0.072432518
-0.0065558525 0.032675799 0.072113335
-0.0018300423 0.032668021 0.07235986
0.00074063329 0.032746613 0.072259307
-0.01629163 0.033043109 0.072220147
-0.01129871 0.033411253 0.072881877
0.0023610797 0.033053532 0.072666585
-0.021664942 0.034455925 0.072501957
-0.015100772 0.03468895 0.072961092
0.014783718 0.034391284 0.072570145
0.014200616 -0.032598823 0.073485613
-0.017507872 -0.031211104 0.073342562
-0.013134677 -0.03188533 0.073947668
0.030657504 -0.021765504 0.073775291
-0.027653769 -0.020787623 0.073328257
0.031475991 -0.018764906 0.073365688
-0.029338188 -0.017965078 0.073837757
-0.031934679 -0.015207224 0.073861778
-0.032154348 -0.013201986 0.073095083
0.032601569 -0.013598218 0.073761821
-0.033674061 -0.0094381981 0.073426485
-0.033917606 -0.005368833 0.073789179
-0.033522964 0.0080713248 0.073900104
0.033684254 0.01025228 0.073399901
-0.033786904 0.013509944 0.073891759
-0.033493094 0.014389013 0.073397279
0.032711186 0.014016268 0.073266268
0.03437525 0.015524769 0.07320714
-0.032613225 0.018580612 0.073347151
0.032630205 0.019012436 0.073930025
-0.032177441 0.02243248 0.073340535
0.032142509 0.022524286 0.073036432
-0.033135951 0.026472263 0.073777199
-0.031928208 0.02861407 0.073646545
-0.018522523 0.033716284 0.07383436
-0.010253414 0.033906579 0.073573411
-0.0069941385 0.033563793 0.073444128
0.0092413817 0.033454757 0.07356894
0.013521714 0.033817187 0.073917329
0.018536204 0.033597592 0.07354629
0.025597215 0.033106025 0.073457479
-0.010773337 -0.033481866 0.074344873
-0.0034568263 -0.033173468 0.074132502
-0.0057358467 -0.032283656 0.074275255
-0.00028317794 -0.032051027 0.074610114
0.018946616 -0.032371532 0.074047208
0.0062387921 -0.031957746 0.074260592
-0.017248347 -0.03016907 0.074636698
0.017514959 -0.030649025 0.074519634
0.021452282 -0.030387331 0.074392557
-0.020808907 -0.028416505 0.074483395
-0.024469608 -0.024886575 0.074442029
0.031338669 -0.024785463 0.074968874
-0.025437744 -0.023468722 0.074426174
0.032268479 -0.018788567 0.074422657
0.03258102 -0.0058559095 0.074524522
0.033363055 -0.0026164213 0.074999332
-0.034000814 -0.0012989998 0.074026704
0.032756031 0.0038033812 0.074984789
0.031400863 0.018249219 0.07432282
