# .PCD v0.7 - Point Cloud Data file format
VERSION 0.7
FIELDS x y z
SIZE 4 4 4
TYPE F F F
COUNT 1 1 1
WIDTH 1321
HEIGHT 1
VIEWPOINT 0 0 0 1 0 0 0
POINTS 1321
DATA ascii
-0.028088052 0.025474159 0.15537611
0.028428126 0.025106665 0.15599754
-0.025083307 0.028371995 0.15595016
0.0024817232 0.028955646 0.15583903
0.010715628 0.028809758 0.15582067
0.014022465 0.028038885 0.1557326
0.025525328 0.028187962 0.15515575
-0.020643875 0.02933294 0.15536594
-0.017364185 0.029257983 0.15574729
-0.0079083908 0.02908843 0.15533122
-0.0045762444 0.02934025 0.15570036
-0.0013416661 0.029779147 0.15532774
0.0063819224 0.029108152 0.15566117
0.013451729 0.029179882 0.15505677
0.017281679 0.02966851 0.15557972
0.020756215 0.029417079 0.15528703
0.0023820754 -0.029064715 0.15681413
0.0059222137 -0.029027879 0.15665624
-0.0087608099 -0.028429117 0.15662253
-0.0047490378 -0.028833237 0.15653867
-0.00074187189 -0.028914213 0.15639141
0.0086037666 -0.028928518 0.15609992
0.013354884 -0.027660696 0.15620655
0.025151212 -0.02771871 0.15638578
0.025684576 -0.026143909 0.15661636
0.027752399 -0.026288565 0.15697911
-0.01997713 -0.023018681 0.15673125
0.028897125 -0.02237596 0.15619576
-0.027232049 -0.014850251 0.1567196
0.030014226 -0.0080790827 0.15688372
-0.028876752 -0.0064567579 0.15652254
-0.029119229 -0.0024070758 0.15685987
-0.029932737 -0.00058448885 0.15636784
0.030636616 0.0028603664 0.15692422
-0.02992538 0.0060816035 0.15671057
-0.029363189 0.0090821451 0.15689635
0.029832141 0.021654719 0.15617362
-0.027550859 0.023066979 0.15615979
-0.027307576 0.026387934 0.15663365
-0.026216529 0.026659969 0.15683708
0.026673889 0.026482007 0.15681466
-0.024857955 0.02770973 0.15635297
0.022744112 0.027882103 0.15675694
-0.021639705 0.029796166 0.15614295
-0.0060137585 0.029231893 0.1568284
0.00074940821 0.029880166 0.15639681
0.0047473973 0.029946072 0.1566568
0.0087702526 0.029293964 0.15636206
-0.0010709306 -0.029374031 0.15716642
0.012645514 -0.029627118 0.15788484
0.011006101 -0.028631926 0.15780932
0.021723321 -0.028391831 0.1576443
-0.012743291 -0.027624199 0.15760434
0.029575456 -0.025963128 0.15782568
-0.022637194 -0.020863567 0.15765747
0.02942724 -0.012165992 0.15783012
-0.028628662 -0.01091334 0.15738788
0.030847801 -0.0014363127 0.15741149
-0.029543413 0.0015739696 0.15735257
0.029414665 0.0097936084 0.15727621
-0.029197352 0.012740022 0.15742415
0.030454721 0.012423064 0.15747613
-0.027125718 0.0152224 0.15782231
0.03183113 0.016578106 0.15792653
0.03015814 0.017784161 0.15750432
0.028934184 0.022606883 0.15743881
0.026310869 0.027303925 0.15749925
-0.022468278 0.028802641 0.15728968
-0.011006278 0.029045891 0.15721542
-0.0025134664 0.029353755 0.15705824
0.0015339963 0.029630318 0.15742645
0.013414504 0.029363601 0.15727806
0.022051271 0.029526595 0.15792817
-0.018314462 0.030008376 0.15737203
-0.012628322 0.030264001 0.15784618
-0.0041425931 -0.029228292 0.15868759
0.003723101 -0.029308472 0.15863672
-0.012128425 -0.028186461 0.15841541
0.0086904215 -0.028625403 0.15864599
0.015501711 -0.028837295 0.1582728
0.022332538 -0.027086064 0.15861163
-0.015288921 -0.026905593 0.15836668
-0.021991687 -0.021399556 0.15841541
-0.023459412 -0.019126577 0.15892839
-0.026634295 -0.015274605 0.15865356
0.029046189 -0.015708201 0.15871254
0.031479206 -0.015245512 0.15852153
-0.02854131 -0.012020786 0.15840691
0.030532429 -0.012670502 0.1588195
-0.028937781 -0.01126508 0.15891382
-0.02932472 -0.0083466452 0.15873796
0.030005375 -0.0075662453 0.15813383
-0.030478375 -0.0037334743 0.15884772
0.030097988 -0.0034335358 0.15858144
0.031451173 -0.00047979315 0.15892047
0.031166919 0.00082256831 0.15832466
0.031237517 0.0041721663 0.15887213
-0.029817089 0.0081050498 0.15880543
0.030223081 0.0086391214 0.15802339
0.030840544 0.011309863 0.15870625
-0.029693007 0.012739883 0.15899852
-0.029076383 0.022156266 0.15830988
-0.028088024 0.025133658 0.15825361
0.027625434 0.026697392 0.15853879
0.01565174 0.02787466 0.1584526
0.012196256 0.028254313 0.15848911
0.025326561 0.028506201 0.15831548
-0.0088429302 0.029519932 0.15800139
-0.0037760069 0.029692769 0.15848795
0.0081619779 0.029960511 0.15892464
-0.011378052 0.030130571 0.15866333
0.0019947281 -0.030230263 0.15913266
-0.0084945858 -0.029618854 0.15900809
-0.0046324115 -0.02954226 0.15958503
-0.00062859483 -0.029951947 0.15969029
0.0043135537 -0.029481916 0.15968567
0.0075725988 -0.029277109 0.15910167
0.011278062 -0.029468138 0.15900975
-0.012518444 -0.028975481 0.15900514
-0.0086293099 -0.028915696 0.15977639
0.015798841 -0.028014399 0.15951318
0.02793118 -0.028661136 0.1592086
-0.016408432 -0.027028477 0.15928948
0.018922392 -0.0273555 0.15979487
-0.019402768 -0.025309501 0.15916449
-0.019027157 -0.024499906 0.15928745
-0.02023142 -0.023615148 0.15952855
-0.022682879 -0.022008654 0.1590364
-0.021520577 -0.022443013 0.15995789
-0.025353553 -0.018788939 0.1594826
-0.027505774 -0.015311112 0.15989515
-0.028503597 -0.012534233 0.1599946
0.030131273 -0.012661514 0.15906811
0.030162437 -0.0088327909 0.15942124
-0.029378254 -0.0074438988 0.15963775
-0.029481916 -0.0043135588 0.15968567
0.030969143 -0.0048233639 0.15907237
-0.030342288 -0.0012255888 0.15947223
-0.03072519 0.00082201528 0.15913731
-0.029150281 0.0011672918 0.15947008
-0.030476384 0.0044859704 0.15913758
-0.029939137 0.0044314205 0.1592769
0.031024341 0.0076090377 0.1592443
-0.029976368 0.0083579868 0.15983576
-0.028745104 0.0094382083 0.15961078
-0.029728739 0.015912984 0.15937814
0.029191967 0.016030759 0.15939337
-0.026667032 0.027570171 0.15942243
0.0090371752 0.028985303 0.15980843
-0.015797116 0.029123882 0.15978873
-0.0077315951 0.029634953 0.15940237
-0.0043135528 0.029481916 0.15968567
0.0011124499 0.02901705 0.15935981
0.0044495091 0.029983681 0.15931383
0.0086350199 0.029892785 0.1596007
0.012377012 0.02987566 0.1591852
-0.0016963175 0.030113073 0.15961707
0.00063889159 0.030264566 0.15946844
0.004650095 0.030117836 0.15916818
-0.0088865189 -0.028873183 0.16059077
0.012745323 -0.028699288 0.16021502
0.026051387 -0.026027597 0.16081753
0.029535757 -0.026347453 0.16084212
0.029000403 -0.021955209 0.16086096
0.031441681 8.209981e-05 0.16007674
0.031094048 0.0038402886 0.16000509
-0.029380918 0.012611469 0.16034248
0.030034889 0.013609714 0.16003931
0.030550966 0.017294651 0.16076648
-0.027856495 0.025644124 0.16082957
-0.026560711 0.025996866 0.16050875
0.026025005 0.026500635 0.16058633
0.025681419 0.027871527 0.16085994
-0.025539329 0.028079418 0.16094065
-0.01297107 0.02955009 0.16020605
-0.0015043002 0.029557316 0.16090554
0.012289758 0.029578995 0.16001442
0.0011720071 -0.030157072 0.16174155
0.016769296 -0.029339256 0.16141385
-0.011447274 -0.028603239 0.16192958
-0.0025889296 -0.028699461 0.16188091
0.0015038177 -0.028611735 0.16160703
0.021126594 -0.028825359 0.16126895
0.025363464 -0.028331155 0.16126508
0.021327807 -0.027455484 0.1619994
-0.021157555 -0.022442082 0.161993
0.029636251 -0.018772269 0.16162539
0.029724933 -0.01138349 0.1619302
0.031321805 -0.01025306 0.16161019
0.030504582 -0.0029822113 0.16198015
-0.030073985 -0.0014126394 0.16160333
0.030868534 0.001064769 0.16173565
0.03242423 0.013340125 0.16132128
0.032940388 0.016644033 0.1615448
-0.028013384 0.017572768 0.16148743
-0.027917909 0.021268981 0.16174805
0.029565692 0.021592954 0.16123879
0.028300656 0.025630683 0.16112584
0.014266716 0.028526763 0.16167486
0.021277728 0.028151637 0.16164103
-0.021648485 0.029698078 0.16134983
0.0025193486 0.029008795 0.16190982
-0.01716524 0.03043502 0.16153246
0.013866671 0.030579995 0.16184509
0.017373223 0.030039413 0.16193807
-0.015986491 0.03246602 0.16121477
-0.013751868 -0.030033197 0.16253349
-0.0060080756 -0.030534055 0.16299373
-0.0029951083 -0.030252606 0.16269499
0.012743593 -0.030473454 0.16248018
-0.015592027 -0.029288949 0.16265023
0.0086064357 -0.029837558 0.16274506
0.0035245572 -0.028627485 0.16294327
0.018413663 -0.028542962 0.16299403
-0.014991061 -0.027864989 0.16222081
0.026277965 -0.027955823 0.16296902
0.029022472 -0.025686756 0.16271457
-0.021728495 -0.024688987 0.16221625
-0.023882911 -0.022155609 0.162184
0.030974906 -0.022039587 0.1623567
-0.021638844 -0.021301258 0.16291574
-0.023557074 -0.01948075 0.16225275
0.031623427 -0.018018387 0.16233981
-0.029434644 -0.014456479 0.16214266
0.031530295 -0.013880056 0.16229671
-0.030673098 -0.01210888 0.16247001
-0.028683033 -0.012795865 0.16217139
-0.030094538 -0.0087789409 0.16235334
0.030945502 -0.0062070694 0.16242343
-0.031064425 -0.004783141 0.16256884
0.032738633 -0.0032038128 0.16242957
-0.029242964 -0.0029089702 0.16286936
0.030922566 -0.0028125755 0.16247728
0.032506175 -0.0012225575 0.16214716
-0.02932049 0.0027804105 0.16200516
0.032726273 0.002091893 0.16214263
-0.029978879 0.0030546421 0.1627593
0.031274199 0.0074356692 0.16259027
0.031957537 0.0090596406 0.16265851
-0.03108027 0.010608817 0.16217941
-0.028327731 0.010831051 0.16205317
0.031481013 0.011410482 0.16254005
-0.030459968 0.013581177 0.16230935
0.031538427 0.013239098 0.16215274
-0.028131884 0.014470274 0.16220784
-0.02980978 0.017453004 0.16203663
0.029509079 0.018216737 0.16235059
-0.029011529 0.021221444 0.16254747
0.028706718 0.02165354 0.16228119
-0.025450349 0.027944759 0.16265497
-0.021635972 0.028690323 0.16226304
0.011267022 0.028837752 0.16220775
0.018246572 0.028696395 0.16222429
0.025197573 0.028228886 0.16245472
-0.018608436 0.029256679 0.16212606
-0.0012180796 0.029892858 0.1621266
0.0030616373 0.029995555 0.16277289
0.021204898 0.029440755 0.1623151
-0.012926878 0.030951522 0.16226053
-0.011410468 0.030808771 0.16202557
-0.00843897 0.030317442 0.16226578
0.010679419 0.031258564 0.16232666
-0.00048269704 -0.030025925 0.16366306
0.0038937628 -0.030117886 0.16336474
0.01278487 -0.030121105 0.1630387
-0.0044717039 -0.029473901 0.16368169
0.0072056535 -0.029073805 0.16379145
-0.0084917508 -0.028477192 0.16313303
0.011987223 -0.028485384 0.16377789
-0.011500885 -0.027588539 0.16307718
0.029566171 -0.027334057 0.16358867
-0.01728916 -0.026515411 0.16316271
-0.019327316 -0.024115007 0.1638236
0.029437661 -0.023216445 0.16365418
-0.026317878 -0.018090278 0.16338271
-0.025993906 -0.017408183 0.16312206
-0.028263206 -0.011747492 0.16352946
-0.029721318 -0.0072647627 0.16374916
0.031497259 -0.0058150212 0.16345599
-0.029583737 -0.0001801094 0.16337836
0.03083634 -2.1276996e-05 0.16331121
-0.030779019 0.0061070286 0.16319549
0.031631574 0.0068185735 0.1637125
-0.029209666 0.012456657 0.16390014
-0.02816996 0.025133444 0.1633091
0.027811894 0.0263185 0.1633147
-0.026962163 0.027196011 0.16392916
0.027147803 0.027063038 0.16359249
-0.025315914 0.028902072 0.16396368
-0.0065881391 0.029677751 0.16371065
-0.0030644224 0.029159881 0.16307834
0.012460921 0.029097525 0.16381508
-0.0038971261 0.030401282 0.16358113
0.000475181 0.030392136 0.16394243
0.0060530202 0.030645335 0.16308558
-0.0082156854 -0.03078169 0.16483516
0.023096263 -0.029522922 0.16432941
0.015053294 -0.028390519 0.16443199
0.027736297 -0.026935151 0.16434613
-0.019473702 -0.025400553 0.16494802
0.030865084 -0.022620324 0.1643143
0.03026711 -0.016592914 0.16450799
-0.02768939 -0.015481428 0.16458479
0.030293636 -0.012413584 0.16472313
0.031067185 -0.0087160924 0.16401559
-0.031051653 3.4446857e-05 0.16403913
0.031156117 0.0035839016 0.16418928
-0.030765193 0.0046120179 0.164444
-0.030815203 0.0082291672 0.16486266
-0.029913221 0.0084440168 0.1642251
0.032059245 0.012958791 0.1649662
0.029849518 0.013023291 0.16434562
0.031650901 0.018281959 0.16470009
-0.028045932 0.023149557 0.1647405
-0.027322348 0.023922611 0.1649535
0.029301375 0.025480423 0.16429564
0.023991555 0.027481914 0.16467619
0.023249922 0.028149029 0.16485095
-0.01257458 0.029232299 0.16413271
0.0084506273 0.029710243 0.16407076
-0.022051454 0.030434918 0.16473842
0.0044500856 0.030274782 0.16429144
0.0082223536 0.030798448 0.16484892
-0.012959418 0.031842828 0.16480142
0.0055649597 -0.030691624 0.16592145
0.0095353043 -0.030538253 0.16559625
0.012844298 -0.03063895 0.16549873
0.024742119 -0.03005854 0.16512462
0.012524448 -0.029640011 0.16549566
0.0170242 -0.029563917 0.16592473
0.020312965 -0.029543277 0.16549215
-0.015972303 -0.028118528 0.16539705
-0.0026699854 -0.028297832 0.16577032
-0.016135436 -0.027896497 0.16578472
0.023559341 -0.027962146 0.1652621
-0.013754012 -0.026080165 0.16528541
0.030040203 -0.024830708 0.16572177
-0.022803828 -0.022183426 0.16525209
-0.025273781 -0.019365102 0.16566028
-0.022621235 -0.018650524 0.16514027
0.032600582 -0.01827747 0.16585425
0.030340318 -0.01311094 0.16559857
-0.029445251 -0.012014993 0.16541466
-0.031068513 -0.0088613098 0.16557533
0.031635202 -0.0080145523 0.16557926
-0.031422362 -0.0040672095 0.16508666
0.031791005 -0.0043793782 0.16558129
0.031859536 -0.00016673302 0.16545844
-0.03092725 0.0012941001 0.16584885
0.032077331 0.0043694526 0.16503501
0.032164592 0.0089949947 0.16525415
-0.028758369 0.0098279612 0.16599393
-0.03010528 0.012400879 0.16596287
-0.028917637 0.017032739 0.1659171
0.032811336 0.017404033 0.16507736
-0.028426573 0.020336853 0.16574419
0.030773968 0.022194019 0.16502091
0.029104441 0.023755871 0.16510996
-0.023669031 0.029021924 0.16501784
0.016739227 0.029219672 0.16528875
0.025369136 0.029042 0.16582793
-0.0089066699 0.030404335 0.16562885
0.012418405 0.030150054 0.16599926
0.022332663 0.03031357 0.16566524
-0.0091183828 0.03144525 0.16557294
-0.0016861074 -0.030858016 0.16634613
-0.00039571204 -0.030572841 0.16614467
0.0015242537 -0.030189117 0.16664571
-0.010015269 -0.028570922 0.1663909
0.017542077 -0.028225137 0.16641259
0.020462565 -0.028029405 0.16694114
-0.018318787 -0.025910862 0.16677776
0.029756501 -0.024674961 0.16609025
-0.021442331 -0.023220981 0.16630107
-0.027228301 -0.017286859 0.16626209
-0.028550761 -0.013466091 0.16682205
0.031442754 -0.0120305 0.16658503
0.030501515 -0.010342971 0.16684639
-0.030078292 -0.0084578395 0.16666174
0.031473503 -0.0080038384 0.16676974
-0.02984176 -0.001824311 0.16667825
-0.030304156 0.001915168 0.16666004
0.031548306 0.0012719184 0.16627383
-0.031108005 0.0030322433 0.16668954
0.031426322 0.0084458115 0.1660271
0.031563155 0.012456211 0.16664338
0.029514559 0.017480429 0.16652864
-0.029544426 0.020888666 0.16692945
-0.020883765 0.028954759 0.16631544
0.019996688 0.028720926 0.16600072
0.025835017 0.028926091 0.16674453
-0.0017961841 0.029908687 0.16673219
0.010198181 0.029126706 0.16638803
0.016690237 0.029883021 0.1668418
-0.012745106 0.030610245 0.16608563
0.00039569818 0.030572994 0.16614476
0.0025300197 0.030335424 0.16673571
-0.0055685192 0.03105242 0.16619512
0.026477858 -0.029325385 0.16767739
0.002862412 -0.0285876 0.16791528
0.025812725 -0.027193531 0.16743314
0.029374164 -0.026929606 0.16708207
-0.019600075 -0.023889327 0.16767311
0.030626573 -0.023309927 0.16750646
-0.02774458 -0.01412913 0.16773641
-0.029355016 -0.0060387976 0.16739291
0.030776596 0.0023162933 0.16751853
0.031582076 0.0055067893 0.16703272
-0.029571533 0.0089658462 0.16767311
-0.029262185 0.012294032 0.16761443
0.029737769 0.01421318 0.16708452
-0.029643651 0.016990716 0.16704148
0.031421244 0.022528034 0.16739896
-0.02789082 0.025189748 0.16726154
0.027883394 0.025784615 0.16765028
0.028857158 0.026236987 0.16765547
-0.025251999 0.027816173 0.16710919
0.025405709 0.027266329 0.16784099
-0.0061766398 0.029662726 0.16764724
0.0089731794 0.029354913 0.1675097
0.012293497 0.02927828 0.16762656
-0.0032008998 -0.030794896 0.16887683
0.012952841 -0.030174647 0.16880506
0.01876371 -0.030128654 0.16858402
0.02223045 -0.030121386 0.16843098
-0.0052777063 -0.029100947 0.1684998
-0.0082530379 -0.02878654 0.16887751
-0.0013902504 -0.028721105 0.1685282
0.0060781818 -0.028498655 0.16816413
0.01074825 -0.028606912 0.16891271
-0.012249007 -0.027706146 0.1688872
-0.021900987 -0.020859167 0.16884735
0.031663232 -0.019750744 0.16885698
0.032095861 -0.015115184 0.1680814
-0.028358011 -0.010788846 0.16872549
-0.02929911 -0.0029925066 0.16822726
0.030509446 -0.00083386526 0.16817695
-0.029584058 0.0010367502 0.1683079
0.029679377 0.010939253 0.16863346
0.031775862 0.01526921 0.16816607
0.032471456 0.018349847 0.16870224
-0.028553436 0.022214539 0.16871709
0.029696584 0.022994947 0.16871977
-0.028769782 0.025594017 0.16834629
-0.025752731 0.028780917 0.168089
-0.010913869 0.02885934 0.16892099
0.022360498 0.02877502 0.16856426
-0.00278039 0.029350914 0.16818023
0.0010018665 0.029159948 0.1684522
0.018594962 0.029663734 0.16849807
-0.01517297 0.030602239 0.16866434
0.021352395 0.030004814 0.16877231
-0.022269737 0.031099059 0.16869384
0.004360761 -0.030291336 0.16934612
0.008989634 -0.030679259 0.16939372
-0.0069861491 -0.029994823 0.16938165
-0.0034440858 -0.02958354 0.16959125
-0.00027389984 -0.029908776 0.16930306
-0.012131704 -0.028659172 0.16970208
0.0082565267 -0.028913964 0.16980883
0.023528133 -0.028445937 0.16954151
-0.015283631 -0.027997185 0.16933745
-0.018398076 -0.025512414 0.16988194
0.028870884 -0.025137544 0.16928425
-0.022176865 -0.022956915 0.16923863
0.03186962 -0.022093859 0.16939053
-0.024592008 -0.019915415 0.16913977
0.032206941 -0.017973665 0.16912958
-0.026637565 -0.016477585 0.16978082
-0.029334733 -0.012320437 0.16912258
0.03074877 -0.012954138 0.16963425
-0.030625718 -0.00898943 0.16935343
-0.029355755 -0.0077588083 0.16986802
-0.030317903 -0.0045357244 0.16919068
0.031670205 -0.0033879848 0.169301
-0.029888902 2.8207526e-06 0.16945663
0.031780791 0.00060748775 0.16912985
-0.030448884 0.0033438988 0.16907284
-0.030043704 0.0042408835 0.16961351
-0.030213621 0.0070737829 0.16955915
-0.028939657 0.01181394 0.16904977
0.030976675 0.011097623 0.16977599
0.031948533 0.012564014 0.16990083
-0.029477285 0.015379052 0.16966921
0.032538466 0.017309198 0.1694454
0.029575985 0.019838139 0.16980189
-0.029067963 0.021233259 0.16918671
-0.028293271 0.024592761 0.16979855
0.0272347 0.027075075 0.1696822
0.025107179 0.028791063 0.1692192
-0.023457248 0.029511223 0.16923597
1.560407e-06 0.029951487 0.16950381
0.006922212 0.029835502 0.16925278
0.012087145 0.029212456 0.16933993
-0.004535248 0.030269675 0.16915438
0.003123532 0.030417122 0.16946548
0.0042414111 0.030022196 0.16959757
-0.012776843 0.031800475 0.16981083
-0.0089905979 0.031070454 0.16968846
0.025067464 -0.03041522 0.17092326
-0.011637112 -0.029181058 0.17039931
0.016079757 -0.029138241 0.1705659
0.012194181 -0.028847512 0.17017132
0.013314603 -0.028636275 0.17059058
0.016229957 -0.028325379 0.17068022
0.028595556 -0.028130513 0.17017916
-0.015865125 -0.027304504 0.17055556
-0.018832743 -0.024545211 0.17021492
0.03057239 -0.024117479 0.17047799
-0.021692699 -0.022272052 0.17015409
-0.024940329 -0.018980058 0.17037413
-0.027129985 -0.015777433 0.17026505
-0.028539129 -0.012263421 0.17013308
0.031036479 -0.012144036 0.17077649
0.031105399 -0.0081767291 0.17061937
0.030899802 -0.0073496578 0.17011553
0.031206353 -0.0042106244 0.17048702
-0.029787749 -0.0018363595 0.17085725
0.031224284 0.00041182901 0.17025694
0.030814186 0.0010475069 0.17090935
0.030965349 0.004132174 0.17015186
0.031794343 0.0050384928 0.17044181
-0.029890845 0.0080056693 0.17022002
0.030904088 0.0080670342 0.17059326
0.032110538 0.008823473 0.17025253
-0.029511472 0.011579568 0.17043701
-0.029618535 0.012160044 0.17062643
0.029785566 0.013740764 0.17090589
-0.029616248 0.016123144 0.17038304
0.029710477 0.016919134 0.17085624
0.032722577 0.020330487 0.17053479
0.031967878 0.022850573 0.17060044
0.030377686 0.025504265 0.17039701
-0.026505157 0.02698385 0.17012078
-0.027727943 0.027876273 0.17004913
0.025720958 0.027476368 0.17085084
-0.016323641 0.028985497 0.17099842
0.027745223 0.028281519 0.17004257
-0.007942291 0.029769041 0.17020768
-0.0049092625 0.029803749 0.17019373
-0.0017509321 0.029969629 0.17070273
0.0080062905 0.02987005 0.17020446
0.011681672 0.029297309 0.17049253
0.012155248 0.029738905 0.17071682
0.015536737 0.029649144 0.17003092
-0.011754955 0.030176293 0.17057562
0.0019526798 -0.029421028 0.17196321
-0.028264804 -0.012972081 0.1711258
0.030531729 -0.01075214 0.1710127
-0.029790984 -0.0049442197 0.17110816
0.032382898 0.014289815 0.17130923
-0.029430339 0.017800188 0.17184556
-0.027045233 0.02452502 0.17170888
0.029703137 0.025140777 0.17116454
-0.025276814 0.029356992 0.17148679
-0.01316599 0.029082492 0.17107603
0.017894944 0.029526545 0.17194727
-0.02392499 0.031073758 0.17112193
-0.015633281 0.032045808 0.17189544
-0.00077572744 -0.029736228 0.17245561
0.018220011 -0.029744575 0.17268139
-0.012753774 -0.027322156 0.17259973
0.029393397 -0.026054498 0.17200369
-0.022197029 -0.020248143 0.17251006
0.031424969 -0.018683277 0.17297244
0.031048112 -0.013782406 0.17238253
-0.028288888 -0.010247513 0.17254636
0.030597793 -0.0011526207 0.17206296
-0.029934639 0.0006992165 0.17230988
0.032153506 0.010369294 0.17225397
0.031508721 0.013758715 0.17278233
-0.026325494 0.027718496 0.17255104
-0.023945531 0.028679878 0.17260391
0.021395449 0.02879921 0.17299068
0.0011269934 0.029551206 0.17279071
0.016906083 0.029585747 0.17267442
-0.014419275 0.030690135 0.17279553
-0.021138323 0.031045573 0.17224234
-0.014316347 0.032265849 0.17212996
0.0012907935 -0.030575231 0.17375404
0.013114667 -0.029532092 0.17378938
0.015053427 -0.029839359 0.17355114
0.021318639 -0.029636737 0.17308787
-0.01092016 -0.028694244 0.17320797
0.009943353 -0.028854312 0.1736303
0.018769844 -0.028317841 0.17310435
0.021601647 -0.028332759 0.17360538
0.026620567 -0.028755452 0.17372686
0.026143342 -0.027219465 0.17395967
-0.021827664 -0.02323818 0.17343733
0.030542934 -0.020786868 0.17367652
0.03120636 -0.017362088 0.1736955
-0.02836173 -0.013261829 0.17327574
0.031800218 0.0011799941 0.17369679
-0.030154096 0.0024249684 0.17380056
0.030934284 0.0097902976 0.17307794
-0.029254677 0.010662895 0.1737276
-0.029455412 0.013794767 0.17313287
-0.029667132 0.016950309 0.17303658
0.031633016 0.017185269 0.17352697
0.029789597 0.019037623 0.17377183
-0.029550351 0.020940984 0.17378175
-0.02857253 0.021391863 0.17310274
0.027451893 0.026349446 0.17381281
-0.026089557 0.027644228 0.173962
0.027564496 0.027546238 0.17309624
-0.01894911 0.028963473 0.17310634
-0.0096231773 0.028559482 0.17330766
0.0023388918 0.029936424 0.17392462
0.010566644 0.029159166 0.1736272
-0.018179554 0.031064011 0.17313102
-0.0026081381 -0.030296985 0.17450395
0.023665477 -0.030160595 0.17402512
-0.0065074735 -0.029299408 0.17422885
0.00043504953 -0.029363804 0.1746152
0.0052003274 -0.029629419 0.17428055
0.0091585461 -0.029801233 0.17419842
-0.014888018 -0.028087538 0.1741071
-0.0041729026 -0.0289558 0.17463857
0.0074002407 -0.028742038 0.1749585
0.010791104 -0.028824763 0.17499837
-0.018460277 -0.025410689 0.17424136
-0.018666958 -0.024148207 0.17484739
0.028681926 -0.024814211 0.17450067
0.029865842 -0.022658862 0.17446581
-0.021470999 -0.021929463 0.17496312
-0.023973307 -0.019843359 0.1741544
-0.025942475 -0.016381815 0.17473117
0.030613121 -0.010977148 0.17417717
-0.029881801 -0.0091593927 0.17425826
-0.029185489 -0.007726233 0.17498451
0.030774299 -0.0071338448 0.17451367
-0.02989912 -0.0050304374 0.17426288
-0.0297767 -0.0035221823 0.17477566
0.03125646 -0.0030320585 0.17437467
-0.030156834 -0.0015814183 0.17444795
-0.029567907 -0.00058108178 0.17447937
0.030962093 -0.0006058155 0.17485252
0.030402031 0.0039334856 0.17495129
-0.029684033 0.0040361225 0.1748096
-0.029733524 0.0066819228 0.17457554
-0.029534135 0.0080017801 0.174907
-0.029621705 0.0099932235 0.17439541
0.031879324 0.019425053 0.1742397
0.029329659 0.021702973 0.17422372
0.031229516 0.022695608 0.17455769
-0.028390532 0.024706397 0.17426723
0.029325802 0.025979361 0.17420739
0.0097755082 0.028915744 0.17469922
0.024795219 0.028631672 0.17446074
-0.025046661 0.029190116 0.17411307
-0.021586062 0.029219192 0.17410311
-0.015854463 0.029038362 0.17480591
-0.0074152593 0.029626297 0.17461768
-0.005078143 0.029371211 0.17445928
-0.0035160235 0.029763654 0.17476493
-0.00074080157 0.029405901 0.17463064
0.0040385788 0.029592481 0.17474204
0.0065176734 0.029324269 0.1742487
0.0080047632 0.029442787 0.17483941
0.021050189 0.029841058 0.17401564
-0.02267839 0.030746525 0.17443395
-0.0087745748 0.030083299 0.17416918
-0.0016383417 0.03005914 0.17407107
0.0037329053 -0.02955078 0.1754604
-0.011659639 -0.028007679 0.17558649
-0.010761246 -0.028877556 0.17516434
-0.0079908464 -0.028711388 0.17520496
0.012030888 -0.028545834 0.17575088
0.015340628 -0.028030431 0.17534867
0.02448223 -0.028360235 0.17504799
0.027933165 -0.027004313 0.17526245
-0.015819872 -0.026704621 0.17534363
0.030644955 -0.022011641 0.17578787
-0.021708537 -0.021603081 0.17553198
-0.024295487 -0.018611135 0.17529568
-0.026670856 -0.015362605 0.17504686
0.031023782 -0.014343956 0.17575499
-0.028229291 -0.012331233 0.1750313
0.030811839 -0.012089144 0.17584673
-0.02831535 -0.011641737 0.17552358
0.030625667 -0.0076006828 0.17543837
0.030446956 -0.0040165717 0.17537552
0.030715259 -6.6190958e-05 0.17568806
-0.030303407 0.00019091461 0.17596096
0.030962195 0.0014713639 0.17598838
0.031601634 0.0052208174 0.17574635
0.030222746 0.0074672112 0.1756582
0.031687669 0.0091654984 0.17560169
-0.029470172 0.011967027 0.17506877
0.02978977 0.012189863 0.17548209
0.031811357 0.013107835 0.17548484
-0.027486406 0.023527782 0.17564413
0.029138608 0.024350585 0.17542642
-0.027701635 0.026537312 0.17511129
0.02257772 0.027999507 0.1753062
0.026947107 0.027623694 0.17524365
-0.02475379 0.028834315 0.17567793
-0.012328845 0.028992789 0.17555684
0.023598365 0.028220894 0.17586526
0.011963458 0.029561471 0.1751366
-0.010507074 0.030893786 0.17584783
-0.019888774 0.031145148 0.17563429
-0.013107722 0.03175766 0.17544472
-0.00014365558 -0.030318944 0.17627588
0.013711484 -0.029291328 0.17669851
-0.012661256 -0.028192185 0.1761483
-0.015566259 -0.027674243 0.17662218
-0.014256976 -0.02748438 0.17651096
-0.017855795 -0.025758032 0.17652172
-0.020144012 -0.022944253 0.17689091
-0.02395069 -0.019732606 0.17640319
-0.027852969 -0.012254497 0.17692685
0.030210489 -0.011827664 0.17661133
0.030934403 -0.009235817 0.17692327
-0.030325362 -0.0065857209 0.17654139
0.030163303 -0.0067889984 0.17671466
0.029728008 0.0091185737 0.17645681
0.030026309 0.0095409602 0.17600879
-0.029567128 0.012107658 0.17667833
-0.02955268 0.016583165 0.17629716
-0.0090082781 0.029792005 0.17692727
0.012465339 0.029033368 0.17629763
0.016567975 0.029537305 0.17628142
-0.01689015 0.030628372 0.17636135
-1.4043413e-05 0.030049901 0.17621043
0.014537535 -0.029495256 0.17731944
0.017806685 -0.029284429 0.17743284
0.020588525 -0.028259229 0.17781469
0.022626752 -0.028620929 0.17773935
0.017608739 -0.027674675 0.17707422
0.023595423 -0.027323484 0.1776354
0.025957868 -0.027208289 0.17772245
0.024834046 -0.026638817 0.17796555
0.029416125 -0.016447268 0.17762336
0.030865598 -0.016965125 0.17715466
0.030626995 -0.010525387 0.1776709
-0.029565249 -0.004006065 0.1779294
-0.029177187 0.0070357737 0.17795599
0.030520778 0.013342524 0.1772553
0.029799247 0.01491042 0.17749643
-0.029557168 0.016501274 0.17773378
0.029155629 0.01801298 0.17774272
-0.028588304 0.019798685 0.1771864
-0.027447809 0.024518121 0.17764571
0.026652806 0.02487188 0.17799547
-0.018035535 0.028939441 0.17785791
0.016277498 0.028975211 0.17727104
0.019730682 0.028519319 0.17711478
-0.01330557 0.030436212 0.17718574
0.0022226423 -0.029487718 0.17872974
-0.0096663591 -0.028510235 0.17876822
0.020933157 -0.026714986 0.17802113
0.027179565 -0.024600407 0.17864479
-0.020907896 -0.023362556 0.17867237
0.028516911 -0.023599606 0.17880651
0.028644565 -0.021207042 0.17845941
0.029598149 -0.021703908 0.17829424
0.028650286 -0.019869385 0.17885533
0.030347649 -0.019215528 0.17816964
-0.02587075 -0.015053457 0.17800081
-0.027503524 -0.013479356 0.17885518
0.029643789 -0.012769427 0.1787287
-0.029571004 -0.0066127512 0.17862836
0.030210512 0.0017692205 0.17869428
-0.02980762 0.0078426944 0.17873636
0.030470846 0.018312193 0.17839161
-0.028850578 0.02004936 0.17818791
0.027624516 0.020716233 0.17865297
-0.027833885 0.021494037 0.17858541
0.027301475 0.022894774 0.17872331
0.029798664 0.022281583 0.17885223
-0.027403528 0.024939226 0.17842737
0.027365953 0.026221529 0.17806
-0.02534264 0.027529083 0.17824358
0.021460056 0.027799372 0.17854977
0.024203245 0.027236983 0.17875573
0.0098458901 0.028689072 0.17895451
0.020327782 0.028559066 0.17834488
-0.0022683498 0.029378189 0.17864245
-0.01841411 0.030273182 0.17850128
-0.0018779039 -0.029045112 0.17978945
-0.0058409325 -0.028217131 0.17964515
0.0053992947 -0.028061423 0.17946821
0.0093538174 -0.028352635 0.17947215
0.01319265 -0.02816953 0.17938069
-0.0037103142 -0.027641518 0.17989072
0.00091902859 -0.027805567 0.17969966
0.01291814 -0.027445249 0.17996484
0.016417995 -0.026217971 0.17954323
0.022723401 -0.025697321 0.17987075
0.025829248 -0.024847616 0.17913616
-0.028781686 -0.01243505 0.17992315
0.030092955 -0.011125891 0.1791209
0.028753076 -0.009695108 0.17910329
0.029769506 -0.0073798606 0.17928779
0.029304706 -0.0063115139 0.17961136
0.029805765 -0.0037883674 0.17925313
-0.029916104 -0.0020433078 0.17906922
0.029643049 -0.0020222422 0.17940724
0.029484835 0.001027993 0.17947754
-0.029810293 0.0022152551 0.17972276
0.0294246 0.0053823856 0.17956433
-0.029054556 0.0092627844 0.17920771
0.029593501 0.0094722603 0.1798335
-0.02913337 0.01218126 0.17996198
0.028614115 0.013863042 0.17994788
-0.026591761 0.025028208 0.17978927
0.024891727 0.025876537 0.17918363
-0.022963408 0.027784552 0.17922586
-0.0055252458 0.027863042 0.1795629
-0.00065561733 0.027752535 0.17967495
-0.013738724 0.02849856 0.17982319
-0.0085591367 0.028605018 0.17951775
0.0019659055 0.028881639 0.17934847
0.0056545851 0.028067647 0.17940387
0.023047581 0.028356589 0.17911687
0.015733084 0.030162899 0.17941678
-0.00061374158 -0.029236529 0.18034384
-0.01152131 -0.028513093 0.1802021
0.0032321112 -0.028122358 0.1804561
-0.014474604 -0.027710875 0.18055412
-0.007769194 -0.027434094 0.18061367
0.0072729597 -0.027235487 0.18011427
0.010538276 -0.027168605 0.1802617
0.022664744 -0.027032489 0.1805926
-0.011670157 -0.026817137 0.18034185
-0.0096014356 -0.026997413 0.18026501
0.024498049 -0.026334543 0.18053058
-0.017395459 -0.025058726 0.18090245
0.010734994 -0.025473598 0.18079838
0.013825376 -0.025230665 0.18056256
0.019367272 -0.024770668 0.18046248
-0.018961366 -0.023185158 0.18066493
-0.021630861 -0.022458637 0.18097824
-0.021268567 -0.021011135 0.18054092
-0.020247761 -0.021643076 0.18045852
-0.023690568 -0.019942001 0.18032461
-0.025191329 -0.016433394 0.18080673
0.026669471 -0.015164713 0.18080071
-0.026558109 -0.013700558 0.18053541
-0.0271051 -0.012108725 0.18089521
-0.027806057 -0.011397158 0.18066472
0.027570095 -0.01187176 0.18057084
0.028140195 -0.010801435 0.18032813
-0.029696498 -0.0093588848 0.18045551
0.028093509 -0.0079025803 0.18090349
-0.029447641 -0.0055405726 0.18072274
-0.029121732 -0.0037849313 0.18062112
-0.028991716 -0.0010889741 0.18050751
-0.028611712 -0.00057202455 0.18002632
0.029089108 -0.00068131648 0.18022624
-0.029295418 0.00058662612 0.18039098
-0.030148227 0.0028247004 0.18022162
-0.028817756 0.0024930157 0.18044141
0.028719604 0.0034606298 0.18001997
-0.028889725 0.0059502972 0.18066612
0.027467228 0.0065527535 0.18076825
0.028708722 0.0084671285 0.1802673
0.027521711 0.01069072 0.18033034
0.030196104 0.013410554 0.180363
-0.029515896 0.014362035 0.18067878
0.026970275 0.016236987 0.1808562
0.028780853 0.018435139 0.1808328
-0.029011345 0.021855503 0.18005753
0.025291879 0.022330664 0.18008062
-0.02800991 0.023985069 0.18028036
0.0089949258 0.026473565 0.18089849
0.020814776 0.026548915 0.18082348
-0.010833261 0.027654227 0.18047142
0.0071087731 0.027923843 0.18077543
0.010857628 0.027431486 0.18033186
0.011753988 0.027825136 0.18020743
0.014750889 0.027989266 0.18084279
-0.0081453826 0.028866213 0.18050316
-0.0035776426 0.028663006 0.18025401
0.00075586792 0.028927494 0.18009594
0.0038142321 0.028657692 0.18039484
0.0077758878 0.028387427 0.18040758
0.011693257 0.028684702 0.1803799
-0.0099247545 0.029601829 0.18048564
-0.013296725 0.030635169 0.18093628
-0.014951677 -0.026520317 0.18128902
0.016744733 -0.026268773 0.1811417
-0.017626304 -0.02461841 0.18116635
0.020233128 -0.024676293 0.18132997
0.015699456 -0.023559868 0.1819666
0.024080832 -0.023002341 0.18134743
0.025108507 -0.023061657 0.18138248
0.016774381 -0.022110133 0.18135247
0.024468562 -0.022589678 0.1815784
0.019923173 -0.021278197 0.18155372
0.022426827 -0.02114957 0.18197274
0.014294473 -0.020749563 0.18187144
0.027800966 -0.020210098 0.18109167
0.01859377 -0.019241218 0.18153876
-0.023849186 -0.018314037 0.18100107
0.025488127 -0.018930702 0.1812672
0.012370817 -0.017760538 0.1818648
0.021622689 -0.017313112 0.18181494
-0.026055539 -0.015474904 0.18110865
0.028264431 -0.015024187 0.18112877
0.0085520726 -0.01379828 0.18198976
0.023455875 -0.013776406 0.18185177
0.025032904 -0.0094365766 0.18145785
-0.02872801 -0.0079360744 0.181308
0.026738461 -0.0051466487 0.18116418
0.021306081 -0.0038111182 0.18186489
0.027390361 -0.0037755338 0.18127564
0.00098530611 0.00035713115 0.18189487
0.020902021 0.00053318898 0.18196243
0.027217679 0.00040872674 0.1812287
-0.029544098 0.004054612 0.18105662
0.026947925 0.0054802014 0.18136466
-0.029427562 0.0077324919 0.18141347
0.018700149 0.0083967522 0.18193465
0.027050667 0.0087761478 0.18126428
-0.028556023 0.010928449 0.18154636
0.025006186 0.01058406 0.18179458
-0.029502716 0.011517958 0.18103501
-0.02863133 0.011962544 0.18135107
0.027591093 0.012070057 0.18148291
0.028044563 0.012656654 0.18105388
0.02492368 0.0135391 0.18181419
-0.028569467 0.015326933 0.18144128
0.0037096804 0.015796065 0.18198395
0.012017557 0.018028691 0.18183053
0.021303583 0.019991677 0.18160659
0.024816323 0.019242212 0.18155697
-0.028154833 0.020714939 0.18181217
-0.02725023 0.020106887 0.18121743
0.0044192942 0.021097187 0.18197998
0.027239975 0.021580555 0.18177077
0.025667315 0.022159504 0.18141153
0.022528835 0.024303477 0.18144962
0.023341514 0.024664998 0.18168432
0.025876099 0.024583139 0.18142885
-0.024836119 0.025744706 0.18177027
-0.022779841 0.025942216 0.18154109
0.018103112 0.025963586 0.18197843
0.019041602 0.025780564 0.18149623
0.015040125 0.026750829 0.18147096
-0.0063453713 0.027425883 0.1818969
-0.018380588 0.028574897 0.18157569
-0.012632868 0.028312717 0.18186027
-0.00050444994 -0.026149472 0.18288445
0.0090218652 -0.025070192 0.18246007
-0.0043538795 -0.024685824 0.18299001
0.00063730084 -0.024720822 0.18259096
0.0053247325 -0.024267349 0.18214217
0.006050407 -0.024276847 0.1829685
0.0095127514 -0.024538789 0.18211573
-0.015369523 -0.023929674 0.18268377
-0.0090221968 -0.023464726 0.18288794
0.0092310831 -0.02252068 0.18202886
0.011743912 -0.022607386 0.1828509
-0.020457746 -0.021597665 0.18297619
0.00029814988 -0.02109657 0.18284047
0.0048011784 -0.021373017 0.18243653
0.0095894653 -0.02165447 0.18274608
0.014511371 -0.020137599 0.18262503
-0.019914988 -0.019294804 0.18224627
0.0085929809 -0.019339357 0.18214482
0.018096931 -0.019439682 0.18202722
0.002933492 -0.018457392 0.18280888
0.0049753971 -0.018240504 0.18235731
0.018333308 -0.018916644 0.18275183
-0.021356758 -0.017944502 0.18239841
0.012771703 -0.017527353 0.18281901
0.025584778 -0.017867563 0.18232122
0.0060837888 -0.01660586 0.18254352
0.015982637 -0.016988503 0.18292993
0.018179016 -0.016884899 0.18245706
0.01953458 -0.016130034 0.18260574
0.0029003283 -0.015784258 0.18234807
0.0047469335 -0.015248843 0.18283534
0.016486749 -0.015507961 0.18288112
0.0067319395 -0.014900445 0.18254068
0.011679905 -0.014623101 0.18215862
0.014744731 -0.014820464 0.1822688
0.01161303 -0.013139844 0.18285537
0.016185757 -0.013891399 0.18267265
0.021309109 -0.01344434 0.18274075
0.010129805 -0.012591186 0.18251181
0.02128559 -0.012826704 0.18284541
-0.0044429116 -0.011643939 0.18293536
-0.00010696426 -0.011796999 0.18266356
0.00072175823 -0.011383247 0.18207967
0.004418374 -0.011135817 0.18280205
0.011681494 -0.011211469 0.18265697
0.01392606 -0.011603803 0.18240055
0.017774226 -0.01159275 0.18243246
0.024191789 -0.011344388 0.18252167
0.0043693972 -0.010308433 0.1823453
0.0054364279 -0.010634599 0.18248317
0.023934981 -0.010442326 0.1828534
0.00084392028 -0.0095956251 0.18280035
0.01292876 -0.0093395291 0.18269846
0.016583811 -0.0092344098 0.18235675
0.023357302 -0.009118 0.18243554
-0.0079976702 -0.0088168951 0.18250239
0.0037775785 -0.0085397447 0.1828348
0.0084304772 -0.0082143489 0.18241651
0.0084377043 -0.0074539077 0.1828897
0.014102414 -0.0074731838 0.18251938
0.01618731 -0.0073939124 0.18200445
0.019651057 -0.0075598536 0.18206772
0.024492757 -0.0076754866 0.18299773
0.0047505666 -0.0068959757 0.18269637
0.00042588371 -0.00574943 0.18288854
0.0023897015 -0.0054261745 0.18229514
0.014842291 -0.0057821474 0.1827738
-0.0036172906 -0.0042129196 0.1827395
0.010951197 -0.0047049616 0.18275598
0.025226114 -0.004098977 0.18210006
0.010923539 -0.0036866688 0.18217176
0.01583658 -0.0037087088 0.18201324
0.020934105 -0.0036885506 0.18293637
0.024444018 -0.0037077554 0.1827513
-0.0043539256 -0.002247252 0.18228078
-0.0015683577 -0.002189022 0.18256298
0.00043874714 -0.0026240689 0.18254009
0.0014615139 -0.002376569 0.18263146
-0.0021664894 -0.0013701936 0.18247157
0.0031785099 -0.0016317475 0.18247452
0.016275732 -0.0017511868 0.18238929
0.017297205 -0.0012034923 0.18200186
0.026680732 -0.0012284368 0.18251285
-0.0054877996 -0.00042031019 0.18270513
-0.0028369597 -0.00044198497 0.18268874
0.0029816458 -0.00023370968 0.18282622
0.0034318992 -0.00050363259 0.18294844
0.019245261 -0.00042610476 0.18203762
0.023397127 -2.9437244e-05 0.18276203
0.026162479 -0.00032325555 0.18231666
0.0001263528 0.00059059687 0.18262431
0.0035062407 0.00091022416 0.1828405
0.0056866407 0.0004258297 0.18284649
0.0093579981 0.00021296227 0.18285197
0.011444514 6.4321248e-05 0.1824583
0.016007526 0.0005110717 0.18230161
0.024562392 0.0005053819 0.18206877
-0.0022766676 0.0012045951 0.18253493
0.008398274 0.0010612248 0.18288295
0.012069581 0.001025171 0.18261051
0.020951781 0.0017523887 0.18242776
-0.0020047438 0.002333395 0.18288621
0.0030394492 0.0023363691 0.18269339
0.016259084 0.0027257726 0.18217596
0.025417751 0.0022147712 0.18288058
-0.00034288334 0.0032066645 0.18294102
0.00077851437 0.0037134034 0.18292388
0.0081721544 0.0037726553 0.18257588
0.011062503 0.0047360249 0.18227637
0.01593738 0.0044869594 0.18235764
0.020113248 0.0043198476 0.18243435
0.021153791 0.0044802926 0.18205374
0.010733288 0.0051610842 0.18259242
0.016686246 0.0057685124 0.1822575
0.024310645 0.0058968118 0.18247503
0.014126771 0.0060204612 0.1828976
0.017992156 0.006971525 0.18207261
-0.0082700085 0.007389497 0.18276286
0.016317312 0.0078152092 0.18244594
0.0076746433 0.008909218 0.18234536
0.013153915 0.0084383013 0.18295574
0.019483618 0.0096399784 0.18299913
0.022726132 0.0099265967 0.18248111
0.024384346 0.009540379 0.18290824
0.025051083 0.0094583714 0.18220329
-0.004599758 0.010623448 0.18255109
0.0036846008 0.010996853 0.18222395
0.012136851 0.010163045 0.18273106
0.015482832 0.010270217 0.18279842
-0.00044001359 0.01149473 0.18250543
0.0048875245 0.011138201 0.18294078
0.013300599 0.011958755 0.18244299
0.014824744 0.011524051 0.1822612
0.018213306 0.011865557 0.1821135
0.022740941 0.011885562 0.18299204
0.0096014505 0.013508024 0.1822398
0.012632853 0.013073594 0.18256116
0.0057526203 0.014766319 0.18271574
0.0076723485 0.014452796 0.1825375
0.01416483 0.014566943 0.18227965
-0.027516445 0.015452652 0.18235594
-0.0047440436 0.015074168 0.18271139
-0.00034058123 0.015415907 0.18271357
0.0075118588 0.015899267 0.1826534
0.020875795 0.015146272 0.18299964
-0.0026273855 0.016676422 0.18262058
0.0018388783 0.016493343 0.1825566
0.0092687001 0.016302926 0.18224362
0.022139587 0.016856123 0.18231133
0.026639309 0.016788982 0.18219602
-0.0047641392 0.017654873 0.18267277
0.00098940311 0.017772079 0.1823737
0.011424795 0.017944193 0.18294805
0.017044097 0.01794612 0.18260577
-0.025726011 0.018817119 0.18283018
-0.0049790968 0.018814087 0.18276829
-0.00097594887 0.018065982 0.18244594
0.020166004 0.018152814 0.18230101
0.00064629177 0.01978795 0.18245727
0.007401336 0.019455429 0.18216237
0.019287951 0.01959331 0.18204215
0.024899591 0.019798715 0.1829389
0.0036986095 0.020527892 0.18264449
-0.0039373506 0.021543758 0.18251482
-0.00061060674 0.021001901 0.18230256
0.013208831 0.021545628 0.18278766
-0.025270786 0.022699675 0.18267033
-0.024183661 0.022592347 0.18282127
-0.020006916 0.022342302 0.18240973
0.017462272 0.022016622 0.18212113
0.021061143 0.022283396 0.18251008
-0.027453402 0.023244344 0.18218634
0.0090947654 0.023202246 0.18256918
0.015195867 0.023475653 0.18233034
-0.0053872336 0.024261527 0.18236074
1.7872897e-05 0.024127159 0.18214381
0.0037339679 0.024596509 0.18259336
0.011401906 0.024106879 0.18273532
-0.0091688586 0.025281418 0.18291813
0.023261655 0.025118925 0.18212676
-0.021265961 0.026574232 0.18238586
-0.013278088 0.026007347 0.18274075
0.00045964587 0.026039127 0.18279833
0.0013051033 0.026644304 0.18274236
-0.02144368 0.027355339 0.18233365
-0.016744781 0.027339259 0.18247028
-0.014099137 0.027052095 0.18278873
-0.0014089383 -0.027033046 0.18316805
-0.012826514 -0.026252721 0.18345574
0.002312826 -0.025595015 0.18341389
-0.01165007 -0.024354918 0.1831097
-0.0076597007 -0.024987612 0.1833556
-0.0036968088 -0.024890287 0.18307412
-0.0150964 -0.023871349 0.18357369
-0.013734112 -0.021645255 0.1838766
-0.0049872356 -0.021513697 0.18315816
-0.0036775288 -0.021389315 0.18326345
0.0016195481 -0.021316865 0.18316031
0.0049130274 -0.021450702 0.18348524
-0.0079704942 -0.020043578 0.18317938
-0.0029307986 -0.02011444 0.18340626
1.0161661e-05 -0.020076493 0.18325666
0.0099567482 -0.020775095 0.18372121
-0.02193401 -0.019361617 0.18348515
-0.010429706 -0.019048439 0.18333665
0.0065437793 -0.019294454 0.18312642
-0.019989431 -0.01834977 0.18395776
-0.017330961 -0.018656475 0.18323028
-0.013180973 -0.018316668 0.18350881
-0.0079902178 -0.018483333 0.18367958
-0.0033318768 -0.018351419 0.18333602
7.7434415e-05 -0.018468363 0.18351084
-0.010030369 -0.017109266 0.18364367
-0.0070252968 -0.017821435 0.18325993
-0.022661325 -0.016813517 0.18340531
-0.010806629 -0.016537014 0.18365961
-0.0014352235 -0.016590834 0.1832391
-0.015451632 -0.01590064 0.18361169
-0.020881459 -0.014227836 0.18379882
-0.0055896309 -0.014443642 0.18336767
-0.017295972 -0.013995026 0.18372205
-0.013117384 -0.01361446 0.1838071
-0.0077694198 -0.013979293 0.18368626
-0.009135494 -0.012499324 0.18326986
-0.016615534 -0.01146077 0.18397391
-0.022783868 -0.010277835 0.18364388
-0.0040189801 -0.010725266 0.18323821
-0.027462754 -0.0094932672 0.18333209
-0.0031437324 -0.0094451951 0.18305358
0.00042874951 -0.0097357035 0.18385768
-0.013830354 -0.0086891409 0.18389553
-0.0075593158 -0.0087119034 0.18309724
-0.0030848749 -0.0085353022 0.1833863
-0.0065364293 -0.0071397405 0.18381184
0.0024416125 -0.0071000238 0.18329242
0.021779435 -0.0076484061 0.18375626
-0.027310967 -0.0062028836 0.18339714
-0.0066030915 -0.0064337207 0.18318436
-0.00054967188 -0.0066908086 0.18347931
0.0020821409 -0.0064596455 0.18342856
0.0062887538 -0.0065474855 0.18307516
0.020281805 -0.0062419549 0.18318987
-0.024586814 -0.0051065991 0.18396875
-0.012169566 -0.0057698083 0.18346143
-0.010656 -0.0055101095 0.18344325
-0.0015840732 -0.0050002886 0.18344074
0.0046144673 -0.0053824275 0.18321979
0.0062795798 -0.005599923 0.18326369
-0.0096858405 -0.0044639045 0.18360594
-0.0023006131 -0.004116931 0.18393427
0.0014172555 -0.0040728971 0.18328574
-0.0081567122 -0.003827852 0.18334025
-0.00052899832 -0.0039093834 0.1835418
0.0041134055 -0.0034737494 0.18353808
0.0062770452 -0.0031887626 0.18325371
0.0085199922 -0.0030785834 0.1833747
0.0094685163 -0.0031665789 0.18307656
0.010558343 -0.0039529651 0.18311131
0.0023616641 -0.0026932121 0.18304974
0.007514568 -0.0024561002 0.1834552
0.0050156307 -0.0015898874 0.18345216
-0.02505362 -0.00077746413 0.18369505
-0.013133258 -0.0008018231 0.1832189
-0.011595543 -0.00085378555 0.18316659
-0.010869306 -0.00033253781 0.18376705
0.0070852214 -0.00054324948 0.18320858
-0.027141269 0.00091201812 0.18365887
0.0083114114 0.00043992652 0.1831395
0.02232267 0.00094006117 0.18318442
-0.026988054 0.0012152744 0.18386123
-0.0052538528 0.0013389187 0.18306145
0.0020608071 0.0026014177 0.18300959
0.0049109976 0.0025265692 0.18363559
0.0067466833 0.002499915 0.18342696
-0.01141492 0.0036395865 0.18343177
-0.010215833 0.0038980399 0.1838131
-0.0087934742 0.0031870536 0.1835818
-0.0044563357 0.0033583401 0.18317324
0.0021536108 0.0038369577 0.18322492
0.0083213858 0.0038994309 0.1834667
-0.02515287 0.0046549561 0.18377358
-0.012545316 0.0043881088 0.18332288
-0.011454585 0.0043053972 0.18379202
-0.0026296922 0.0044867736 0.18319061
-0.0016463492 0.0044678431 0.18343917
0.003847105 0.0041208169 0.18392402
0.0053254846 0.0045550852 0.18327627
0.010306152 0.0046898406 0.18314597
-0.00024475684 0.0053485292 0.18314472
0.0017628937 0.0053949887 0.18313307
0.0050545195 0.005962905 0.18352291
-0.0067046098 0.0061168224 0.18338633
-0.0035741329 0.0069188219 0.18354544
-0.0014339131 0.0066899941 0.18341568
0.000549144 0.0067236596 0.18345675
0.0030923677 0.0060322937 0.18343419
0.0057311165 0.0068153986 0.1836893
-0.015948568 0.0073264651 0.18365496
-0.0079014478 0.0074056434 0.1837326
-0.00060050981 0.0078975987 0.18344402
0.0025468715 0.007609556 0.18336505
0.0070749209 0.0077601494 0.18347931
-0.023567198 0.0088598533 0.1839366
-0.009930227 0.0088999672 0.18335751
-0.0081884358 0.0085732453 0.18356082
-0.0038469112 0.0082018496 0.18337479
-0.0010843142 0.0087418556 0.18312186
0.0024783914 0.0088333003 0.18338057
0.0079195425 0.0084764734 0.18334207
0.0089430138 0.0084904656 0.1830678
-0.012697184 0.0094910171 0.18369311
0.0035666935 0.0098768985 0.18347931
0.020330472 0.0094821136 0.18325442
-0.027954377 0.010807742 0.18315285
-0.02533835 0.010193478 0.18371227
-0.010891218 0.010341039 0.18394378
-0.0048262361 0.010620381 0.18338814
-0.00049655372 0.010459624 0.1834563
0.0040254137 0.010740242 0.18324974
0.010363432 0.010865141 0.18303135
-0.011542257 0.012724753 0.18335935
-0.010054844 0.012404412 0.18372944
0.00044165784 0.012630246 0.18329865
0.01784776 0.012654035 0.18339181
-0.008465155 0.013257836 0.18329886
-0.014598701 0.014339464 0.18355912
-0.0063286456 0.014322949 0.18348941
-0.012408989 0.015850842 0.18352497
0.020314917 0.015091904 0.18317965
-0.011130226 0.016302025 0.18364808
-0.0057916041 0.016656073 0.18316293
0.013636922 0.016457152 0.18301526
0.015326221 0.0169969 0.18360451
-0.0075683147 0.017420271 0.18314341
-0.026225369 0.018255908 0.1830678
-0.0116281 0.01860447 0.1830529
-0.0079527646 0.018789699 0.18351248
0.019213801 0.018099859 0.18364573
-0.0085106958 0.01974931 0.18313259
0.016510228 0.019812522 0.18309173
-0.018621244 0.020077918 0.18387198
-0.014569985 0.020568255 0.18356022
0.0064994586 0.020621749 0.18321651
0.022857843 0.020675154 0.18382499
-0.0049597239 0.021554399 0.1835669
-0.0018082983 0.021578198 0.18353918
0.0076495833 0.021730695 0.18372121
0.012978582 0.021679228 0.18315053
-0.023351783 0.022008939 0.18373096
-0.024509657 0.02329975 0.18302509
-0.010548845 0.023022542 0.18312907
0.00014087185 0.02315158 0.18350816
0.0217032 0.02322547 0.18349031
-0.019404059 0.024610544 0.18399632
-0.016585898 0.02442022 0.1839698
-0.0093843425 0.02498378 0.18357491
-0.0063104145 0.02486304 0.18343174
0.0076679573 0.024727974 0.18316799
0.010750869 0.024021147 0.18328923
0.01433143 0.024032507 0.18322888
-0.013326922 0.025230849 0.18383333
-0.0023646816 0.0252789 0.18349937
0.011584985 0.026870932 0.18306577
-0.010808746 0.027143698 0.18303046
-0.01134155 -0.0248625 0.1843009
-0.0022465819 -0.02492661 0.18424872
0.0015360462 -0.0236411 0.18422297
-0.0085206926 -0.022163395 0.18458536
-0.0076357257 -0.0221857 0.18404797
-0.013228681 -0.021943375 0.18408269
-0.016647253 -0.020282049 0.18434715
-0.0068751066 -0.02055693 0.18402642
-0.019941386 -0.018621419 0.18465006
-0.01687919 -0.017435124 0.18499357
-0.014418353 -0.016469026 0.1849103
-0.020610651 -0.015202007 0.18407393
