# .PCD v0.7 - Point Cloud Data file format
VERSION 0.7
FIELDS x y z
SIZE 4 4 4
TYPE F F F
COUNT 1 1 1
WIDTH 449
HEIGHT 1
VIEWPOINT 0 0 0 1 0 0 0
POINTS 449
DATA ascii
-0.025684778 0.029211013 0.18444309
-0.021444019 0.033337377 0.18157569
-0.025017627 0.031914562 0.18233365
-0.028975474 0.030035492 0.18177027
-0.021483131 0.035318714 0.17850128
-0.026004691 0.034788456 0.17886797
-0.029898493 0.032246433 0.17811304
-0.023203569 0.036336001 0.17563429
-0.026458122 0.035870951 0.17443395
-0.029221103 0.034055132 0.17411307
-0.027912486 0.036252715 0.17112193
-0.019350214 0.028490257 0.1839698
-0.023184977 0.027878225 0.18423891
-0.027243746 0.025677096 0.18373096
-0.0095029464 0.03367725 0.18050316
-0.014738346 0.033031501 0.18186027
-0.019595463 0.031812321 0.18273732
-0.029482583 0.026482953 0.18267033
-0.010509659 0.034757338 0.17692727
-0.015523165 0.035508912 0.17718574
-0.019705174 0.035733104 0.17636135
-0.03197078 0.02909576 0.17842737
-0.032067474 0.027449075 0.17564413
-0.016822487 0.035805162 0.17279553
-0.021209482 0.036241345 0.17313102
-0.024661377 0.036219832 0.17224234
-0.030713076 0.032338243 0.17255104
-0.031552773 0.028612526 0.17170888
-0.017701797 0.035702612 0.16866434
-0.021338977 0.036584735 0.16814101
-0.025981359 0.036282234 0.16869384
-0.03004485 0.033577733 0.168089
-0.025726696 0.035507403 0.16473842
-0.029535234 0.033719085 0.16396368
-0.020245336 0.01946491 0.18484202
0.0015226202 0.031085022 0.18274236
-0.0027587945 0.02949205 0.18349937
-0.0073621497 0.02900688 0.18343174
-0.012306985 0.026859632 0.18312907
-0.016998313 0.023996297 0.18356022
-0.021564294 0.02288029 0.18439218
0.00088184606 0.033748742 0.18009594
-0.0041739168 0.033440173 0.18025401
-0.0074029327 0.031996865 0.1818969
-1.6382895e-05 0.035058215 0.17621043
-0.0041020289 0.034724262 0.17476493
-0.0086511374 0.034564011 0.17461768
-0.0057274722 0.03477104 0.17019373
-0.0092660058 0.03473055 0.17020768
-0.013714114 0.035205673 0.17057562
-0.010391116 0.03547173 0.16562885
-0.014869289 0.035711948 0.16608563
-0.031876072 0.027909709 0.1649535
-0.015081357 0.036110107 0.16226053
-0.02002611 0.035507523 0.16153246
-0.025256567 0.034647763 0.16134983
-0.029795883 0.03275932 0.16094065
-0.032499246 0.029918145 0.16082957
-0.021366874 0.035009772 0.15737203
-0.02524632 0.034762196 0.15614295
-0.029263858 0.033100661 0.15595016
-0.031858839 0.030785922 0.15663365
-0.0055581625 0.020597352 0.18267277
-0.0088297008 0.020323647 0.18314341
-0.014477155 0.01849265 0.18352497
0.00016435049 0.027010178 0.18350816
-0.0057863444 0.025146797 0.1835669
-0.0099291457 0.023040863 0.18313259
-0.013566116 0.021705218 0.1830529
0.0013148254 0.034476407 0.17279071
0.0011688443 0.03401994 0.1684522
-0.0032437891 0.034242734 0.16818023
-0.00720608 0.034606516 0.16764724
-0.0035751592 0.034019861 0.16307834
-0.0076861619 0.034624044 0.16371065
-0.0050324788 0.034395568 0.15968567
-0.0090201935 0.03457411 0.15940237
-0.013274393 0.035152327 0.15866333
-0.013672228 0.034183934 0.15458122
-0.018445343 0.034467731 0.15475434
-0.023424672 0.035068106 0.15291572
-0.030717796 0.032478027 0.15283966
-0.032605663 0.028591109 0.1544762
-0.014897524 0.03485949 0.15093213
-0.019470699 0.034278173 0.15010184
-0.024910863 0.034968115 0.14945704
-0.029306056 0.03343847 0.14943349
-0.031479105 0.029342322 0.14959893
-0.021253895 0.034467287 0.14646459
-0.024853706 0.035364754 0.14409995
-0.029349441 0.034045007 0.14423808
-0.026022032 0.036232099 0.13967669
-0.02814278 0.035699006 0.13942665
-0.027067792 0.03750537 0.13661504
0.001154304 0.02073409 0.1823737
-0.0030652834 0.019455826 0.18262058
-0.0073834201 0.016710106 0.18348941
-0.011730651 0.014471816 0.18372944
0.0029392401 0.033843592 0.16190982
-0.0017550169 0.034483533 0.16090554
0.001789663 0.034568705 0.15742645
-0.0029323781 0.034246046 0.15705824
-0.0070160516 0.034103874 0.1568284
0.00027950574 0.03467162 0.1531471
-0.0036010165 0.034540504 0.15264806
-0.0080918632 0.034455221 0.15293503
-0.012013398 0.034471951 0.15254688
-0.0086202696 0.035140987 0.14814392
-0.012973548 0.0350543 0.14853626
-0.01695713 0.034721203 0.14817908
-0.0098889181 0.035794906 0.14388108
-0.013508802 0.035753939 0.14425078
-0.018816978 0.034941595 0.14389068
-0.032138094 0.028821621 0.14295429
-0.01460431 0.035371583 0.13994029
-0.018898293 0.035474941 0.13866234
-0.023021346 0.036260515 0.13832861
-0.029907003 0.033861801 0.13861218
-0.031747591 0.030446587 0.1379067
-0.024281748 0.03708804 0.13381097
-0.029061023 0.034846596 0.13364476
-0.031431474 0.031746551 0.13377938
-0.025960807 0.036798742 0.12957773
-0.028262367 0.035550311 0.12926957
-0.0044880635 0.0095688254 0.18337479
-0.0092183556 0.0086399168 0.1837326
-0.00098366616 0.013602631 0.18229312
-0.0056306086 0.012390444 0.18338814
-0.011585265 0.010383295 0.18335751
-0.0016910601 0.034335125 0.150235
0.0025763968 0.034707032 0.14557603
-0.0027213395 0.034592815 0.14623767
-0.0061617545 0.034702636 0.14611942
-0.0028526084 0.034648567 0.1417734
-0.0071648164 0.034767542 0.14139801
-0.011854748 0.034747276 0.14080736
-0.0089599583 0.034225643 0.13792837
-0.012154944 0.034403194 0.13662553
-0.016072236 0.035119351 0.13726762
-0.032179583 0.026868708 0.13640901
-0.013332864 0.034436181 0.13271531
-0.017427124 0.03531323 0.13272217
-0.021425392 0.036538363 0.13089141
-0.030004833 0.032717414 0.13030452
-0.031537022 0.028932335 0.13145483
-0.018458851 0.034990326 0.12853462
-0.023088351 0.035841864 0.12675703
-0.029302534 0.034142695 0.12665594
-0.031500749 0.030408446 0.12623769
-0.02481362 0.035221942 0.12315148
-0.028471418 0.034395598 0.12174165
-0.031603821 0.031818062 0.12178835
-0.0030679745 0.0052345698 0.18319061
0.0034039347 0.034589685 0.13938659
-0.0018586721 0.0344726 0.13888028
0.0024124226 0.033961311 0.13521409
-0.002208217 0.033442333 0.13463375
-0.0066115716 0.033548776 0.13481766
-0.0071268976 0.033468548 0.13002577
-0.011242218 0.033797652 0.12990534
-0.011817301 0.033436283 0.12583411
-0.016231675 0.033999316 0.12543929
-0.016453467 0.033561643 0.12150881
-0.021552818 0.034257017 0.12063068
-0.026340868 0.035153199 0.11962271
-0.032037981 0.031711195 0.11925399
-0.022102902 0.034753609 0.11641407
-0.027579321 0.034926023 0.11607945
-0.031166796 0.031239413 0.11550683
-0.023513913 0.035074301 0.11309862
-0.027581651 0.034780476 0.11144763
-0.029755283 0.03396187 0.10994601
-0.00040003064 0.0037411086 0.18294102
-0.00027311314 0.033234343 0.13215089
-0.0012314329 0.033313517 0.12793937
-0.0052304752 0.033320144 0.12757626
-0.0018332619 0.03327423 0.12323108
-0.0065688421 0.034225568 0.12399742
-0.010935097 0.033476546 0.12305892
-0.0069926009 0.034675196 0.11887717
-0.011464312 0.034159202 0.11929756
-0.016248226 0.033351563 0.11871105
-0.0080935033 0.034811892 0.11507004
-0.01179009 0.034132775 0.11418319
-0.016354831 0.034070883 0.11457568
-0.019809837 0.034172341 0.11449897
-0.031507734 0.029391238 0.1130228
-0.013031705 0.034800276 0.11039239
-0.016546406 0.034578945 0.10937536
-0.021444147 0.034968022 0.11033911
-0.026727675 0.035094917 0.1080566
-0.030749641 0.029956859 0.10934013
-0.018338824 0.035635132 0.1063931
-0.02147973 0.034992058 0.10572845
-0.026459537 0.0346536 0.10548323
-0.029777143 0.032270312 0.104864
-0.027024172 0.03427643 0.10168481
-0.029604536 0.03294548 0.10072374
0.0016534645 -0.004751713 0.18328574
0.0010360032 0.032793894 0.12183201
0.00039724167 0.033051629 0.11700511
-0.0044023329 0.034041554 0.11659038
-0.00042583514 0.033234823 0.11315286
-0.0058315881 0.034394499 0.11205256
-0.010043911 0.034326781 0.11195254
-0.0071584666 0.034738753 0.1082862
-0.010802183 0.034421336 0.10738987
-0.014549533 0.034702085 0.1067785
-0.011816069 0.034404654 0.10236722
-0.016028358 0.035032041 0.10319781
-0.02101546 0.034184437 0.1021046
-0.031124398 0.02926641 0.103082
-0.031783238 0.02664753 0.10140204
-0.01604332 0.034940492 0.099444747
-0.020924039 0.033710696 0.098367095
-0.025442507 0.033376817 0.098122895
-0.030660279 0.031492833 0.097984195
-0.032868169 0.028707212 0.097702384
-0.02609925 0.033634007 0.093385816
-0.030352211 0.032591008 0.093421638
-0.032933153 0.030458217 0.092538059
-0.027268557 0.033849657 0.089581609
-0.030191736 0.033518955 0.088491917
0.0070771202 -0.0061687441 0.18334812
0.0024291645 -0.0075362534 0.18342856
0.0012307456 0.033677649 0.11124563
0.0003244672 0.033775929 0.10665488
-0.0052313507 0.034172546 0.10612011
-0.00092800334 0.033651717 0.10274482
-0.0049303127 0.034473047 0.10159618
-0.0096477531 0.034938417 0.10132504
-0.0054420908 0.034651577 0.097616136
-0.011089895 0.03464422 0.096311569
-0.015630992 0.034290712 0.09591341
-0.019741047 0.033802908 0.095597625
-0.012262082 0.034904294 0.092531323
-0.015694823 0.034940008 0.091425419
-0.020669481 0.034322459 0.092232227
-0.02397456 0.034002021 0.091841102
-0.016908251 0.035510991 0.087489903
-0.020991433 0.035650831 0.087297976
-0.025814438 0.035243578 0.087982833
-0.030750087 0.033058263 0.087403476
-0.033254214 0.03002568 0.086335361
-0.022020116 0.035775699 0.082983732
-0.02624847 0.035742372 0.082963586
-0.030567065 0.034135938 0.082648516
-0.032953076 0.031485118 0.08131665
-0.027296184 0.034983817 0.078411162
-0.030381534 0.034029111 0.078509033
-0.03298042 0.031880431 0.077596426
0.0024815686 0.032765057 0.099065125
0.0014321087 0.033178866 0.094881535
-0.0028223041 0.032978103 0.093935311
-0.0078734476 0.03252558 0.093725681
-0.0050542355 0.033180758 0.09016037
-0.0091705127 0.033296697 0.08993876
-0.010230383 0.033524513 0.085693002
-0.014996289 0.034949869 0.085261762
-0.011369442 0.033923663 0.081576943
-0.014938527 0.034213282 0.080686808
-0.019797908 0.034459475 0.080105364
-0.023642987 0.034418263 0.079056859
-0.016527968 0.034214266 0.077060044
-0.020233819 0.03397724 0.076229513
-0.024616674 0.033703595 0.075552583
-0.029875014 0.033010669 0.075100124
-0.032782804 0.029243859 0.075595438
-0.021664942 0.034455925 0.072501957
-0.025497254 0.034185164 0.071569443
-0.029363368 0.032675445 0.071171165
-0.032114811 0.030078156 0.071987569
-0.026801836 0.034697488 0.067943752
-0.028244004 0.033949416 0.06776464
0.0031768112 0.033086777 0.092586339
0.0025932183 0.032903049 0.087630808
-0.0019280948 0.032968435 0.087888837
0.0010555657 0.033451281 0.083117485
-0.0024185106 0.033346131 0.082910776
-0.0071648308 0.033414643 0.083494306
-0.0038707023 0.033058096 0.079025686
-0.0084044747 0.033455096 0.078451753
-0.012924942 0.033853605 0.077885151
-0.0099702664 0.033401616 0.074759126
-0.014051346 0.034169476 0.07412982
-0.018522523 0.033716284 0.07383436
-0.014965921 0.034971029 0.069339573
-0.019814922 0.034983069 0.07012099
-0.023181617 0.034167565 0.069637477
-0.030739263 0.031328309 0.068493724
-0.032330301 0.029445292 0.068180919
-0.019884946 0.035097033 0.065378129
-0.024872372 0.035017997 0.065374732
-0.029699616 0.032894548 0.065061629
-0.032454647 0.029817652 0.064137757
-0.025827385 0.034375578 0.060620904
-0.029005013 0.032992072 0.060288727
-0.0014197063 0.032529537 0.076792717
-0.0054834136 0.033117954 0.075422287
0.0023610797 0.033053532 0.072666585
-0.0018300423 0.032668021 0.07235986
-0.0065558525 0.032675799 0.072113335
-0.01064402 0.033336792 0.070812643
-0.0031780144 0.032654248 0.068350673
-0.0068090227 0.032969188 0.067485511
-0.011034761 0.03330062 0.066797733
-0.0076692468 0.033324674 0.063870192
-0.012655543 0.033576746 0.063034058
-0.017851342 0.033926297 0.061281741
-0.032711774 0.028047804 0.060405374
-0.013158992 0.033625115 0.058690846
-0.018038413 0.033457585 0.057470143
-0.023563426 0.033378839 0.057186246
-0.02900283 0.031300019 0.05621469
-0.031325631 0.02921983 0.057833076
-0.018022798 0.033716634 0.054560542
-0.022817841 0.033394255 0.052859068
-0.028300829 0.031814281 0.053006887
-0.030896917 0.028418321 0.054005146
-0.02437634 0.034015466 0.048922896
-0.027978607 0.032783616 0.04826951
-0.027669214 0.034534529 0.045383036
9.9775381e-05 0.033133637 0.069900513
0.0032459041 0.033236235 0.065726757
-0.0013228431 0.033288494 0.066022813
-0.0020129876 0.03275992 0.0619452
-0.0061205085 0.032732062 0.060358405
-0.010255609 0.033525743 0.060589075
-0.0067076781 0.032897234 0.056573033
-0.011243115 0.033555992 0.056050301
-0.012666088 0.033130512 0.051956892
-0.016861323 0.033947926 0.051750839
-0.029721476 0.030212807 0.050916433
-0.031316295 0.027034232 0.05056572
-0.017925244 0.034193233 0.047621727
-0.022142913 0.034475878 0.047272444
-0.030033179 0.031319104 0.04769963
-0.031657308 0.02878122 0.046176314
-0.022885315 0.034571778 0.042678297
-0.028039631 0.033898845 0.042898118
-0.031847477 0.031209912 0.041854858
-0.027648665 0.034006078 0.038153708
-0.030205838 0.032609448 0.038298666
-0.00060412288 0.031882405 0.058839142
-0.00050529465 0.032657981 0.054981768
-0.0055829235 0.032500546 0.053159833
0.0026380997 0.033686791 0.051002443
-0.0010019615 0.033282954 0.050187528
-0.0058411364 0.032694299 0.04941082
-0.010513196 0.032541763 0.048829317
-0.0064699817 0.033232588 0.045458496
-0.011402687 0.033121642 0.044535875
-0.01570962 0.032986283 0.044186175
-0.011220051 0.033745673 0.040515542
-0.016631586 0.033333994 0.039851904
-0.020652656 0.033719752 0.039281011
-0.03224092 0.02870322 0.037890911
-0.016390661 0.033735789 0.036333382
-0.022126216 0.034170922 0.035737991
-0.026662853 0.033812746 0.034875512
-0.031162759 0.030768767 0.035003543
-0.022111984 0.034075271 0.031350136
-0.026699752 0.033392753 0.030530214
-0.030930299 0.030572992 0.030194998
-0.026839154 0.034094166 0.026885808
-0.029819887 0.032636344 0.026573598
0.00022346992 0.033465452 0.047299087
-0.00049015135 0.033503532 0.043315411
-0.0047384193 0.033646282 0.043198287
-0.00093845837 0.032952555 0.038787484
-0.0057780663 0.033257063 0.038522005
-0.010112265 0.033541374 0.03758204
-0.0071880026 0.03331982 0.034465134
-0.011055278 0.033408958 0.034110546
-0.015517739 0.033022664 0.032872915
-0.012258844 0.033091135 0.029339492
-0.015732944 0.032734554 0.030048072
-0.020126155 0.03273572 0.028113008
-0.032276612 0.029631009 0.028056979
-0.022304203 0.034100361 0.024505913
-0.026692191 0.034018785 0.023584068
-0.031172376 0.030925361 0.024517238
-0.022887764 0.033731289 0.020095944
-0.026548512 0.033067659 0.019770205
0.00047646463 0.033041023 0.036871433
-0.0033642007 0.032713383 0.035035133
3.9958395e-05 0.033526987 0.032587767
-0.0049163159 0.033276983 0.03251338
-0.010328852 0.032626636 0.030551195
-0.00023578666 0.033897474 0.027832389
-0.0054317568 0.033619672 0.028075993
-0.0095871054 0.032614332 0.027481735
-0.015561879 0.031547491 0.026382983
-0.0066353804 0.033207566 0.023537576
-0.010418727 0.032743864 0.023397267
-0.014956064 0.032114621 0.022645831
-0.018808564 0.032164264 0.022998333
-0.031450905 0.028104141 0.020174444
-0.016478833 0.032756437 0.01886034
-0.020228187 0.033223838 0.018185556
-0.02557629 0.032934953 0.016473949
-0.029875211 0.028911527 0.017144263
-0.02135985 0.03374134 0.013497829
-0.025972452 0.033128984 0.01297456
-0.029884282 0.029903824 0.012833774
-0.022662718 0.034170244 0.0095996857
-0.026015718 0.033607639 0.0090528727
-0.029638257 0.03142288 0.0083268881
0.00098886993 0.033357915 0.024152935
-0.0029762797 0.033014067 0.024478614
0.00061694067 0.032515474 0.020350873
-0.0044756364 0.032682557 0.020696819
-0.0091006011 0.031924117 0.019448876
-0.0040085902 0.031914927 0.017421842
-0.0094600804 0.031232767 0.015425861
-0.014168472 0.031850271 0.015286803
-0.015731979 0.032390703 0.011493206
-0.018448245 0.032533579 0.010245442
-0.03111865 0.028141188 0.0093111396
-0.015788138 0.0321966 0.0073606968
-0.020301431 0.033002146 0.0068366528
-0.025505867 0.032670513 0.0048578382
-0.030326411 0.029920623 0.0056545734
-0.020893071 0.032543536 0.0033590198
-0.025604732 0.032298144 0.001517415
-0.029835433 0.030076962 0.0025460124
0.002213872 0.032247145 0.018051147
0.0014125956 0.032455888 0.014109135
-0.0035618972 0.031807955 0.014416337
-0.0070320857 0.030876551 0.013123035
0.00035353843 0.033005267 0.0087632537
-0.0037636468 0.032299738 0.0089641809
-0.0087639568 0.03106647 0.0094313622
-0.012388127 0.031031663 0.0093864202
-0.0041735396 0.032702271 0.0044938326
-0.0090705864 0.031764291 0.00416255
-0.01368102 0.031788763 0.0042074323
-0.017856527 0.031663455 0.0038983822
-0.014818816 0.032075271 -0.00033098459
-0.01942152 0.032111786 -0.00026512146
-0.023145832 0.03177331 -0.00098502636
-0.029531954 0.028414551 -0.0013124943
0.0026826337 0.033123244 0.0077342987
0.0017977664 0.032874268 0.0030359626
-0.0026581446 0.032612748 0.0023194551
0.0003568558 0.033582702 -0.0016378164
-0.003317479 0.032479964 -0.00200212
-0.0081398273 0.031324539 -0.0017865896
-0.011983177 0.031292688 -0.0025786757
