# .PCD v0.7 - Point Cloud Data file format
VERSION 0.7
FIELDS x y z
SIZE 4 4 4
TYPE F F F
COUNT 1 1 1
WIDTH 433
HEIGHT 1
VIEWPOINT 0 0 0 1 0 0 0
POINTS 433
DATA ascii
0.029293258 -0.026905265 0.18138248
0.03243446 -0.023578446 0.18109167
0.027527994 -0.031877398 0.1776354
0.030134123 -0.028988887 0.17913616
0.033418655 -0.024741547 0.17845941
0.035405591 -0.022418117 0.17816964
0.028562602 -0.033086941 0.17504799
0.032588694 -0.03150503 0.17526245
0.034843482 -0.026435338 0.17446581
0.033361483 -0.032818932 0.17017916
0.035667792 -0.02813706 0.17047799
0.019154329 -0.030587632 0.17954323
0.022595149 -0.028899111 0.18046248
0.026164632 -0.024674498 0.18197274
0.029848907 -0.020845491 0.18232122
0.032975171 -0.017528217 0.18112877
0.034584418 -0.014897665 0.1787287
0.020543531 -0.032287121 0.17707422
0.024422018 -0.031167483 0.17802113
0.036009867 -0.019792642 0.17715466
0.036194406 -0.016734613 0.17575499
0.021898152 -0.033037484 0.17310435
0.025201922 -0.033054885 0.17360538
0.036662463 -0.021797154 0.17297244
0.027449489 -0.033186927 0.16954151
0.03105651 -0.033913445 0.16745362
0.035731003 -0.027194915 0.16750646
0.036940437 -0.023042535 0.16885698
0.027485898 -0.032622501 0.1652621
0.032359011 -0.031424344 0.16434613
0.034343939 -0.027085854 0.16365418
0.010525509 -0.029248554 0.18246007
0.013701228 -0.026375281 0.1828509
0.016929934 -0.023493866 0.18262503
0.021208853 -0.019699048 0.18245706
0.024860628 -0.015685063 0.18274075
0.027924143 -0.012182712 0.1828534
0.012294655 -0.031696707 0.1802617
0.016129604 -0.029435774 0.18056256
0.019570112 -0.025795154 0.18135247
0.02169273 -0.022448085 0.18153876
0.033545256 -0.01131096 0.17910329
0.014036035 -0.033303469 0.17575088
0.017897399 -0.03270217 0.17534867
0.035715308 -0.012806673 0.17417717
0.015533702 -0.033408985 0.17059058
0.01893495 -0.033046275 0.17068022
0.035873566 -0.015113161 0.16963425
0.020465756 -0.032929327 0.16641259
0.023872994 -0.032700974 0.16694114
0.035311628 -0.019358397 0.16450799
0.035397034 -0.015296097 0.16559857
0.021482604 -0.03330012 0.16299403
0.02488244 -0.032031398 0.1619994
0.030393282 -0.030365529 0.16081753
0.033833802 -0.025614409 0.16086096
0.034575626 -0.02190098 0.16162539
0.026054626 -0.031600405 0.15861163
0.029965337 -0.030501228 0.15661636
0.033713315 -0.026105287 0.15619576
0.030665804 -0.032015998 0.15184933
0.033917706 -0.028560275 0.15149423
0.032209065 -0.032608148 0.14828271
0.0340662 -0.030430615 0.14862114
0.0076344088 -0.022510197 0.18312642
0.016247069 -0.01353777 0.18240055
0.019347779 -0.010773476 0.18235675
0.023662105 -0.0072822804 0.18318987
0.011616206 -0.024237612 0.18372121
0.014900321 -0.020448579 0.18281901
0.017202185 -0.017290542 0.1822688
0.020892086 -0.013857313 0.18215033
0.011600579 -0.033663366 0.1736303
0.012539625 -0.03337473 0.16891271
0.035585102 -0.012066801 0.16684639
0.013985093 -0.033232946 0.16377789
0.017562177 -0.033122275 0.16443199
0.034679089 -0.013280738 0.1619302
0.014869543 -0.033482499 0.16021502
0.01843198 -0.032683466 0.15951318
0.022076122 -0.031914748 0.15979487
0.033887219 -0.018326234 0.15871254
0.03433178 -0.014193658 0.15783012
0.019607827 -0.032522935 0.15484649
0.023699196 -0.031894773 0.15563956
0.034262124 -0.020272104 0.15466851
0.034300305 -0.015841208 0.15431082
0.025212307 -0.032610133 0.15110242
0.02917379 -0.033118494 0.14965314
0.035025939 -0.025816493 0.14947098
0.034499407 -0.021888694 0.15001655
0.025670247 -0.033051945 0.14710483
0.030103303 -0.032843098 0.14558098
0.034529857 -0.028418817 0.14555418
0.035202403 -0.024016786 0.14489108
0.030630944 -0.031421017 0.14133662
0.033740982 -0.028323626 0.14083597
0.0070977532 -0.019373503 0.18254352
0.009977418 -0.016097993 0.18198976
0.01362841 -0.013080047 0.18265697
0.016452817 -0.0087187141 0.18251938
0.012840451 -0.033403914 0.15780932
0.015580696 -0.032270811 0.15620655
0.034730483 -0.012479465 0.15529218
0.014372794 -0.033465311 0.1534791
0.016579689 -0.032623887 0.15272188
0.034421723 -0.013849989 0.15149775
0.018372357 -0.0324618 0.14894855
0.0218226 -0.032387435 0.14876911
0.034074519 -0.018186983 0.14793649
0.033900023 -0.015013332 0.14749086
0.023258785 -0.032352298 0.14433989
0.034381129 -0.020272544 0.14289695
0.024839003 -0.031537887 0.14030749
0.028332867 -0.031486575 0.13842955
0.033885594 -0.028621471 0.13823766
0.035377767 -0.022943776 0.1383743
0.029445978 -0.030812128 0.13392657
0.033236474 -0.028843306 0.13446456
0.03507654 -0.025999807 0.13363051
0.033640049 -0.027713791 0.13007218
0.0075752321 -0.0068977424 0.18317926
0.011046601 -0.0036943422 0.18307656
0.0063424986 -0.012407033 0.18248317
0.0097064376 -0.0095412694 0.18267792
0.012776395 -0.0054891217 0.18275598
0.034024093 -0.011326082 0.14817435
0.011597769 -0.032728747 0.14593235
0.015896987 -0.03218599 0.14600933
0.033242073 -0.012228139 0.14389661
0.012724301 -0.03264299 0.14198539
0.016980227 -0.032153387 0.14200175
0.020374356 -0.031443343 0.14105138
0.03307002 -0.017474169 0.14148468
0.033295389 -0.013888258 0.14000636
0.017799601 -0.032260232 0.13688913
0.021799957 -0.031507798 0.13768306
0.034929566 -0.019655747 0.13685364
0.034274179 -0.015634768 0.13540161
0.018858826 -0.032661311 0.13340244
0.022630084 -0.032017011 0.13290834
0.026861008 -0.031311926 0.13212997
0.034749635 -0.021971509 0.13229781
0.034772202 -0.018264294 0.13130289
0.024137493 -0.032715991 0.12826195
0.028036423 -0.03112283 0.127341
0.031825125 -0.028525282 0.12750405
0.033854254 -0.023896284 0.12732023
0.025232168 -0.03296487 0.12412724
0.02852474 -0.031644858 0.12234703
0.031681303 -0.02868217 0.12225643
0.033422787 -0.024471724 0.12345815
0.030172499 -0.031556871 0.11900574
0.031806715 -0.029854378 0.11886799
0.004798973 -0.0040527079 0.18353808
0.010575568 -0.03257741 0.13908195
0.01391755 -0.031858392 0.13832736
0.033789832 -0.011580744 0.13782126
0.011657192 -0.03210919 0.13456666
0.01461904 -0.03225955 0.13457301
0.033453919 -0.011467541 0.13285035
0.017095789 -0.032840386 0.13115281
0.034488034 -0.01438798 0.12885377
0.018819531 -0.03312039 0.12597275
0.020979542 -0.032982584 0.12691662
0.034282025 -0.021855805 0.12533879
0.03405451 -0.017714124 0.12521189
0.02268666 -0.033150241 0.12205291
0.026922707 -0.032692239 0.11998272
0.032728598 -0.027353082 0.11987817
0.033294022 -0.022588735 0.12078029
0.034021735 -0.019479726 0.12202197
0.024145095 -0.03319788 0.11737502
0.028371261 -0.032414526 0.11643064
0.03219435 -0.028960133 0.11608702
0.033063333 -0.024678439 0.11704361
0.028953796 -0.032108806 0.11175203
0.032038923 -0.02941826 0.11100352
0.033371381 -0.026145363 0.11276639
0.013841873 -0.031793468 0.12742251
0.014294595 -0.031577446 0.12350303
0.033793978 -0.014645392 0.12221599
0.034195274 -0.011630064 0.12176114
0.016258713 -0.031744439 0.11952347
0.02030405 -0.032838993 0.11881644
0.033022869 -0.016723644 0.1181339
0.034300275 -0.011917622 0.11809516
0.021203501 -0.033417378 0.11520129
0.033188272 -0.021856101 0.11469579
0.033255242 -0.018196872 0.11360914
0.023696195 -0.033134613 0.11129844
0.027107479 -0.032361045 0.11020827
0.033303149 -0.023292735 0.10991478
0.033700049 -0.019798379 0.10944045
0.023978505 -0.032852136 0.10600924
0.027453287 -0.032117151 0.10609484
0.031568732 -0.029236274 0.10579884
0.033228219 -0.024856713 0.10581404
0.028135253 -0.031611953 0.10247958
0.030777482 -0.029217122 0.10196614
-0.0030172637 0.0039383988 0.18425637
0.010235015 -0.031006012 0.12225926
0.012272446 -0.031453136 0.11704028
0.032850344 -0.013982307 0.1156038
0.033945929 -0.010532986 0.11491585
0.01533473 -0.032143526 0.11271846
0.033268262 -0.015222109 0.11111891
0.033631746 -0.011183672 0.11056232
0.016994715 -0.032420527 0.10920238
0.019438392 -0.032132491 0.10778677
0.033615906 -0.01714306 0.10696298
0.021302603 -0.032582056 0.10355496
0.032635592 -0.02215034 0.10205287
0.033579946 -0.019107237 0.10253096
0.023143098 -0.03236489 0.10040939
0.026456598 -0.031576324 0.099088907
0.030470012 -0.028071539 0.098511755
0.031934071 -0.023904096 0.098743558
0.027070722 -0.031525448 0.095488489
0.030057032 -0.029001746 0.094365895
0.031260282 -0.024983928 0.09439832
0.029947188 -0.02961221 0.090405703
0.010908725 -0.032085441 0.11155987
0.013231816 -0.031977251 0.10638982
0.032978084 -0.014724647 0.10335177
0.033264551 -0.010282164 0.1049853
0.01476962 -0.032071881 0.10162038
0.01854386 -0.032246888 0.10101485
0.032622475 -0.015315264 0.099557161
0.032037411 -0.011511914 0.10111582
0.016133696 -0.032255016 0.098833799
0.019587321 -0.031936273 0.096979976
0.032139167 -0.021970136 0.095782042
0.032701276 -0.0178129 0.095614791
0.020525441 -0.031304054 0.093547344
0.025634265 -0.031310514 0.091959119
0.030726362 -0.026859634 0.092214882
0.032108724 -0.023410054 0.091700912
0.032979555 -0.019442271 0.090636313
0.026454896 -0.031283252 0.087864399
0.03067317 -0.029026324 0.087879896
0.03237221 -0.024517944 0.08698535
0.027288213 -0.030799329 0.082723796
0.030398145 -0.029089518 0.082594037
0.031937867 -0.026341952 0.082555175
0.011978149 -0.031580366 0.094795644
0.014620662 -0.031102851 0.09345454
0.031878851 -0.014057841 0.093520999
0.031627361 -0.010540477 0.092821181
0.016686156 -0.030542504 0.0899297
0.032640971 -0.015652576 0.089315295
0.032731213 -0.012268389 0.088446617
0.019216843 -0.030506153 0.085427403
0.022503946 -0.030399032 0.085043132
0.032372668 -0.022103397 0.083344936
0.032742441 -0.0174569 0.084632516
0.033338036 -0.013662023 0.085030079
0.020239135 -0.030605054 0.081984222
0.023593765 -0.030252036 0.080491304
0.02872131 -0.030116197 0.080058336
0.031699799 -0.022728726 0.08033967
0.032798626 -0.019172819 0.080869436
0.026218511 -0.03101261 0.076448441
0.029583398 -0.029201254 0.076193452
0.030687915 -0.024805071 0.076477826
0.028230514 -0.032403123 0.072047234
0.030203756 -0.029471122 0.071797967
0.031501688 -0.026515132 0.071321726
0.028294679 -0.032641485 0.069174647
0.03003932 -0.031009546 0.068119943
0.01066664 -0.03146866 0.087949991
0.014082683 -0.030990506 0.087109327
0.012081546 -0.03213311 0.083213747
0.015471518 -0.031435646 0.084043503
0.033672705 -0.011517145 0.0817101
0.016744174 -0.031247176 0.078815877
0.020042028 -0.030605335 0.078852773
0.032599647 -0.017012082 0.0776999
0.033572622 -0.013446823 0.078303754
0.017514959 -0.030649025 0.074519634
0.021452282 -0.030387331 0.074392557
0.030657504 -0.021765504 0.073775291
0.031475991 -0.018764906 0.073365688
0.023467746 -0.030922171 0.07006979
0.031303648 -0.02292181 0.069095969
0.031271748 -0.019366004 0.069027185
0.025863517 -0.03156662 0.065192461
0.030565627 -0.029595375 0.065723479
0.031552162 -0.025963115 0.065314233
0.028917439 -0.030019954 0.061401784
0.03132933 -0.026896792 0.061243176
0.0097735059 -0.031599529 0.077160001
0.014054693 -0.031617232 0.077348888
0.033027947 -0.010847005 0.075169325
0.010690046 -0.031646632 0.072901547
0.014261805 -0.03063032 0.072129011
0.019185556 -0.030235333 0.071077108
0.030724168 -0.014761132 0.070808649
0.032068469 -0.011034862 0.070701778
0.01538969 -0.030494487 0.067864776
0.019925199 -0.03043649 0.067497611
0.030683644 -0.016488709 0.067026258
0.031580549 -0.01266833 0.067305267
0.021303765 -0.030947451 0.063062787
0.030856961 -0.022261387 0.061810851
0.030827193 -0.018637696 0.062723756
0.022911865 -0.030920956 0.058416188
0.027638212 -0.02938462 0.057855427
0.029970447 -0.025254061 0.057046711
0.031007238 -0.020876542 0.057455659
0.023313364 -0.030754047 0.055086493
0.026652316 -0.029890293 0.053723574
0.0300589 -0.02601335 0.053484797
0.028047662 -0.029631142 0.050082564
0.02991342 -0.027637007 0.049894452
0.010753419 -0.031980619 0.066118836
0.013993858 -0.031562667 0.065700829
0.030890653 -0.014440222 0.064902723
0.031858437 -0.011669477 0.06439954
0.015264492 -0.030767113 0.061783254
0.019015595 -0.030704957 0.061003089
0.030673977 -0.016836312 0.060025275
0.030856466 -0.012838604 0.060331345
0.015749587 -0.030022228 0.056769431
0.019720592 -0.031090554 0.056961894
0.030333648 -0.017524013 0.055081487
0.021481114 -0.031405006 0.052403748
0.031040547 -0.024776967 0.051542759
0.030746259 -0.021145195 0.051670074
0.022871114 -0.031709813 0.047518134
0.026777551 -0.03080339 0.048014283
0.030419126 -0.025954474 0.04706049
0.030887978 -0.022441523 0.047953486
0.023462446 -0.031635113 0.043196797
0.027186681 -0.030396957 0.043015003
0.030222325 -0.027463982 0.042601883
0.012689753 -0.030749567 0.058326304
0.030152863 -0.011660518 0.057013512
0.014207256 -0.030969612 0.05442524
0.03007951 -0.016605962 0.052310824
0.029995229 -0.011386652 0.053037345
0.010609361 -0.032275222 0.051173031
0.014741378 -0.031798348 0.049999118
0.019160092 -0.031604268 0.049167812
0.029831469 -0.017339028 0.048447132
0.029554162 -0.013015755 0.049165964
0.015495769 -0.032453604 0.045573175
0.019767428 -0.031897187 0.04497242
0.030301193 -0.019284407 0.044505358
0.017218692 -0.032437712 0.042313874
0.021238547 -0.031910736 0.040372133
0.025975589 -0.030858003 0.039923012
0.030890254 -0.025235271 0.040248036
0.03037912 -0.020337109 0.040089846
0.021611899 -0.032056127 0.036522031
0.026104487 -0.030022468 0.036313295
0.029788177 -0.026687417 0.036316574
0.030641271 -0.022849316 0.035462499
0.0260402 -0.030141041 0.033178866
0.029453985 -0.026534647 0.032859683
0.029624926 -0.010842284 0.045794785
0.0098044872 -0.032015387 0.043221474
0.012658095 -0.032524846 0.042997599
0.030063409 -0.012981672 0.042024314
0.014871804 -0.032273494 0.038794041
0.030077964 -0.017380483 0.037040472
0.02989617 -0.014197777 0.036563456
0.016087385 -0.03177736 0.034931242
0.018820789 -0.031516455 0.032770157
0.030300796 -0.019239452 0.033446312
0.021415545 -0.0309901 0.029480577
0.025014794 -0.029345198 0.02890563
0.028117908 -0.025411202 0.028202176
0.029826127 -0.021531831 0.029222667
0.025521861 -0.028516212 0.024759412
0.027274946 -0.026352366 0.02439791
0.030038582 -0.0099981409 0.038830221
0.011810682 -0.032081887 0.036968231
0.030522138 -0.01148023 0.035415471
0.013236702 -0.032205947 0.032883227
0.030701734 -0.013179287 0.031338096
0.014019058 -0.032170262 0.028220952
0.018247861 -0.031237934 0.028007805
0.0297116 -0.018958904 0.026973248
0.030666135 -0.014388089 0.026235938
0.015702182 -0.032083154 0.024228513
0.019395037 -0.031092083 0.023576617
0.023269335 -0.029478708 0.023357034
0.028273577 -0.024265165 0.02293551
0.029850813 -0.02000933 0.022306323
0.020807674 -0.031052673 0.018454194
0.024624588 -0.029521046 0.019157708
0.028321594 -0.026126571 0.019138694
0.029646313 -0.022144241 0.017900348
0.024955574 -0.029534314 0.0145064
0.028881084 -0.026709512 0.01363951
0.029746011 -0.023075789 0.013697505
0.012041579 -0.031979371 0.024216294
0.030553686 -0.011297798 0.02285248
0.013074711 -0.03158097 0.020679593
0.016626319 -0.03091996 0.019719362
0.030231928 -0.013880732 0.01918149
0.014210059 -0.031096876 0.016270459
0.017861698 -0.031191334 0.016288638
0.029633986 -0.019227108 0.015486956
0.030495089 -0.015302014 0.014560521
0.018660737 -0.030475406 0.011959672
0.023312876 -0.029178327 0.010382056
0.027152998 -0.027791487 0.010884166
0.029505575 -0.020546252 0.01084286
0.023936233 -0.029065957 0.0067590475
0.027886651 -0.02634513 0.007116437
0.029710252 -0.022145629 0.0076459646
0.010131303 -0.031635463 0.018587708
0.011194913 -0.030983122 0.014447808
0.030477643 -0.011667942 0.013316035
0.013599743 -0.030935314 0.0092834234
0.016142622 -0.030317619 0.0089251399
0.02941368 -0.01815317 0.0081527233
0.030322541 -0.014197763 0.0083146095
0.013518527 -0.031131927 0.0049872994
0.0180459 -0.030562481 0.0053818226
0.021385489 -0.029505229 0.0042167902
0.029254857 -0.019825738 0.0040460229
0.030026864 -0.015976924 0.0032775402
0.019012045 -0.030749809 -0.00033861399
0.022929046 -0.028895814 0.00035399199
0.026493609 -0.025293656 0.00012648106
0.028112533 -0.021537887 -0.00081944466
0.010166493 -0.030294396 0.0031973124
0.029340345 -0.013532354 0.00073134899
0.029919401 -0.0096061686 0.00072538853
0.015014213 -0.030614641 -0.0010607243
