# .PCD v0.7 - Point Cloud Data file format
VERSION 0.7
FIELDS x y z
SIZE 4 4 4
TYPE F F F
COUNT 1 1 1
WIDTH 356
HEIGHT 1
VIEWPOINT 0 0 0 1 0 0 0
POINTS 356
DATA ascii
-0.017626304 -0.02461841 0.18116635
-0.014951677 -0.026520317 0.18128902
-0.011496885 -0.0269747 0.18039268
-0.014256976 -0.02748438 0.17651096
-0.012661256 -0.028192185 0.1761483
-0.019989431 -0.01834977 0.18395776
-0.016647253 -0.020282049 0.18434715
-0.013228681 -0.021943375 0.18408269
-0.0090221968 -0.023464726 0.18288794
-0.0043538795 -0.024685824 0.18299001
-0.00050444994 -0.026149472 0.18288445
-0.021268567 -0.021011135 0.18054092
-0.018961366 -0.023185158 0.18066493
-0.015369523 -0.023929674 0.18268377
-0.0096014356 -0.026997413 0.18026501
-0.0058409325 -0.028217131 0.17964515
-0.0018779039 -0.029045112 0.17978945
0.0022226423 -0.029487718 0.17872974
-0.02395069 -0.019732606 0.17640319
-0.021708537 -0.021603081 0.17553198
-0.018666958 -0.024148207 0.17484739
-0.015819872 -0.026704621 0.17534363
-0.010761246 -0.028877556 0.17516434
-0.0065074735 -0.029299408 0.17422885
-0.0026081381 -0.030296985 0.17450395
0.0012907935 -0.030575231 0.17375404
-0.018832743 -0.024545211 0.17021492
-0.015865125 -0.027304504 0.17055556
-0.011637112 -0.029181058 0.17039931
-0.0069861491 -0.029994823 0.16938165
-0.0032008998 -0.030794896 0.16887683
-0.018318787 -0.025910862 0.16677776
-0.016135436 -0.027896497 0.16578472
-0.012339512 -0.029946493 0.16583264
-0.0082156854 -0.03078169 0.16483516
-0.015592027 -0.029288949 0.16265023
-0.013751868 -0.030033197 0.16253349
-0.01471462 -0.01470327 0.18420294
-0.010806629 -0.016537014 0.18365961
-0.0070252968 -0.017821435 0.18325993
-0.0029307986 -0.02011444 0.18340626
0.0016195481 -0.021316865 0.18316031
-0.010429706 -0.019048439 0.18333665
-0.0079704942 -0.020043578 0.18317938
-0.0049872356 -0.021513697 0.18315816
-0.022197029 -0.020248143 0.17251006
-0.021900987 -0.020859167 0.16884735
-0.019600075 -0.023889327 0.16767311
-0.0016861074 -0.030858016 0.16634613
0.0015242537 -0.030189117 0.16664571
-0.021638844 -0.021301258 0.16291574
-0.019327316 -0.024115007 0.1638236
-0.01728916 -0.026515411 0.16316271
-0.0060080756 -0.030534055 0.16299373
-0.0029951083 -0.030252606 0.16269499
0.0011720071 -0.030157072 0.16174155
-0.021520577 -0.022443013 0.15995789
-0.019027157 -0.024499906 0.15928745
-0.016408432 -0.027028477 0.15928948
-0.012518444 -0.028975481 0.15900514
-0.0084945858 -0.029618854 0.15900809
-0.0041425931 -0.029228292 0.15868759
-0.015568404 -0.026784837 0.15535426
-0.013085823 -0.02775415 0.15517277
-0.012897763 -0.011881468 0.18427002
-0.009135494 -0.012499324 0.18326986
-0.0055896309 -0.014443642 0.18336767
-0.0015835441 -0.016234685 0.1830897
-0.022621235 -0.018650524 0.16514027
0.0019947281 -0.030230263 0.15913266
-0.022637194 -0.020863567 0.15765747
-0.01997713 -0.023018681 0.15673125
-0.0059377421 -0.02865454 0.15581232
-0.0023755468 -0.028695038 0.15562147
0.0012638671 -0.029965909 0.15548405
-0.021579199 -0.021798443 0.15301526
-0.01934818 -0.023865424 0.15298933
-0.016366158 -0.026210418 0.15283337
-0.012218837 -0.027646711 0.15240166
-0.008207568 -0.027938806 0.15174678
-0.0049411329 -0.027925035 0.15107301
-0.018649669 -0.024764542 0.14846861
-0.016524795 -0.026602861 0.14809027
-0.012862418 -0.028259994 0.14798412
-0.0096484218 -0.028358603 0.14739799
-0.015709968 -0.027710857 0.14389995
-0.013829559 -0.028419517 0.14374417
-0.0066030915 -0.0064337207 0.18318436
-0.0030848749 -0.0085353022 0.1833863
0.00084392028 -0.0095956251 0.18280035
-0.0075593158 -0.0087119034 0.18309724
-0.0040189801 -0.010725266 0.18323821
-0.00010696426 -0.011796999 0.18266356
-0.020288654 -0.021830279 0.14978153
-0.0022387756 -0.027894445 0.14941162
0.0015246049 -0.028912684 0.1490531
-0.023003943 -0.019562479 0.1455335
-0.019859154 -0.022938093 0.14638823
-0.0077316342 -0.028356092 0.14587942
-0.0037873676 -0.028548213 0.14518121
0.00066980254 -0.02855419 0.14372247
-0.022312455 -0.020560827 0.14205018
-0.019727809 -0.023554558 0.14162785
-0.016975842 -0.026061287 0.14195004
-0.012559628 -0.028311975 0.14152104
-0.0089187529 -0.028671017 0.14124534
-0.0047726571 -0.029174238 0.14014077
-0.0013185954 -0.0292973 0.13938704
-0.016361985 -0.026036404 0.13772759
-0.012955073 -0.027836347 0.13663244
-0.0094227493 -0.029408202 0.13627744
-0.0057323519 -0.029911347 0.13595912
-0.0024630819 -0.03032743 0.13636258
-0.0090011265 -0.029816592 0.13262197
-0.0015840732 -0.0050002886 0.18344074
0.0022756783 -0.028921744 0.14189106
-0.020779002 -0.021782504 0.13859302
0.0015146323 -0.029058855 0.13756222
-0.02211407 -0.019882303 0.13515311
-0.019644171 -0.022149876 0.13464561
-0.016779333 -0.025146527 0.13466278
-0.014324631 -0.026955955 0.13434315
-0.0044457898 -0.030163173 0.13378102
-0.00068795774 -0.029837172 0.13323116
-0.019196428 -0.022439245 0.13087556
-0.016390936 -0.024986228 0.13036823
-0.013078147 -0.027083123 0.13016942
-0.0097911935 -0.029226664 0.13001734
-0.0056170966 -0.030277444 0.12983167
-0.0015510889 -0.030433616 0.12963086
-0.012475678 -0.027015148 0.12606847
-0.0094508026 -0.028583465 0.12613493
-0.0067919833 -0.029234372 0.12565303
-0.019818477 -0.021319745 0.12780669
-0.016996916 -0.023857459 0.12728918
-0.00062303059 -0.029579882 0.12607694
-0.019403938 -0.021522421 0.12321678
-0.016846752 -0.024947394 0.12419397
-0.013355577 -0.026621982 0.12362093
-0.0094487546 -0.028307373 0.12304187
-0.0053790961 -0.029622633 0.12326258
-0.0010030493 -0.029268742 0.12164563
0.0020371815 -0.029195338 0.12241888
-0.017129174 -0.025558036 0.11920005
-0.01347735 -0.026938895 0.11865658
-0.0096339099 -0.027845245 0.1184817
-0.0057675657 -0.028868973 0.11873406
-0.0027206298 -0.029552957 0.11861587
-0.017032282 -0.026184507 0.11454445
-0.013636022 -0.026953021 0.1148448
0.0021536108 0.0038369577 0.18322492
-0.020962911 -0.01943901 0.12158728
-0.02046366 -0.020452231 0.11730659
-0.018187802 -0.023783734 0.11606646
-0.0085978685 -0.02737738 0.1152513
-0.0047633704 -0.02779467 0.11493146
-0.00078227557 -0.02870097 0.11507517
-0.02013577 -0.021419801 0.11220324
-0.017904025 -0.024826709 0.11207652
-0.013619832 -0.026613556 0.11165535
-0.0094076116 -0.027203117 0.11151731
-0.0054483172 -0.027882619 0.11112595
-0.001338318 -0.028375536 0.11088699
0.0024632597 -0.02923358 0.1125772
-0.017342929 -0.024941001 0.1074236
-0.01392094 -0.026405718 0.1072728
-0.0098898718 -0.027075633 0.10719335
-0.00060050981 0.0078975987 0.18344402
0.0030923677 0.0060322937 0.18343419
-0.021788053 -0.01974782 0.11120582
-0.0045410488 -0.02777262 0.1081866
-0.0011947285 -0.028732797 0.10865754
-0.021034349 -0.020454075 0.10653293
-0.017455526 -0.024408948 0.10452735
-0.013112847 -0.026503982 0.10451978
-0.0095408699 -0.027621498 0.1048311
-0.0058619776 -0.028437242 0.10550785
-0.0011018664 -0.028748423 0.10512578
-0.019925766 -0.02201836 0.10211957
-0.017725017 -0.024755694 0.10161102
-0.014258051 -0.027160268 0.10152
-0.010383125 -0.028562643 0.10114986
-0.0060829641 -0.028998127 0.10085249
-0.0021311995 -0.029157851 0.10113275
0.0016249139 -0.028587876 0.10059524
-0.018205388 -0.02425346 0.097108305
-0.014371342 -0.026947888 0.096447766
-0.010733007 -0.028250216 0.096286714
-0.0058900388 -0.028897982 0.09654218
-0.014247327 -0.027228415 0.093144417
-0.021491721 -0.018702921 0.099385619
-0.00024102535 -0.028031752 0.097561002
-0.021294381 -0.019391792 0.094787776
-0.018769767 -0.021953048 0.093683481
-0.008655211 -0.027386919 0.093619764
-0.0056835148 -0.02740485 0.092498779
-0.0013578143 -0.027959296 0.093281031
-0.020865148 -0.020340122 0.090707302
-0.017767999 -0.023311839 0.090324521
-0.01453866 -0.025981795 0.089567423
-0.010158453 -0.027058115 0.08994031
-0.0059031839 -0.027604125 0.088741183
-0.002252047 -0.028640296 0.088450193
-0.017283767 -0.024518859 0.085978627
-0.014359009 -0.026299635 0.085190296
-0.010781452 -0.027622301 0.084869266
-0.0073261829 -0.028258543 0.085131347
-0.022182886 -0.019121144 0.087983847
-0.01946995 -0.021507686 0.087757289
-0.00047408603 -0.02890693 0.086689174
0.0025175577 -0.029025197 0.086636841
-0.022057328 -0.020005845 0.083522797
-0.019304942 -0.022647955 0.083660245
-0.016410146 -0.02511381 0.082764864
-0.0094031049 -0.02817056 0.082512498
-0.0059509655 -0.028384512 0.082686543
-0.0023299344 -0.029375197 0.082751989
0.0020289598 -0.029326256 0.081273615
-0.018958615 -0.022960234 0.078639865
-0.015399186 -0.025934754 0.078996122
-0.01097 -0.027981507 0.078931212
-0.006903762 -0.028602066 0.078097284
-0.0026381314 -0.029728584 0.078106999
0.00040213391 -0.029742293 0.077943802
-0.014784298 -0.025859201 0.074636698
-0.011258295 -0.027330281 0.073947668
-0.022456203 -0.018515715 0.077162027
-0.0198295 -0.021779086 0.076325357
-0.0049164398 -0.027671706 0.074275255
-0.0029629935 -0.0284344 0.074132502
0.0027735 -0.028845645 0.075610518
-0.02239392 -0.018905159 0.072501183
-0.019283768 -0.021327611 0.072098911
-0.015943905 -0.023845986 0.071907759
-0.012318574 -0.026900502 0.071261764
-0.0068868082 -0.026684018 0.071180582
-0.002281046 -0.027345346 0.070345044
0.0018776041 -0.028222831 0.070694149
-0.021789862 -0.020185314 0.06863755
-0.019263577 -0.02185302 0.06755209
-0.0159807 -0.024438206 0.067809343
-0.012592549 -0.027182736 0.067282677
-0.0080707464 -0.027308885 0.067050517
-0.004509504 -0.0275093 0.066211104
-0.016165903 -0.025191808 0.063583374
-0.012825601 -0.027299214 0.062520862
-0.0091860015 -0.028356653 0.06289351
-0.00049937423 -0.027642105 0.068424225
-0.022616133 -0.018974811 0.066317201
-0.020212319 -0.021509532 0.065001249
-0.0025615818 -0.027679499 0.064652085
0.00077419262 -0.027491502 0.063939512
-0.019340945 -0.021661492 0.061891973
-0.016679153 -0.02446858 0.060397625
-0.007689219 -0.028210249 0.060107648
-0.0042719124 -0.02758001 0.059874892
-0.016131219 -0.024682656 0.057252645
-0.012807046 -0.026775368 0.057165504
-0.008798345 -0.027379999 0.056264639
0.0025105067 -0.027275212 0.060746253
-0.019593086 -0.020203441 0.057971537
-0.0020297803 -0.026855346 0.058070481
0.0010648007 -0.0268446 0.057855964
-0.019552503 -0.02110935 0.054303169
-0.016501097 -0.02357305 0.053654313
-0.012514408 -0.025719265 0.053033888
-0.0079398137 -0.026687365 0.052521586
-0.003407002 -0.026643828 0.053696573
0.00083109457 -0.027020585 0.05289793
-0.022288535 -0.019434504 0.050593972
-0.020194689 -0.021171933 0.049584568
-0.016433209 -0.023771327 0.049832702
-0.012599019 -0.02563229 0.049865007
-0.0085166302 -0.02685428 0.049246967
-0.0043910211 -0.026865868 0.049316108
-0.00094451383 -0.027288729 0.049669802
-0.019841142 -0.022308564 0.0457775
-0.016787814 -0.02415056 0.04506731
-0.012874086 -0.0258293 0.044911623
-0.0088716466 -0.027279131 0.044521391
-0.0061356262 -0.028078696 0.044088006
-0.016687471 -0.025439339 0.041942298
-0.013551493 -0.027062191 0.041008413
-0.009962461 -0.027727237 0.041155457
-0.0028099609 -0.02657377 0.046324968
0.00095777772 -0.026690222 0.046021819
-0.020858891 -0.021160753 0.043307662
-0.0035515176 -0.027374081 0.042412877
0.00034353323 -0.026770189 0.040889978
-0.020126522 -0.02163991 0.038635671
-0.017479543 -0.024667036 0.03888166
-0.013565914 -0.026790006 0.037609816
-0.0090741096 -0.027721826 0.038067579
-0.005020373 -0.02737738 0.03739053
-0.016869325 -0.024196923 0.034051418
-0.013266677 -0.025707604 0.033348501
-0.009097687 -0.026902867 0.033724546
0.0011482472 -0.02702355 0.038058639
-0.02100691 -0.02039344 0.036142766
-0.0035774396 -0.026837338 0.034551144
0.00019637775 -0.027219592 0.035441935
-0.022866648 -0.018856887 0.032370687
-0.02079647 -0.020856805 0.032663822
-0.017724678 -0.023261765 0.031986117
-0.0090233935 -0.026523044 0.031229377
-0.0044977036 -0.027440475 0.031667292
-0.00032389164 -0.027632399 0.030966878
-0.020659711 -0.021070778 0.027608573
-0.017378889 -0.023912974 0.028150797
-0.01343675 -0.025625436 0.028017223
-0.0092947716 -0.026362747 0.027195573
-0.0048462241 -0.027369164 0.027022362
-0.00035499036 -0.027836677 0.026619196
-0.016758274 -0.024445871 0.023365974
-0.013988782 -0.025586396 0.023395956
0.0014769016 -0.027322596 0.027534902
-0.021324178 -0.019889306 0.024073005
-0.007283099 -0.025455415 0.023121774
-0.0045307782 -0.026322562 0.022734463
-0.00039271079 -0.027228521 0.023945689
-0.020437939 -0.020294223 0.021368325
-0.017783962 -0.022870744 0.020226836
-0.013237675 -0.025151918 0.01977855
-0.0091465414 -0.025405481 0.019827425
-0.0045644953 -0.026140101 0.019350529
-0.00024581421 -0.027087582 0.019449413
-0.017268557 -0.023202125 0.015840888
-0.013711028 -0.025176326 0.015897691
-0.0095744999 -0.025741337 0.015288413
-0.0060117729 -0.025599955 0.016235352
-0.013837289 -0.025182921 0.01270473
-0.021013869 -0.018547496 0.018416643
0.00040818751 -0.026656732 0.01734221
-0.020603307 -0.019018602 0.01432693
-0.018679071 -0.021897271 0.013954163
-0.0076587014 -0.025549732 0.013641
-0.0045965123 -0.026233677 0.01376462
-0.00051285792 -0.027249647 0.013210416
-0.020292621 -0.019988779 0.0089790821
-0.017585851 -0.022626204 0.0097967386
-0.013845976 -0.024886681 0.0091712475
-0.0097151911 -0.026335536 0.0098073483
-0.0053055952 -0.026995789 0.0085083246
-0.0010493044 -0.027608197 0.0075044632
-0.020516377 -0.021593833 0.0046476722
-0.018007223 -0.023587897 0.0045853257
-0.014408032 -0.025808072 0.0048055649
-0.01036197 -0.026916746 0.0043454766
-0.0059655481 -0.02725789 0.004116416
-0.017107261 -0.024306791 0.00019609928
-0.014641862 -0.025930863 8.5771084e-05
-0.021677189 -0.018383171 0.0076625347
-0.021700336 -0.018162837 0.0026368499
-0.0047940924 -0.027127866 0.0018391609
-0.0010145567 -0.026851112 0.0016922355
-0.018654373 -0.022841282 -0.0012339354
