# .PCD v0.7 - Point Cloud Data file format
VERSION 0.7
FIELDS x y z
SIZE 4 4 4
TYPE F F F
COUNT 1 1 1
WIDTH 356
HEIGHT 1
VIEWPOINT 0 0 0 1 0 0 0
POINTS 356
DATA ascii
-0.02056402 -0.028721478 0.18116635
-0.017443622 -0.030940369 0.18128902
-0.013413033 -0.031470485 0.18039268
-0.016633138 -0.032065108 0.17651096
-0.014771465 -0.032890882 0.1761483
-0.023320999 -0.021408066 0.18395776
-0.019421797 -0.02366239 0.18434715
-0.01543346 -0.025600605 0.18408269
-0.010525897 -0.027375516 0.18288794
-0.0050795251 -0.028800128 0.18299001
-0.00058852602 -0.030507715 0.18288445
-0.024813328 -0.024512991 0.18054092
-0.022121593 -0.02704935 0.18066493
-0.017931111 -0.027917951 0.18268377
-0.011201675 -0.031496983 0.18026501
-0.0068144216 -0.032919984 0.17964515
-0.002190887 -0.033885963 0.17978945
0.0025930824 -0.034402333 0.17872974
-0.027942473 -0.023021374 0.17640319
-0.025326628 -0.025203593 0.17553198
-0.021778118 -0.028172908 0.17484739
-0.018456517 -0.031155393 0.17534363
-0.012554787 -0.033690482 0.17516434
-0.0075920518 -0.034182642 0.17422885
-0.0030428283 -0.035346482 0.17450395
0.0015059263 -0.035671104 0.17375404
-0.021971531 -0.028636076 0.17021492
-0.018509313 -0.031855259 0.17055556
-0.013576631 -0.034044567 0.17039931
-0.0081505077 -0.034993958 0.16938165
-0.0037343828 -0.035927378 0.16887683
-0.021371918 -0.030229339 0.16677776
-0.018824676 -0.032545913 0.16578472
-0.014396098 -0.034937575 0.16583264
-0.0095849652 -0.03591197 0.16483516
-0.018190697 -0.034170441 0.16265023
-0.016043846 -0.035038728 0.16253349
-0.017167058 -0.017153814 0.18420294
-0.012607735 -0.019293185 0.18365961
-0.0081961798 -0.020791672 0.18325993
-0.0034192647 -0.023466848 0.18340626
0.0018894719 -0.024869675 0.18316031
-0.012167991 -0.02222318 0.18333665
-0.0092989095 -0.023384172 0.18317938
-0.0058184415 -0.025099311 0.18315816
-0.025896534 -0.023622833 0.17251006
-0.025551151 -0.024335695 0.16884735
-0.022866756 -0.027870882 0.16767311
-0.0019671265 -0.036001019 0.16634613
0.0017782962 -0.035220638 0.16664571
-0.02524532 -0.024851471 0.16291574
-0.022548534 -0.028134171 0.1638236
-0.020170685 -0.030934645 0.16316271
-0.0070094205 -0.035623066 0.16299373
-0.0034942925 -0.035294704 0.16269499
0.0013673417 -0.035183251 0.16174155
-0.025107343 -0.026183516 0.15995789
-0.022198349 -0.028583225 0.15928745
-0.019143172 -0.031533223 0.15928948
-0.014604852 -0.033804726 0.15900514
-0.0099103497 -0.034555327 0.15900809
-0.0048330249 -0.034099672 0.15868759
-0.018163137 -0.031248977 0.15535426
-0.015266793 -0.032379843 0.15517277
-0.015047392 -0.013861712 0.18427002
-0.010658076 -0.014582545 0.18326986
-0.0065212357 -0.016850915 0.18336767
-0.0018474679 -0.018940464 0.1830897
-0.026391439 -0.021758946 0.16514027
0.0023271833 -0.035268638 0.15913266
-0.02641006 -0.024340823 0.15765747
-0.023306653 -0.026855126 0.15673125
-0.0069273659 -0.033430297 0.15581232
-0.0027714698 -0.033477545 0.15562147
0.0014745127 -0.034960225 0.15548405
-0.025175732 -0.025431516 0.15301526
-0.022572877 -0.027842997 0.15298933
-0.019093851 -0.030578818 0.15283337
-0.01425531 -0.032254495 0.15240166
-0.0095754955 -0.032595273 0.15174678
-0.0057646544 -0.032579206 0.15107301
-0.021757949 -0.028891966 0.14846861
-0.019278929 -0.031036671 0.14809027
-0.015006154 -0.032969996 0.14798412
-0.011256492 -0.033085033 0.14739799
-0.018328294 -0.032329328 0.14389995
-0.016134486 -0.033156101 0.14374417
-0.007703607 -0.0075060064 0.18318436
-0.0035990207 -0.0099578537 0.1833863
0.00098457397 -0.011194898 0.18280035
-0.008819202 -0.010163887 0.18309724
-0.0046888101 -0.012512811 0.18323821
-0.00012479164 -0.013763165 0.18266356
-0.023670096 -0.025468659 0.14978153
-0.0026119053 -0.032543518 0.14941162
0.001778706 -0.033731464 0.1490531
-0.026837934 -0.022822894 0.1455335
-0.023169011 -0.026761109 0.14638823
-0.0090202391 -0.033082105 0.14587942
-0.0044185957 -0.033306245 0.14518121
0.00078143738 -0.033313222 0.14372247
-0.026031196 -0.023987629 0.14205018
-0.023015779 -0.027480315 0.14162785
-0.019805148 -0.030404836 0.14195004
-0.0146529 -0.03303064 0.14152104
-0.010405212 -0.033449519 0.14124534
-0.0055680997 -0.03403661 0.14014077
-0.0015383605 -0.034180183 0.13938704
-0.019088984 -0.030375805 0.13772759
-0.015114252 -0.032475736 0.13663244
-0.010993207 -0.034309566 0.13627744
-0.0066877445 -0.034896571 0.13595912
-0.0028735949 -0.035382003 0.13636258
-0.010501314 -0.034786023 0.13262197
-0.0018480853 -0.00583367 0.18344074
0.0026549576 -0.033742033 0.14189106
-0.02424217 -0.025412921 0.13859302
0.0017670719 -0.033901997 0.13756222
-0.025799748 -0.023196023 0.13515311
-0.0229182 -0.025841523 0.13464561
-0.019575888 -0.029337615 0.13466278
-0.016712068 -0.031448614 0.13434315
-0.0051867543 -0.035190366 0.13378102
-0.00080261659 -0.034810033 0.13323116
-0.022395834 -0.026179118 0.13087556
-0.019122759 -0.029150598 0.13036823
-0.015257838 -0.031596977 0.13016942
-0.011423061 -0.034097772 0.13001734
-0.0065532802 -0.035323683 0.12983167
-0.0018096035 -0.035505883 0.12963086
-0.014554958 -0.031517673 0.12606847
-0.011025936 -0.033347376 0.12613493
-0.0079239812 -0.034106765 0.12565303
-0.023121558 -0.024873037 0.12780669
-0.019829737 -0.027833704 0.12728918
-0.00072687026 -0.034509864 0.12607694
-0.02263793 -0.025109492 0.12321678
-0.019654542 -0.029105293 0.12419397
-0.015581507 -0.031058978 0.12362093
-0.011023548 -0.033025268 0.12304187
-0.0062756124 -0.034559738 0.12326258
-0.0011702245 -0.034146868 0.12164563
0.002376711 -0.034061227 0.12241888
-0.019984037 -0.02981771 0.11920005
-0.015723575 -0.03142871 0.11865658
-0.011239561 -0.032486118 0.1184817
-0.006728827 -0.033680465 0.11873406
-0.0031740675 -0.034478452 0.11861587
-0.019870996 -0.030548589 0.11454445
-0.015908692 -0.03144519 0.1148448
0.0025125458 0.0044764504 0.18322492
-0.024456728 -0.022678843 0.12158728
-0.02387427 -0.023860937 0.11730659
-0.021219103 -0.027747689 0.11606646
-0.010030847 -0.031940278 0.1152513
-0.0055572647 -0.032427114 0.11493146
-0.00091265514 -0.033484466 0.11507517
-0.023491733 -0.024989769 0.11220324
-0.020888029 -0.028964492 0.11207652
-0.015889805 -0.031049149 0.11165535
-0.010975547 -0.031736966 0.11151731
-0.0063563697 -0.032529723 0.11112595
-0.0015613707 -0.033104792 0.11088699
0.0028738044 -0.034105845 0.1125772
-0.020233417 -0.029097838 0.1074236
-0.016241096 -0.03080667 0.1072728
-0.011538184 -0.031588238 0.10719335
-0.00070059462 0.0092138648 0.18344402
0.0036077623 0.0070376759 0.18343419
-0.025419395 -0.023039119 0.11120582
-0.0052978899 -0.03240139 0.1081866
-0.00139385 -0.033521596 0.10865754
-0.024540074 -0.023863085 0.10653293
-0.020364782 -0.028477108 0.10452735
-0.015298321 -0.030921312 0.10451978
-0.011131015 -0.032225084 0.1048311
-0.0068389741 -0.033176783 0.10550785
-0.0012855111 -0.033539828 0.10512578
-0.023246724 -0.025688088 0.10211957
-0.020679187 -0.028881643 0.10161102
-0.016634393 -0.031686977 0.10152
-0.012113647 -0.033323083 0.10114986
-0.0070967902 -0.033831146 0.10085249
-0.0024863984 -0.034017492 0.10113275
0.0018957332 -0.03335252 0.10059524
-0.02123962 -0.028295701 0.097108305
-0.016766565 -0.0314392 0.096447766
-0.012521842 -0.032958586 0.096286714
-0.0068717129 -0.033714313 0.09654218
-0.016621882 -0.031766482 0.093144417
-0.025073675 -0.021820076 0.099385619
-0.00028119702 -0.032703709 0.097561002
-0.024843443 -0.022623757 0.094787776
-0.021898063 -0.025611889 0.093683481
-0.010097746 -0.031951405 0.093619764
-0.0066307667 -0.031972326 0.092498779
-0.0015841164 -0.032619178 0.093281031
-0.024342673 -0.023730144 0.090707302
-0.020729333 -0.027197145 0.090324521
-0.016961768 -0.030312097 0.089567423
-0.011851528 -0.031567801 0.08994031
-0.0068870485 -0.032204814 0.088741183
-0.0026273886 -0.033413678 0.088450193
-0.020164395 -0.028605334 0.085978627
-0.016752178 -0.030682908 0.085190296
-0.012578361 -0.032226022 0.084869266
-0.0085472139 -0.032968298 0.085131347
-0.025880031 -0.022308001 0.087983847
-0.022714943 -0.025092302 0.087757289
-0.00055309944 -0.033724751 0.086689174
0.0029371511 -0.033862729 0.086636841
-0.025733549 -0.023340153 0.083522797
-0.022522433 -0.026422612 0.083660245
-0.019145172 -0.029299442 0.082764864
-0.010970289 -0.032865655 0.082512498
-0.0069427933 -0.033115264 0.082686543
-0.0027182568 -0.034271061 0.082751989
0.0023671193 -0.034213964 0.081273615
-0.022118384 -0.02678694 0.078639865
-0.017965715 -0.03025721 0.078996122
-0.012798334 -0.032645091 0.078931212
-0.0080543905 -0.033369076 0.078097284
-0.0030778199 -0.03468335 0.078106999
0.00046915654 -0.034699339 0.077943802
-0.017248347 -0.03016907 0.074636698
-0.013134677 -0.03188533 0.073947668
-0.026198903 -0.021601666 0.077162027
-0.023134416 -0.025408935 0.076325357
-0.0057358467 -0.032283656 0.074275255
-0.0034568263 -0.033173468 0.074132502
0.0032357508 -0.033653252 0.075610518
-0.026126239 -0.022056019 0.072501183
-0.022497728 -0.024882212 0.072098911
-0.018601222 -0.027820315 0.071907759
-0.014371669 -0.031383917 0.071261764
-0.0080346093 -0.031131353 0.071180582
-0.0026612198 -0.031902902 0.070345044
0.0021905378 -0.032926638 0.070694149
-0.025421504 -0.023549533 0.06863755
-0.022474173 -0.02549519 0.06755209
-0.01864415 -0.028511239 0.067809343
-0.014691307 -0.031713195 0.067282677
-0.0094158705 -0.031860366 0.067050517
-0.0052610892 -0.032094184 0.066211104
-0.018860219 -0.029390439 0.063583374
-0.0149632 -0.031849086 0.062520862
-0.010717002 -0.033082761 0.06289351
-0.00058260374 -0.032249123 0.068424225
-0.02638549 -0.022137279 0.066317201
-0.023581039 -0.025094451 0.065001249
-0.0029885126 -0.032292746 0.064652085
0.00090322457 -0.03207342 0.063939512
-0.022564435 -0.02527174 0.061891973
-0.019459013 -0.028546678 0.060397625
-0.0089707561 -0.032911956 0.060107648
-0.0049838978 -0.032176677 0.059874892
-0.018819755 -0.028796434 0.057252645
-0.014941554 -0.031237928 0.057165504
-0.010264736 -0.031943332 0.056264639
0.0029289247 -0.03182108 0.060746253
-0.022858599 -0.023570679 0.057971537
-0.0023680776 -0.031331234 0.058070481
0.001242267 -0.031318702 0.057855964
-0.022811253 -0.024627574 0.054303169
-0.01925128 -0.027501892 0.053654313
-0.014600141 -0.030005809 0.053033888
-0.009263115 -0.031135259 0.052521586
-0.0039748359 -0.031084465 0.053696573
0.00096960925 -0.031524017 0.05289793
-0.02600329 -0.022673588 0.050593972
-0.02356047 -0.024700589 0.049584568
-0.019172076 -0.027733214 0.049832702
-0.014698856 -0.029904338 0.049865007
-0.0099360673 -0.031329993 0.049246967
-0.0051228586 -0.031343512 0.049316108
-0.0011019334 -0.031836849 0.049669802
-0.023147997 -0.026026657 0.0457775
-0.019585785 -0.028175652 0.04506731
-0.015019767 -0.030134184 0.044911623
-0.010350253 -0.03182565 0.044521391
-0.007158231 -0.032758478 0.044088006
-0.019468717 -0.029679229 0.041942298
-0.015810074 -0.031572554 0.041008413
-0.011622872 -0.032348443 0.041155457
-0.0032782871 -0.031002728 0.046324968
0.0011174064 -0.031138595 0.046021819
-0.024335373 -0.024687545 0.043307662
-0.0041434374 -0.031936426 0.042412877
0.00040078908 -0.031231888 0.040889978
-0.023480941 -0.025246561 0.038635671
-0.0203928 -0.028778207 0.03888166
-0.0158269 -0.031255007 0.037609816
-0.010586459 -0.032342128 0.038067579
-0.0058571016 -0.031940274 0.03739053
-0.01968088 -0.028229745 0.034051418
-0.01547779 -0.029992206 0.033348501
-0.010613969 -0.031386681 0.033724546
0.0013396218 -0.031527478 0.038058639
-0.024508061 -0.023792347 0.036142766
-0.0041736793 -0.031310227 0.034551144
0.00022910722 -0.031756189 0.035441935
-0.026677756 -0.021999702 0.032370687
-0.024262549 -0.024332941 0.032663822
-0.02067879 -0.027138725 0.031986117
-0.010527294 -0.030943552 0.031229377
-0.0052473205 -0.032013889 0.031667292
-0.00037787296 -0.032237798 0.030966878
-0.024102997 -0.024582576 0.027608573
-0.020275371 -0.027898468 0.028150797
-0.01567621 -0.029896341 0.028017223
-0.010843899 -0.030756539 0.027195573
-0.0056539285 -0.031930689 0.027022362
-0.00041415542 -0.03247612 0.026619196
-0.019551322 -0.028520182 0.023365974
-0.016320245 -0.029850798 0.023395956
0.0017230529 -0.031876363 0.027534902
-0.024878208 -0.023204193 0.024073005
-0.0084969494 -0.029697984 0.023121774
-0.005285908 -0.030709656 0.022734463
-0.00045816135 -0.031766608 0.023945689
-0.023844261 -0.023676597 0.021368325
-0.020747956 -0.026682533 0.020226836
-0.015443955 -0.029343903 0.01977855
-0.010670964 -0.029639728 0.019827425
-0.0053252447 -0.030496784 0.019350529
-0.00028678309 -0.031602178 0.019449413
-0.020146651 -0.027069148 0.015840888
-0.015996199 -0.029372381 0.015897691
-0.01117025 -0.030031558 0.015288413
-0.0070137354 -0.029866613 0.016235352
-0.016143505 -0.029380074 0.01270473
-0.02451618 -0.021638744 0.018416643
0.00047621783 -0.031099521 0.01734221
-0.02403719 -0.022188369 0.01432693
-0.021792248 -0.025546817 0.013954163
-0.0089351516 -0.029808022 0.013641
-0.0053625982 -0.030605955 0.01376462
-0.00059833471 -0.031791255 0.013210416
-0.023674725 -0.023320241 0.0089790821
-0.020516828 -0.026397239 0.0097967386
-0.016153637 -0.02903446 0.0091712475
-0.011334389 -0.03072479 0.0098073483
-0.0061898613 -0.031495087 0.0085083246
-0.0012241872 -0.03220956 0.0075044632
-0.023935772 -0.025192805 0.0046476722
-0.021008426 -0.027519215 0.0045853257
-0.01680937 -0.030109415 0.0048055649
-0.012088966 -0.031402871 0.0043454766
-0.0069598057 -0.031800874 0.004116416
-0.01995847 -0.028357925 0.00019609928
-0.017082173 -0.030252675 8.5771084e-05
-0.025290051 -0.021447033 0.0076625347
-0.025317058 -0.021189976 0.0026368499
-0.0055931071 -0.031649176 0.0018391609
-0.0011836505 -0.031326298 0.0016922355
-0.021763436 -0.02664816 -0.0012339354
