# .PCD v0.7 - Point Cloud Data file format
VERSION 0.7
FIELDS x y z
SIZE 4 4 4
TYPE F F F
COUNT 1 1 1
WIDTH 446
HEIGHT 1
VIEWPOINT 0 0 0 1 0 0 0
POINTS 446
DATA ascii
0.029945202 0.025852758 0.18141153
0.027231768 0.02877583 0.18168432
0.024283905 0.030973732 0.18082348
0.03185172 0.026710566 0.17872331
0.029040348 0.030189291 0.17918363
0.025036734 0.032432601 0.17854977
0.03399504 0.028409014 0.17542642
0.031438291 0.032227643 0.17524365
0.026340675 0.032666091 0.1753062
0.03465366 0.029330907 0.17116454
0.032369427 0.032995105 0.17004257
0.016720003 0.028037926 0.18322888
0.013515815 0.031349421 0.18306577
0.033383135 0.016173549 0.17994788
0.031465322 0.01894315 0.1808562
0.028952375 0.022449248 0.18155697
0.024571333 0.025997296 0.18251008
0.021120297 0.030290851 0.18197843
0.01720937 0.032654144 0.18084279
0.01364213 0.033465482 0.1803799
0.034765787 0.017395489 0.17749643
0.034014903 0.021015143 0.17774272
0.0322286 0.024168938 0.17865297
0.023019128 0.033272538 0.17711478
0.019329302 0.034460191 0.17628142
0.03475453 0.022210559 0.17377183
0.034217935 0.025320135 0.17422372
0.024961354 0.033599079 0.17299068
0.020877436 0.034447636 0.17194727
0.034505311 0.023144495 0.16980189
0.034646016 0.02682744 0.16871977
0.030140854 0.033747107 0.16674453
0.026087247 0.033570856 0.16856426
0.021857463 0.034351427 0.16837877
0.033955179 0.027715182 0.16510996
0.031672437 0.031573545 0.16359249
0.027124908 0.032840531 0.16485095
0.029226262 0.011034767 0.18220329
0.026531097 0.013866488 0.18299204
0.023700736 0.01760722 0.18317965
0.01988478 0.020937141 0.18260577
0.015410302 0.025136566 0.18278766
0.012542681 0.028024673 0.18328923
0.032108661 0.012472504 0.18033034
0.029077627 0.015795615 0.18181419
0.025829516 0.019665476 0.18231133
0.022502609 0.022858862 0.18204215
0.01148687 0.033470582 0.17895451
0.034682676 0.010638336 0.17645681
0.034754731 0.014221507 0.17548209
0.012327752 0.034019027 0.1736272
0.034749825 0.016030889 0.17090589
0.034662221 0.019738991 0.17085624
0.018319398 0.034768857 0.17001432
0.014101669 0.034081198 0.16933993
0.034694061 0.016582044 0.16708452
0.034433652 0.020393835 0.16652864
0.023329468 0.033507749 0.16600072
0.019529097 0.034089617 0.16528875
0.034427255 0.021252858 0.16235059
0.033491172 0.025262462 0.16228119
0.030362507 0.030917408 0.16058633
0.024824018 0.032843579 0.16164103
0.021287667 0.033479128 0.16222429
0.033756547 0.026374698 0.15743881
0.031119537 0.030895673 0.15681466
0.026534798 0.032529119 0.15675694
0.034138579 0.028183796 0.15251729
0.032625128 0.031007929 0.15208215
0.029240852 0.032856371 0.15155125
0.033253372 0.031433187 0.14888424
0.018063303 0.011981919 0.18279842
0.014738329 0.015252525 0.18256116
0.010813482 0.019020081 0.18224362
0.0075827027 0.024058707 0.18321651
0.023718884 0.011062464 0.18325442
0.020822385 0.01476304 0.18339181
0.016525635 0.016994765 0.18227965
0.014020482 0.021033471 0.18183053
0.034625936 0.01276246 0.16863346
0.011897879 0.033981159 0.16638803
0.034824438 0.01519384 0.16434562
0.0166445 0.033281222 0.16167486
0.013144859 0.033644043 0.16220775
0.035040703 0.015877999 0.16003931
0.034057297 0.01870255 0.15939337
0.018260362 0.032520436 0.1584526
0.014228965 0.032963365 0.15848911
0.034945443 0.01603926 0.15589035
0.034183178 0.020310333 0.15579537
0.034183562 0.024043996 0.1553286
0.024101663 0.032793548 0.15484345
0.019925274 0.032278992 0.15408403
0.03431591 0.020996854 0.15156224
0.034228701 0.025361883 0.15089896
0.025716787 0.033606924 0.14994442
0.022188924 0.03369746 0.14981163
0.033736691 0.025954204 0.14665106
0.032449391 0.030419458 0.14520961
0.027480269 0.033144515 0.14481071
0.022588596 0.033902679 0.14637387
0.031497557 0.030710688 0.14141306
0.028445281 0.032778241 0.14092684
0.019467285 0.0067299306 0.1822575
0.015346234 0.009844684 0.18295574
0.012090671 0.012675998 0.18303135
0.0089510726 0.016861595 0.1825375
0.010543372 0.033816185 0.15980843
0.03431711 0.011425876 0.15727621
0.016359542 0.032712035 0.1557326
0.012501567 0.033611383 0.15582067
0.034679931 0.014468267 0.15320122
0.034100719 0.017212056 0.15318823
0.017412195 0.032679584 0.15215409
0.013656642 0.033612311 0.15130931
0.034634043 0.015291598 0.14980394
0.034081113 0.018333718 0.1483835
0.018363375 0.033147153 0.14761284
0.015261116 0.033395231 0.14707911
0.033568975 0.019807901 0.14503169
0.032980129 0.023849078 0.1438047
0.020871326 0.034249585 0.14314705
0.032799311 0.02457376 0.13958678
0.032057807 0.028930873 0.13900518
0.027584601 0.033445213 0.1386666
0.022325289 0.03479271 0.13859037
0.033197176 0.026158316 0.13517174
0.03179308 0.029388547 0.13427639
0.028812254 0.033204895 0.13443404
0.025563076 0.034631725 0.13319266
0.031173797 0.030470857 0.13042372
0.028873505 0.033123832 0.12997156
0.0066863024 0.0079512978 0.1836893
0.0041611427 0.011523048 0.18347931
0.012522168 0.0060212649 0.18259242
0.0092394659 0.009889218 0.18334207
0.0057021119 0.012994567 0.18294078
0.010904058 0.033649288 0.14873171
0.033697467 0.011828545 0.14590156
0.012172563 0.033098966 0.1441626
0.033500064 0.012832388 0.14184368
0.033487726 0.017296698 0.14196825
0.014134145 0.033051863 0.13975257
0.033245999 0.018123168 0.1374431
0.032631952 0.022057209 0.13739651
0.019597383 0.034870759 0.13679609
0.016535282 0.034063358 0.13577402
0.033862144 0.018924842 0.13311145
0.033144854 0.023492754 0.13319242
0.032332443 0.027274411 0.13143954
0.021441091 0.03463411 0.13291374
0.018044144 0.034551244 0.13108462
0.033677306 0.024264665 0.12835851
0.031964328 0.028618647 0.12782738
0.0291596 0.032258727 0.12714362
0.02404809 0.033703376 0.12760311
0.033992045 0.024770858 0.12414044
0.031913642 0.028806562 0.12262657
0.028785741 0.031766046 0.12266162
0.025687577 0.03348837 0.12318459
0.0044882889 0.0048076198 0.18392402
0.010719308 0.032978714 0.13795614
0.033243451 0.011911079 0.13470066
0.033005685 0.014810422 0.13457343
0.012544429 0.033414766 0.13339496
0.033360623 0.01655094 0.13031432
0.014322462 0.034169506 0.12894481
0.033741694 0.018584628 0.12657863
0.034191437 0.022136897 0.12619299
0.021570517 0.034043178 0.12603113
0.017675236 0.034015596 0.12517327
0.033991233 0.019484773 0.12290761
0.033839591 0.022830132 0.12172306
0.033030625 0.027278565 0.12033749
0.027920628 0.032183725 0.11992407
0.023102162 0.033343002 0.12100005
0.019381147 0.033873081 0.12093443
0.033407386 0.024367092 0.11759597
0.032222949 0.028470956 0.11661518
0.029003084 0.031947326 0.11654186
0.024224428 0.033163309 0.11613655
0.031643264 0.029250586 0.11134917
0.029330248 0.031947643 0.11091053
0.026299167 0.033475347 0.11193132
0.00053283363 0.0013812233 0.18428224
0.0326523 0.013945931 0.12728453
0.032189269 0.013945851 0.12318432
0.014713221 0.033861779 0.12228441
0.011568493 0.03413403 0.12169939
0.032748766 0.016856641 0.11905694
0.016299825 0.033601031 0.11790437
0.011839795 0.034223169 0.11801678
0.03261954 0.01761394 0.11546671
0.03380885 0.021620661 0.11561674
0.022410564 0.033520412 0.11435044
0.018224856 0.033987843 0.1138674
0.033040475 0.022860743 0.11072761
0.032359812 0.026764715 0.11068797
0.024100788 0.033737332 0.11012018
0.019784624 0.034226477 0.10920197
0.033283345 0.023823777 0.10568249
0.032672718 0.028036026 0.10669333
0.030102126 0.032136209 0.10583037
0.024580061 0.033684839 0.1055606
0.020934891 0.034598637 0.10562044
0.032285742 0.028234599 0.10241538
0.029767428 0.031260449 0.10104311
0.026487406 0.033129226 0.1021024
-0.0065137041 -0.0055108755 0.18492225
-0.0037116569 -0.0027830882 0.18444845
0.031666264 0.011039114 0.12153596
0.032163098 0.012086707 0.11702335
0.010649326 0.034061398 0.11503398
0.032463219 0.014968927 0.1121574
0.015483754 0.034069642 0.11116129
0.011534965 0.034438729 0.11089808
0.032191209 0.016680842 0.10794204
0.031988826 0.018669577 0.10684103
0.016685423 0.034115858 0.1065622
0.013062167 0.033767447 0.1067552
0.032981798 0.020561727 0.10341185
0.023109317 0.033198282 0.10221267
0.019375291 0.03426433 0.10223198
0.032611147 0.023275236 0.098637462
0.032132741 0.026870485 0.098990619
0.027901731 0.031355135 0.098729312
0.023855397 0.032609411 0.098396242
0.020348227 0.033704177 0.098951221
0.031844053 0.027413908 0.094639242
0.02909885 0.030798987 0.094514787
0.025143309 0.032151878 0.094278336
0.031381581 0.028323224 0.090586901
0.029878139 0.030868366 0.090233147
0.032426652 0.010362767 0.11187345
0.032087911 0.012900479 0.10646462
0.010653317 0.034354966 0.10506469
0.032079287 0.014777472 0.10162812
0.032204498 0.018431483 0.09994787
0.015290163 0.033401247 0.1009146
0.011553471 0.033530172 0.10055345
0.031812295 0.015658544 0.098350644
0.031964786 0.018732393 0.096660793
0.021942539 0.032837406 0.095457435
0.017544415 0.033571452 0.095553815
0.031944085 0.022180982 0.091756225
0.032413442 0.024948165 0.092436492
0.023753455 0.032913148 0.091890454
0.019395927 0.034348555 0.091055155
0.03232345 0.026558561 0.087979257
0.029613145 0.03147475 0.087705195
0.025279302 0.03342367 0.087712526
0.021285985 0.034539539 0.086493969
0.032245398 0.02783451 0.083242536
0.030355548 0.031406779 0.083602309
0.026271714 0.033384368 0.08293128
0.032448899 0.028648017 0.0783602
0.030631702 0.031402472 0.078743219
0.027493306 0.032843281 0.078671932
0.03138895 0.0095535107 0.099065542
0.03151783 0.011910789 0.094727218
0.031231616 0.014758941 0.09359622
0.010672485 0.03310924 0.093234658
0.030947443 0.016544551 0.090337455
0.012158198 0.034037441 0.088793337
0.031497423 0.019090511 0.085930705
0.018329047 0.034658898 0.085160255
0.014082818 0.034596957 0.084304631
0.03131257 0.020159101 0.081678629
0.031405281 0.02396379 0.080344558
0.023650751 0.032532599 0.079294026
0.019250112 0.033958428 0.080170631
0.015309348 0.034698814 0.080631912
0.031655125 0.025473749 0.076232016
0.030614033 0.031208228 0.075606942
0.024642844 0.032500107 0.075673699
0.021093965 0.033283815 0.076178133
0.032293085 0.028115148 0.071920633
0.030366641 0.030774865 0.072194934
0.025875323 0.032778677 0.071622133
0.02964968 0.031019358 0.068853974
0.027750693 0.032547958 0.068543196
0.031515718 0.010717449 0.088002205
0.031283766 0.014397851 0.087435842
0.032564804 0.012181493 0.083410382
0.03191141 0.01535316 0.083751738
0.01122665 0.034799814 0.081868529
0.032474689 0.012726707 0.079187095
0.031979259 0.016827973 0.078993738
0.031156 0.020560626 0.078429639
0.016897216 0.033803165 0.077044964
0.013150027 0.034743793 0.077387929
0.031400863 0.018249219 0.07432282
0.031045651 0.021099104 0.074184537
0.018536204 0.033597592 0.07354629
0.014783718 0.034391284 0.072570145
0.03121501 0.023514779 0.069858074
0.023604222 0.033104278 0.069437146
0.020701984 0.033680096 0.069046617
0.030984221 0.025728663 0.066137195
0.030369317 0.029558191 0.065694094
0.025604468 0.032557677 0.065230072
0.021492096 0.033114627 0.065128207
0.02996164 0.029302729 0.061164498
0.026933543 0.031367179 0.061285734
0.0322445 0.014588573 0.075956404
0.032087028 0.011307532 0.072626472
0.031139243 0.01438542 0.072149575
0.010807323 0.033931132 0.071031809
0.03067936 0.015587427 0.068077505
0.030630132 0.019405087 0.068358064
0.016769132 0.033181205 0.066461682
0.012845851 0.03359003 0.066417813
0.030579548 0.021332301 0.063202024
0.023254225 0.032371014 0.061677337
0.019107819 0.032475457 0.061726391
0.014337244 0.032959446 0.062855184
0.030692855 0.022317598 0.058645606
0.029374462 0.027871072 0.058113396
0.024513133 0.031106461 0.057630301
0.019975508 0.032036994 0.057471871
0.029464517 0.027029961 0.053849995
0.026911678 0.030609077 0.05286324
0.023135785 0.031815864 0.053046703
0.029631184 0.028047705 0.050082624
0.027575998 0.030848807 0.048571408
0.032145701 0.010791143 0.067094445
0.031393856 0.013812009 0.065504789
0.010218651 0.033671223 0.064916492
0.030374808 0.015013216 0.061553776
0.030668728 0.018977057 0.06096077
0.013009533 0.03227675 0.058950484
0.010238344 0.033507638 0.060720444
0.029913738 0.015633602 0.056641996
0.030936787 0.019557076 0.056780517
0.018927576 0.032478094 0.056046903
0.01469606 0.031442598 0.055366516
0.030436166 0.021157984 0.051935256
0.03008212 0.02479375 0.05237639
0.01992189 0.032058321 0.051230073
0.030882157 0.022993989 0.047707081
0.030504849 0.026463527 0.047657728
0.025969742 0.031983688 0.047590137
0.022691257 0.03263744 0.047681868
0.030353136 0.027598865 0.043319404
0.028115682 0.031273525 0.043556511
0.023406073 0.031543132 0.042632401
0.028142221 0.030163474 0.038490534
0.030069649 0.012812323 0.0586797
0.030654881 0.013601668 0.05442977
0.012872026 0.031849068 0.05241251
0.031240437 0.014189735 0.05005765
0.03054885 0.01810387 0.048990607
0.013993287 0.031626295 0.047997773
0.031448856 0.015868986 0.045690238
0.030957306 0.020206353 0.045164347
0.019965136 0.032105442 0.043624282
0.015003689 0.032355461 0.044221878
0.031426899 0.020769022 0.040512562
0.030511558 0.025255296 0.040004373
0.025679909 0.031290237 0.039697766
0.021191042 0.031552281 0.039518714
0.016729861 0.031933226 0.040840983
0.031606734 0.022234935 0.0361709
0.030214187 0.02661974 0.036272287
0.027158085 0.030519623 0.035365999
0.022085741 0.031776499 0.036050737
0.030647971 0.02537303 0.033117056
0.026917782 0.029731795 0.031138182
0.024180237 0.031723931 0.031614363
0.031368695 0.011775009 0.047068715
0.031703331 0.012790757 0.043200731
0.012584232 0.032618515 0.041837692
0.031617437 0.014619931 0.038954318
0.014417769 0.032143705 0.037159324
0.010279193 0.032525484 0.037205279
0.031313755 0.01559029 0.034363687
0.031546209 0.019349143 0.034502506
0.020019114 0.031629402 0.032844067
0.016224878 0.031979062 0.032514572
0.030850818 0.021121388 0.030113876
0.029279817 0.024945136 0.028824985
0.026771219 0.029461781 0.028766155
0.022121221 0.03193742 0.029380739
0.028661681 0.02531427 0.025445461
0.026444716 0.029201346 0.024408281
0.023395281 0.031718548 0.02365756
0.025936434 0.030520363 0.020298064
0.024554286 0.031488463 0.019977331
0.031676333 0.012525258 0.036056101
0.031681914 0.012671153 0.032238722
0.030749783 0.017145727 0.030633092
0.013644784 0.032357909 0.030697048
0.031132203 0.014014069 0.027383447
0.030620765 0.01855896 0.027085125
0.018920461 0.031001216 0.025761485
0.015155137 0.032408424 0.026793003
0.011141454 0.032861207 0.026214957
0.030671198 0.019354243 0.023286223
0.028807754 0.023560127 0.022920489
0.027160557 0.027110929 0.021244884
0.019984249 0.031866066 0.022648275
0.016683597 0.033331055 0.022471547
0.030692235 0.021069404 0.018915176
0.029348707 0.024443315 0.0189417
0.027065467 0.028740246 0.018693805
0.022464324 0.032494321 0.018508494
0.018018499 0.034084026 0.017574787
0.029347502 0.025759503 0.014678299
0.027600713 0.029486433 0.014301777
0.023680158 0.032361072 0.01373148
0.019431978 0.033207916 0.01338172
0.028030923 0.029691713 0.010375023
0.025042085 0.031419352 0.0094555616
0.031371661 0.011122648 0.025458992
0.03069444 0.012359407 0.021434605
0.030500913 0.016248791 0.020312786
0.01098627 0.032989748 0.019206524
0.030168392 0.013357249 0.017351806
0.03060364 0.018052198 0.016023457
0.012091718 0.033279363 0.015212178
0.02980344 0.01972096 0.011059821
0.029491279 0.023352187 0.011186659
0.021006044 0.032202158 0.0094692707
0.017493563 0.033097826 0.010767102
0.029612584 0.024509618 0.0074561834
0.026878214 0.028813282 0.0060557127
0.022505214 0.031636707 0.0066264868
0.018079823 0.032774057 0.0068202019
0.028960695 0.025570078 0.0041719675
0.026833011 0.028130354 0.0028515458
0.023364829 0.030674679 0.0035595298
0.030274544 0.0095351785 0.018104672
0.030079138 0.011159107 0.014287114
0.030097928 0.012772243 0.0093517303
0.029805344 0.015825532 0.0094256997
0.0134371 0.031897988 0.0076606274
0.010323504 0.032089204 0.0083130598
0.0300407 0.018399179 0.0049780607
0.029558279 0.021441516 0.0042848587
0.015827138 0.032415241 0.0033204556
0.030545549 0.019172391 -0.00026625395
0.029478215 0.023218665 0.00063693523
0.026677707 0.027229207 -0.00016593933
0.022111727 0.030797148 -6.4373016e-06
0.029474251 0.011145786 0.0030580759
0.029953621 0.014666318 0.0038043261
