# .PCD v0.7 - Point Cloud Data file format
VERSION 0.7
FIELDS x y z
SIZE 4 4 4
TYPE F F F
COUNT 1 1 1
WIDTH 449
HEIGHT 1
VIEWPOINT 0 0 0 1 0 0 0
POINTS 449
DATA ascii
-0.022015523 0.025038011 0.18444309
-0.018380588 0.028574897 0.18157569
-0.02144368 0.027355339 0.18233365
-0.024836119 0.025744706 0.18177027
-0.01841411 0.030273182 0.17850128
-0.022289734 0.029818673 0.17886797
-0.02562728 0.027639801 0.17811304
-0.019888774 0.031145148 0.17563429
-0.02267839 0.030746525 0.17443395
-0.025046661 0.029190116 0.17411307
-0.02392499 0.031073758 0.17112193
-0.016585898 0.02442022 0.1839698
-0.019872837 0.023895621 0.18423891
-0.023351783 0.022008939 0.18373096
-0.0081453826 0.028866213 0.18050316
-0.012632868 0.028312717 0.18186027
-0.016796112 0.027267704 0.18273732
-0.025270786 0.022699675 0.18267033
-0.0090082781 0.029792005 0.17692727
-0.01330557 0.030436212 0.17718574
-0.01689015 0.030628372 0.17636135
-0.027403528 0.024939226 0.17842737
-0.027486406 0.023527782 0.17564413
-0.014419275 0.030690135 0.17279553
-0.018179554 0.031064011 0.17313102
-0.021138323 0.031045573 0.17224234
-0.026325494 0.027718496 0.17255104
-0.027045233 0.02452502 0.17170888
-0.01517297 0.030602239 0.16866434
-0.018290553 0.031358343 0.16814101
-0.022269737 0.031099059 0.16869384
-0.025752731 0.028780917 0.168089
-0.022051454 0.030434918 0.16473842
-0.025315914 0.028902072 0.16396368
-0.017353147 0.01668421 0.18484202
0.0013051033 0.026644304 0.18274236
-0.0023646816 0.0252789 0.18349937
-0.0063104145 0.02486304 0.18343174
-0.010548845 0.023022542 0.18312907
-0.014569985 0.020568255 0.18356022
-0.01848368 0.019611679 0.18439218
0.00075586792 0.028927494 0.18009594
-0.0035776426 0.028663006 0.18025401
-0.0063453713 0.027425883 0.1818969
-1.4043413e-05 0.030049901 0.17621043
-0.0035160235 0.029763654 0.17476493
-0.0074152593 0.029626297 0.17461768
-0.0049092625 0.029803749 0.17019373
-0.007942291 0.029769041 0.17020768
-0.011754955 0.030176293 0.17057562
-0.0089066699 0.030404335 0.16562885
-0.012745106 0.030610245 0.16608563
-0.027322348 0.023922611 0.1649535
-0.012926878 0.030951522 0.16226053
-0.01716524 0.03043502 0.16153246
-0.021648485 0.029698078 0.16134983
-0.025539329 0.028079418 0.16094065
-0.027856495 0.025644124 0.16082957
-0.018314462 0.030008376 0.15737203
-0.021639705 0.029796166 0.15614295
-0.025083307 0.028371995 0.15595016
-0.027307576 0.026387934 0.15663365
-0.0047641392 0.017654873 0.18267277
-0.0075683147 0.017420271 0.18314341
-0.012408989 0.015850842 0.18352497
0.00014087185 0.02315158 0.18350816
-0.0049597239 0.021554399 0.1835669
-0.0085106958 0.01974931 0.18313259
-0.0116281 0.01860447 0.1830529
0.0011269934 0.029551206 0.17279071
0.0010018665 0.029159948 0.1684522
-0.00278039 0.029350914 0.16818023
-0.0061766398 0.029662726 0.16764724
-0.0030644224 0.029159881 0.16307834
-0.0065881391 0.029677751 0.16371065
-0.0043135528 0.029481916 0.15968567
-0.0077315951 0.029634953 0.15940237
-0.011378052 0.030130571 0.15866333
-0.011719053 0.029300516 0.15458122
-0.015810294 0.02954377 0.15475434
-0.02007829 0.030058376 0.15291572
-0.02632954 0.02783831 0.15283966
-0.027947713 0.024506666 0.1544762
-0.012769307 0.029879561 0.15093213
-0.01668917 0.029381294 0.15010184
-0.021352168 0.029972672 0.14945704
-0.02511948 0.028661547 0.14943349
-0.026982091 0.025150564 0.14959893
-0.018217623 0.029543385 0.14646459
-0.021303177 0.030312648 0.14409995
-0.025156666 0.029181436 0.14423808
-0.022304598 0.031056084 0.13967669
-0.024122382 0.030599147 0.13942665
-0.023200965 0.03214746 0.13661504
0.00098940311 0.017772079 0.1823737
-0.0026273855 0.016676422 0.18262058
-0.0063286456 0.014322949 0.18348941
-0.010054844 0.012404412 0.18372944
0.0025193486 0.029008795 0.16190982
-0.0015043002 0.029557316 0.16090554
0.0015339963 0.029630318 0.15742645
-0.0025134664 0.029353755 0.15705824
-0.0060137585 0.029231893 0.1568284
0.00023957528 0.029718533 0.1531471
-0.0030865856 0.029606145 0.15264806
-0.0069358828 0.029533047 0.15293503
-0.010297199 0.029547388 0.15254688
-0.0073888013 0.030120846 0.14814392
-0.011120184 0.030046545 0.14853626
-0.014534684 0.029761033 0.14817908
-0.0084762163 0.030681346 0.14388108
-0.011578973 0.030646235 0.14425078
-0.016128838 0.029949941 0.14389068
-0.027546937 0.024704248 0.14295429
-0.012517979 0.0303185 0.13994029
-0.016198538 0.030407095 0.13866234
-0.019732581 0.031080443 0.13832861
-0.025634576 0.0290244 0.13861218
-0.027212221 0.026097074 0.1379067
-0.020812929 0.03178975 0.13381097
-0.02490945 0.029868513 0.13364476
-0.026941262 0.027211329 0.13377938
-0.02225212 0.031541783 0.12957773
-0.024224887 0.030471699 0.12926957
-0.0038469112 0.0082018496 0.18337479
-0.0079014478 0.0074056434 0.1837326
-0.00084314262 0.011659399 0.18229312
-0.0048262361 0.010620381 0.18338814
-0.009930227 0.0088999672 0.18335751
-0.0014494797 0.029430106 0.150235
0.00220834 0.029748885 0.14557603
-0.0023325766 0.029650984 0.14623767
-0.0052815033 0.029745119 0.14611942
-0.0024450934 0.029698774 0.1417734
-0.006141271 0.029800748 0.14139801
-0.010161214 0.029783381 0.14080736
-0.0076799635 0.029336266 0.13792837
-0.010418523 0.029488452 0.13662553
-0.013776204 0.030102303 0.13726762
-0.0275825 0.023030322 0.13640901
-0.011428169 0.029516727 0.13271531
-0.014937535 0.030268485 0.13272217
-0.018364623 0.031318594 0.13089141
-0.025718428 0.028043501 0.13030452
-0.027031733 0.024799146 0.13145483
-0.015821872 0.029991707 0.12853462
-0.019790016 0.030721599 0.12675703
-0.025116459 0.029265167 0.12665594
-0.02700064 0.026064381 0.12623769
-0.021268819 0.030190233 0.12315148
-0.024404075 0.029481944 0.12174165
-0.027088992 0.027272627 0.12178835
-0.0026296922 0.0044867736 0.18319061
0.0029176585 0.0296483 0.13938659
-0.0015931474 0.029547941 0.13888028
0.0020677904 0.029109696 0.13521409
-0.0018927585 0.028664859 0.13463375
-0.005667062 0.028756095 0.13481766
-0.0061087692 0.028687328 0.13002577
-0.0096361879 0.028969415 0.12990534
-0.010129116 0.028659672 0.12583411
-0.013912864 0.029142274 0.12543929
-0.014102972 0.028767128 0.12150881
-0.018473845 0.029363155 0.12063068
-0.022577887 0.030131314 0.11962271
-0.02746113 0.027181024 0.11925399
-0.018945346 0.029788809 0.11641407
-0.023639418 0.029936589 0.11607945
-0.026714398 0.026776638 0.11550683
-0.020154782 0.030063687 0.11309862
-0.023641415 0.029811839 0.11144763
-0.025504529 0.029110175 0.10994601
-0.00034288334 0.0032066645 0.18294102
-0.00023409724 0.02848658 0.13215089
-0.0010555144 0.028554443 0.12793937
-0.0044832644 0.028560124 0.12757626
-0.0015713675 0.028520769 0.12323108
-0.0056304354 0.029336201 0.12399742
-0.0093729403 0.028694183 0.12305892
-0.0059936573 0.029721599 0.11887717
-0.0098265531 0.029279318 0.11929756
-0.013927053 0.028587058 0.11871105
-0.0069372882 0.029838767 0.11507004
-0.010105792 0.029256666 0.11418319
-0.014018426 0.029203616 0.11457568
-0.016979858 0.029290579 0.11449897
-0.027006628 0.02519249 0.1130228
-0.011170033 0.029828809 0.11039239
-0.014182634 0.029639099 0.10937536
-0.0183807 0.029972594 0.11033911
-0.022909436 0.030081358 0.1080566
-0.026356835 0.025677308 0.10934013
-0.015718993 0.030544402 0.1063931
-0.018411197 0.029993193 0.10572845
-0.022679603 0.029703086 0.10548323
-0.025523266 0.027660269 0.104864
-0.023163576 0.029379796 0.10168481
-0.025375318 0.028238982 0.10072374
0.0014172555 -0.0040728971 0.18328574
0.00088800304 0.028109051 0.12183201
0.00034049246 0.028329968 0.11700511
-0.0037734285 0.029178476 0.11659038
-0.00036500208 0.028486993 0.11315286
-0.0049985037 0.029480999 0.11205256
-0.0086090658 0.029422956 0.11195254
-0.0061358283 0.029776074 0.1082862
-0.0092590144 0.029504001 0.10738987
-0.012471029 0.029744647 0.1067785
-0.010128059 0.029489705 0.10236722
-0.013738592 0.030027468 0.10319781
-0.018013252 0.029300945 0.1021046
-0.026678056 0.025085494 0.103082
-0.027242776 0.02284074 0.10140204
-0.013751419 0.029948995 0.099444747
-0.017934892 0.028894883 0.098367095
-0.021807864 0.028608698 0.098122895
-0.026280239 0.026993858 0.097984195
-0.028172716 0.024606181 0.097702384
-0.022370785 0.028829146 0.093385816
-0.026016179 0.027935155 0.093421638
-0.028228417 0.026107039 0.092538059
-0.023373049 0.029013991 0.089581609
-0.025878631 0.028730534 0.088491917
0.0060661035 -0.0052874954 0.18334812
0.0020821409 -0.0064596455 0.18342856
0.0010549249 0.028866556 0.11124563
0.00027811434 0.028950797 0.10665488
-0.0044840151 0.029290756 0.10612011
-0.00079543237 0.02884433 0.10274482
-0.0042259824 0.029548328 0.10159618
-0.0082695019 0.029947218 0.10132504
-0.0046646493 0.02970135 0.097616136
-0.009505624 0.029695047 0.096311569
-0.013397994 0.029392039 0.09591341
-0.016920898 0.02897392 0.095597625
-0.010510356 0.029917967 0.092531323
-0.013452705 0.029948577 0.091425419
-0.017716698 0.029419251 0.092232227
-0.020549625 0.029144591 0.091841102
-0.014492788 0.030437995 0.087489903
-0.017992657 0.030557852 0.087297976
-0.02212666 0.030208779 0.087982833
-0.026357215 0.028335653 0.087403476
-0.028503612 0.025736298 0.086335361
-0.018874384 0.030664884 0.082983732
-0.02249869 0.030636318 0.082963586
-0.026200339 0.029259378 0.082648516
-0.02824549 0.026987243 0.08131665
-0.02339673 0.02998613 0.078411162
-0.026041314 0.02916781 0.078509033
-0.028268933 0.027326083 0.077596426
0.0021270588 0.028084336 0.099065125
0.0012275223 0.02843903 0.094881535
-0.0024191188 0.028266946 0.093935311
-0.0067486688 0.027879069 0.093725681
-0.0043322025 0.028440651 0.09016037
-0.0078604398 0.028540025 0.08993876
-0.0087688994 0.028735297 0.085693002
-0.012853963 0.02995703 0.085261762
-0.0097452346 0.029077424 0.081576943
-0.012804452 0.029325673 0.080686808
-0.016969636 0.029536696 0.080105364
-0.020265417 0.029501371 0.079056859
-0.014166829 0.029326515 0.077060044
-0.017343275 0.029123351 0.076229513
-0.021100007 0.028888799 0.075552583
-0.025607154 0.028294858 0.075100124
-0.028099544 0.025066165 0.075595438
-0.01856995 0.029533649 0.072501957
-0.021854788 0.029301569 0.071569443
-0.025168601 0.028007526 0.071171165
-0.027526984 0.025781279 0.071987569
-0.022973003 0.02974071 0.067943752
-0.024209145 0.029099498 0.06776464
0.0027229805 0.028360097 0.092586339
0.0022227587 0.028202612 0.087630808
-0.0016526524 0.028258659 0.087888837
0.00090477057 0.028672529 0.083117485
-0.0020730076 0.0285824 0.082910776
-0.0061412831 0.028641121 0.083494306
-0.0033177449 0.028335512 0.079025686
-0.0072038346 0.028675796 0.078451753
-0.011078522 0.029017378 0.077885151
-0.0085459426 0.028629957 0.074759126
-0.012044011 0.029288124 0.07412982
-0.015876448 0.028899672 0.07383436
-0.012827933 0.029975167 0.069339573
-0.016984221 0.029985489 0.07012099
-0.019869957 0.029286485 0.069637477
-0.026347943 0.026852837 0.068493724
-0.027711688 0.025238819 0.068180919
-0.017044239 0.03008317 0.065378129
-0.021319177 0.030015428 0.065374732
-0.025456812 0.028195327 0.065061629
-0.02781827 0.025557987 0.064137757
-0.022137759 0.029464783 0.060620904
-0.02486144 0.028278917 0.060288727
-0.0012168903 0.027882462 0.076792717
-0.0047000684 0.028386818 0.075422287
0.0020237826 0.028331602 0.072666585
-0.0015686071 0.028001161 0.07235986
-0.0056193029 0.02800783 0.072113335
-0.0091234446 0.028574394 0.070812643
-0.0027240128 0.027989356 0.068350673
-0.0058363052 0.028259303 0.067485511
-0.0094583659 0.028543388 0.066797733
-0.0065736403 0.028564006 0.063870192
-0.010847609 0.028780067 0.063034058
-0.015301151 0.029079685 0.061281741
-0.028038664 0.024040975 0.060405374
-0.011279136 0.028821524 0.058690846
-0.015461497 0.028677931 0.057470143
-0.020197222 0.028610434 0.057186246
-0.02485957 0.026828587 0.05621469
-0.026850544 0.02504557 0.057833076
-0.015448113 0.028899973 0.054560542
-0.019558148 0.028623646 0.052859068
-0.024257852 0.027269382 0.053006887
-0.02648307 0.024358563 0.054005146
-0.020894006 0.029156111 0.048922896
-0.023981664 0.028100243 0.04826951
-0.02371647 0.029601026 0.045383036
8.5521489e-05 0.028400261 0.069900513
0.0027822033 0.028488202 0.065726757
-0.0011338657 0.028532995 0.066022813
-0.0017254176 0.028079929 0.0619452
-0.0052461494 0.028056053 0.060358405
-0.0087905228 0.028736351 0.060589075
-0.0057494375 0.028197628 0.056573033
-0.0096369553 0.028762279 0.056050301
-0.010856646 0.028397581 0.051956892
-0.014452565 0.029098224 0.051750839
-0.02547555 0.025896693 0.050916433
-0.026842542 0.023172198 0.05056572
-0.015364495 0.029308485 0.047621727
-0.018979639 0.029550752 0.047272444
-0.025742725 0.026844949 0.04769963
-0.027134836 0.024669621 0.046176314
-0.019615985 0.029632956 0.042678297
-0.024033967 0.029056152 0.042898118
-0.02729784 0.026751354 0.041854858
-0.023698855 0.029148068 0.038153708
-0.025890719 0.02795095 0.038298666
-0.00051781908 0.027327774 0.058839142
-0.0004331097 0.027992556 0.054981768
-0.0047853626 0.027857611 0.053159833
0.0022612279 0.028874395 0.051002443
-0.00085882377 0.028528249 0.050187528
-0.0050066882 0.028023686 0.04941082
-0.0090113115 0.02789294 0.048829317
-0.005545699 0.028485078 0.045458496
-0.0097737322 0.028389977 0.044535875
-0.013465389 0.028273955 0.044186175
-0.0096171871 0.028924864 0.040515542
-0.014255646 0.028571997 0.039851904
-0.017702278 0.028902646 0.039281011
-0.027635075 0.024602761 0.037890911
-0.014049138 0.028916392 0.036333382
-0.018965328 0.029289361 0.035737991
-0.022853874 0.028982352 0.034875512
-0.026710937 0.02637323 0.035003543
-0.01895313 0.029207375 0.031350136
-0.022885501 0.028622361 0.030530214
-0.026511688 0.02620542 0.030194998
-0.02300499 0.029223571 0.026885808
-0.025559904 0.02797401 0.026573598
0.00019154605 0.028684674 0.047299087
-0.00042013079 0.028717317 0.043315411
-0.0040615015 0.02883967 0.043198287
-0.00080439355 0.028245045 0.038787484
-0.0049526291 0.028506057 0.038522005
-0.0086676562 0.028749751 0.03758204
-0.0061611445 0.028559845 0.034465134
-0.009475952 0.028636249 0.034110546
-0.013300919 0.028305141 0.032872915
-0.010507581 0.028363829 0.029339492
-0.01348538 0.028058192 0.030048072
-0.017250989 0.028059188 0.028113008
-0.027665669 0.02539801 0.028056979
-0.019117888 0.029228879 0.024505913
-0.022879021 0.029158957 0.023584068
-0.026719183 0.026507456 0.024517238
-0.019618083 0.028912533 0.020095944
-0.022755869 0.028343707 0.019770205
0.00040839706 0.028320879 0.036871433
-0.002883601 0.028040044 0.035035133
3.4250319e-05 0.028737418 0.032587767
-0.004213986 0.02852313 0.03251338
-0.0088533014 0.027965691 0.030551195
-0.00020210259 0.029054979 0.027832389
-0.0046557919 0.02881686 0.028075993
-0.0082175191 0.027955143 0.027481735
-0.013338752 0.027040705 0.026382983
-0.0056874692 0.028463626 0.023537576
-0.0089303376 0.028066166 0.023397267
-0.012819483 0.027526816 0.022645831
-0.016121626 0.02756937 0.022998333
-0.026957922 0.024089266 0.020174444
-0.014124715 0.028076945 0.01886034
-0.017338445 0.028477574 0.018185556
-0.021922532 0.028229959 0.016473949
-0.025607325 0.024781309 0.017144263
-0.018308444 0.028921148 0.013497829
-0.0222621 0.028396271 0.01297456
-0.025615098 0.025631847 0.012833774
-0.019425185 0.02928878 0.0095996857
-0.022299185 0.028806549 0.0090528727
-0.025404219 0.026933897 0.0083268881
0.00084760319 0.028592497 0.024152935
-0.0025510965 0.028297769 0.024478614
0.00052880682 0.027870407 0.020350873
-0.0038362602 0.028013622 0.020696819
-0.0078005143 0.027363528 0.019448876
-0.003435934 0.02735565 0.017421842
-0.0081086401 0.026770944 0.015425861
-0.012144404 0.027300233 0.015286803
-0.013484553 0.02776346 0.011493206
-0.015812781 0.027885923 0.010245442
-0.026673129 0.024121018 0.0093111396
-0.013532689 0.027597088 0.0073606968
-0.017401228 0.028287554 0.0068366528
-0.021862172 0.0280033 0.0048578382
-0.025994068 0.025646247 0.0056545734
-0.017908346 0.02789446 0.0033590198
-0.021946914 0.02768412 0.001517415
-0.025573228 0.025780249 0.0025460124
0.0018976061 0.02764041 0.018051147
0.0012107976 0.027819334 0.014109135
-0.0030530542 0.02726396 0.014416337
-0.0060275025 0.026465617 0.013123035
0.00030303281 0.028290229 0.0087632537
-0.0032259827 0.027685488 0.0089641809
-0.0075119631 0.026628403 0.0094313622
-0.010618394 0.026598569 0.0093864202
-0.0035773194 0.028030518 0.0044938326
-0.0077747889 0.027226536 0.00416255
-0.011726589 0.027247515 0.0042074323
-0.015305595 0.027140107 0.0038983822
-0.012701842 0.027493095 -0.00033098459
-0.016647017 0.027524391 -0.00026512146
-0.019839283 0.027234267 -0.00098502636
-0.025313104 0.02435533 -0.0013124943
0.002299401 0.028391352 0.0077342987
0.001540943 0.028177943 0.0030359626
-0.0022784099 0.027953787 0.0023194551
0.0003058752 0.028785173 -0.0016378164
-0.0028435541 0.02783997 -0.00200212
-0.0069769947 0.026849607 -0.0017865896
-0.010271295 0.026822304 -0.0025786757
