# .PCD v0.7 - Point Cloud Data file format
VERSION 0.7
FIELDS x y z
SIZE 4 4 4
TYPE F F F
COUNT 1 1 1
WIDTH 414
HEIGHT 1
VIEWPOINT 0 0 0 1 0 0 0
POINTS 414
DATA ascii
0.026888844 0.033082686 0.17911687
0.02950719 0.026052438 0.18008062
0.02628364 0.028354058 0.18144962
0.022215202 0.030077327 0.18149623
0.017546812 0.031209301 0.18147096
0.012667232 0.032003403 0.18033186
0.0082935691 0.032577816 0.18077543
0.031094939 0.029017193 0.17799547
0.028237116 0.03177648 0.17875573
0.023715746 0.033318907 0.17834488
0.018990412 0.033804413 0.17727104
0.014542894 0.033872262 0.17629763
0.032027207 0.030741019 0.17381281
0.028927755 0.03340362 0.17446074
0.024558552 0.034814566 0.17401564
0.019723764 0.034516707 0.17267442
0.031773813 0.031587586 0.1696822
0.02929171 0.033589568 0.1692192
0.024911128 0.035005618 0.16877231
0.021530777 0.034863945 0.16861737
0.029597325 0.033882335 0.16582793
0.026054773 0.035365831 0.16566524
0.023527004 0.021178283 0.18230101
0.019261934 0.02311461 0.18309173
0.015141679 0.025292434 0.18315053
0.010610559 0.027069287 0.18256918
0.0043866583 0.028873833 0.18243533
0.00053625274 0.030378982 0.18279833
0.024854179 0.023323625 0.18160659
0.020372652 0.025686061 0.18212113
0.017728511 0.027388262 0.18233034
0.01049408 0.030885825 0.18089849
0.006597016 0.032745589 0.17940387
0.002293556 0.033695243 0.17934847
-0.002646408 0.034274552 0.17864245
0.01140476 0.033735037 0.17469922
0.0076039522 0.03421165 0.1742487
0.0027287072 0.034925826 0.17392462
-0.001911398 0.035068996 0.17407107
0.017932985 0.034412473 0.17004752
0.013628618 0.034180194 0.17049253
0.0080759134 0.034808084 0.16925278
0.0036441209 0.035486642 0.16946548
0.032530628 0.030082047 0.16765028
0.019471943 0.034863524 0.1668418
0.014488138 0.035175059 0.16599926
0.0095927455 0.03593152 0.16484892
0.032447211 0.030704917 0.1633147
0.029397169 0.032933697 0.16245472
0.024739049 0.034347549 0.1623151
0.020268761 0.035045985 0.16193807
0.016177783 0.035676662 0.16184509
0.012459322 0.036468323 0.16232666
0.032229677 0.031146957 0.15853879
0.029547652 0.033257235 0.15831548
0.025726482 0.034447696 0.15792817
0.021251606 0.034983519 0.15850556
0.00075400621 0.023085942 0.18245727
-0.0021096813 0.025174566 0.18353918
0.017880592 0.019829717 0.18360451
0.013328927 0.020934891 0.18294805
0.0086348914 0.022698 0.18216237
0.0051558441 0.024613386 0.18197998
-0.0020427546 0.034964569 0.17070273
0.0029516909 0.035391327 0.16673571
-0.0020955466 0.034893468 0.16673219
0.0070618573 0.035752889 0.16308558
0.0035719099 0.034994815 0.16277289
-0.001421093 0.034875002 0.1621266
0.014439846 0.034854937 0.1591852
0.0095223077 0.034953929 0.15892464
0.0051910933 0.03498096 0.15931383
0.03212342 0.028438153 0.15595284
0.02977955 0.032885954 0.15515575
0.024215583 0.034319922 0.15528703
0.020161958 0.034613259 0.15557972
0.015693683 0.034043197 0.15505677
0.011646388 0.033793464 0.15494594
0.02957507 0.031917114 0.15171885
0.025384877 0.033962164 0.15147209
0.020688636 0.034213684 0.15068042
0.017011587 0.034052655 0.1511136
0.028893555 0.031767409 0.14768949
0.025478933 0.033602241 0.14684775
0.022376815 0.034311894 0.1472812
0.015517365 0.013951879 0.18244299
0.011201691 0.01575936 0.1822398
0.0067113903 0.017227372 0.18271574
0.0021453574 0.019242231 0.1825566
0.0012978585 0.033853225 0.15935981
-0.0019790372 0.035131916 0.15961707
0.0074455761 0.033959508 0.15566117
0.0028953431 0.033781584 0.15583903
-0.0015652766 0.03474234 0.15532774
0.014062935 0.033918615 0.15263727
0.0094405813 0.03365805 0.15234658
0.0047360957 0.033736147 0.15126222
0.030851763 0.027408389 0.14889067
0.019120336 0.034739166 0.14843029
0.015264726 0.034141846 0.14854157
0.010578858 0.034000233 0.14751622
0.0065652672 0.034413952 0.14758056
0.03329704 0.027341189 0.14254075
0.03023719 0.030488217 0.14449775
0.026042953 0.033547711 0.14370388
0.020767061 0.034731325 0.14494288
0.016323229 0.034324359 0.14420596
0.012221793 0.033991702 0.14401534
0.034702301 0.029582381 0.14106131
0.031051813 0.031884328 0.13996392
0.025897626 0.033206686 0.1393137
0.021916747 0.034561362 0.14166492
0.0028914567 0.010305516 0.18338057
-0.00057931291 0.012202894 0.1834563
0.0089537501 0.010394087 0.18234536
0.0046963161 0.012530281 0.18324974
0.00051526725 0.014735286 0.18329865
0.0024282327 0.033576686 0.14927629
-0.0017361166 0.033834402 0.14912784
0.0088223275 0.034112915 0.14494503
0.0038789846 0.034103949 0.14491531
-0.0010750797 0.033777237 0.14391646
0.014425257 0.033536024 0.14126104
0.010395035 0.033928894 0.14130178
0.0054271333 0.034542613 0.14059919
0.0015101321 0.03448968 0.13919011
0.023953544 0.032824479 0.13742924
0.020323586 0.032890517 0.13770884
0.015602388 0.03316173 0.13697329
0.011018039 0.034372311 0.13632444
0.0064577246 0.035117462 0.13593569
0.030849194 0.03033201 0.13398039
0.025619283 0.03285734 0.133627
0.020978278 0.033320945 0.13302767
0.016458612 0.034133188 0.13268778
0.011745958 0.034854148 0.13228634
0.0083030611 0.035644311 0.13248426
0.029381778 0.030844221 0.12872428
0.026295014 0.033261694 0.12854052
0.021690153 0.033897035 0.12843826
0.018129049 0.034190036 0.12888145
0.02670753 0.03373456 0.12437955
0.02355852 0.034452349 0.12500319
0.0020567095 0.0062941541 0.18313307
-0.003179457 0.033874191 0.142129
-0.0015480723 0.034428053 0.13795313
0.0057189595 0.035740886 0.13365436
0.00072083808 0.034963518 0.13373113
-0.0024747923 0.03457411 0.13136375
0.031861953 0.026204348 0.12998825
0.015526487 0.034235161 0.13001233
0.011363784 0.035529155 0.13001892
0.0067084227 0.03620806 0.13020012
0.0018348489 0.035748523 0.12918949
-0.0020616679 0.035314851 0.12908298
0.031396754 0.027595542 0.12662119
0.020908227 0.034369629 0.12603578
0.016382936 0.034330532 0.12627143
0.011704203 0.034849893 0.12538216
0.0071222284 0.035512269 0.12501663
0.0035034716 0.03583264 0.12537602
0.030442758 0.030698294 0.12306458
0.026945181 0.033934895 0.12141317
0.021834772 0.034625255 0.12241054
0.017315958 0.033877805 0.1215156
0.02965826 0.031834785 0.11849397
0.027043175 0.033698373 0.11767215
0.022784093 0.034456804 0.11770046
0.026501846 0.034009498 0.11407357
0.0024042749 0.003034987 0.18300959
0.00062646624 0.035257962 0.12603927
0.0062861824 0.03536116 0.12273529
0.0014150431 0.035239708 0.12217897
-0.002656932 0.034907296 0.12132397
0.031890042 0.026348647 0.12046769
0.01571581 0.033484358 0.11901844
0.011440276 0.033551358 0.11867881
0.0065611354 0.034277342 0.11858094
0.0025107237 0.03495786 0.1187163
0.030929368 0.028241394 0.11557978
0.021115409 0.034268845 0.11510938
0.01689251 0.033234373 0.11462343
0.012223911 0.032942574 0.11465222
0.029675726 0.029811114 0.11085647
0.027259201 0.032779671 0.11100173
0.022399554 0.034097254 0.11086905
0.018178366 0.033595812 0.11048466
0.027034178 0.032821521 0.10621363
0.023015823 0.034438498 0.10567915
-0.0026840484 -0.0048030857 0.18393427
0.0061636423 0.033000581 0.11471707
0.001003243 0.033751197 0.11496377
0.014826679 0.032596789 0.11135679
0.011156804 0.032753751 0.11168361
0.0063158823 0.032984294 0.11085087
0.0015448993 0.033477224 0.10990071
0.031747844 0.026662251 0.10870558
0.016445408 0.033296924 0.10777527
0.011695592 0.032913733 0.10664743
0.0075591742 0.032751691 0.1065228
0.031974129 0.027778644 0.10443771
0.028968338 0.030777734 0.10412568
0.021408251 0.034967281 0.10330534
0.017790195 0.034678459 0.1038999
0.012971179 0.034117483 0.10261798
0.027590942 0.031614721 0.10024613
0.022818668 0.033688232 0.098959863
0.017879676 0.034441911 0.099832237
-0.0033335295 0.034748908 0.10893655
0.0063369554 0.033803817 0.10486078
0.0014482094 0.033935014 0.10543889
-0.0031532692 0.034849145 0.10512984
0.011449745 0.034404978 0.10034519
0.0073706503 0.034412801 0.10034204
0.0021815002 0.034623716 0.10077935
-0.0026656203 0.034782249 0.10050595
0.031453572 0.026079765 0.098118305
0.028041001 0.030077729 0.096639574
0.017688679 0.03359342 0.096227765
0.012786178 0.033857923 0.096039236
0.0076151784 0.03462106 0.096603096
0.0036164476 0.034867723 0.096788108
0.027735934 0.030682601 0.092762351
0.022982063 0.033354167 0.0928424
0.0181113 0.033566687 0.091627836
0.012552222 0.033419158 0.092102826
0.027348835 0.031556807 0.088268697
0.023649598 0.033414245 0.086922169
0.01998394 0.034003776 0.088310599
0.007043066 0.032999277 0.093330145
0.0013627997 0.033433232 0.093094051
-0.0030792998 0.03402748 0.092710316
0.011778772 0.032319412 0.088931382
0.0070587257 0.032632794 0.089089394
0.0023212312 0.033859007 0.088367462
-0.0015903274 0.034398202 0.088784039
0.030535802 0.025369668 0.085849583
0.029112816 0.028835712 0.086571038
0.017463326 0.033352379 0.086354017
0.012602436 0.032813527 0.085031867
0.0082791224 0.033406049 0.084808528
0.0042460887 0.033913631 0.085026383
0.029029768 0.029171074 0.081699848
0.024055768 0.032495558 0.081601024
0.018262537 0.033291399 0.081218243
0.013791263 0.033768699 0.080724239
0.027829781 0.030506441 0.077437878
0.024490029 0.032386646 0.076808035
0.019417077 0.03355452 0.077755809
0.025597215 0.033106025 0.073457479
-0.0030802712 0.034862712 0.08660388
0.0068000676 0.033451412 0.082535863
0.0025960514 0.034483425 0.082606435
-0.0022104792 0.035094623 0.081681132
0.012228595 0.033999529 0.078341305
0.0081318673 0.034084074 0.078370929
0.0033431323 0.03472371 0.077463567
-0.00033201091 0.034941755 0.077144384
0.029509 0.028850636 0.075533032
0.018910501 0.033594608 0.074827492
0.013521714 0.033817187 0.073917329
0.0092413817 0.033454757 0.07356894
0.029120822 0.029699806 0.07048285
0.025626305 0.032880303 0.071018457
0.019931497 0.033915177 0.070064604
0.014848974 0.033892512 0.068719208
0.025515903 0.032008618 0.066015482
0.022272423 0.032699473 0.065909326
-0.0033357963 0.034088369 0.075541377
0.0074048587 0.032748707 0.071089625
0.0023002336 0.032874614 0.070908904
-0.0022832667 0.033555366 0.070679724
0.03036131 0.026955482 0.068652868
0.012769135 0.034195367 0.067816138
0.0084773647 0.033358581 0.067116082
0.0034699906 0.0332244 0.06667912
-0.00048331264 0.033778436 0.067095757
0.028554346 0.027612854 0.063374341
0.025577154 0.031803187 0.063119233
0.020369371 0.032568652 0.062849104
0.015827322 0.03333243 0.062348008
0.010474077 0.033877183 0.062696815
0.0058933236 0.033655193 0.063020945
0.028452413 0.028192813 0.05860436
0.025537286 0.031176798 0.058735788
0.020841217 0.032632176 0.058165252
0.015742579 0.033257984 0.058571875
0.012427304 0.033925738 0.059284806
0.02587793 0.031514145 0.054757833
0.021799404 0.032463215 0.055272758
0.033076502 0.031278316 0.051095963
0.0032052398 0.033763673 0.06423521
-0.00068357866 0.033679716 0.064314961
0.029843569 0.024776213 0.061769068
0.0087423678 0.03374178 0.059941232
0.0048038866 0.033521812 0.059897423
-0.00013139844 0.032972869 0.059945762
0.030052178 0.026459079 0.057480037
0.015402461 0.033261057 0.05621469
0.010731332 0.03313534 0.056050777
0.0067534363 0.032987438 0.056637526
0.029994853 0.028342616 0.053032696
0.02609266 0.031843588 0.053209543
0.020776507 0.032411303 0.052206516
0.016429331 0.032805651 0.052259684
0.011945443 0.032034636 0.05151248
0.034237742 0.029666809 0.05030489
0.030780751 0.030937191 0.048688889
0.026643869 0.0326332 0.048787832
0.021701571 0.032198772 0.04701376
0.032516256 0.031229088 0.044599771
0.026560832 0.031852439 0.043994069
-0.0011102203 0.032301091 0.056326747
0.0082956813 0.032098752 0.053409815
0.0047002877 0.032102026 0.053202093
-0.00053595658 0.032482125 0.052702904
0.014366325 0.031806834 0.048714757
0.010209109 0.032439917 0.048853993
0.0047169393 0.032317061 0.048594356
3.6154874e-05 0.032462049 0.049232781
0.019416731 0.031986549 0.044700623
0.01611381 0.032174606 0.04498136
0.010885101 0.033065904 0.044583023
0.0060710278 0.033083007 0.044646323
0.030592177 0.029997634 0.041094124
0.026728222 0.031882521 0.040926456
0.021665685 0.032616213 0.040721774
0.016134439 0.032875478 0.040447354
0.011180492 0.033370838 0.040711164
0.035082377 0.03013178 0.038385391
0.03150551 0.029944928 0.036955118
0.027135599 0.032276936 0.036101639
0.022128625 0.033185869 0.036047399
0.017874189 0.033162195 0.036966681
0.034957878 0.029305164 0.034539819
0.031719934 0.030077398 0.033960164
0.027300041 0.032154307 0.031831563
0.022511821 0.033803269 0.033483267
-0.0007476816 0.032271698 0.045989513
0.0043279529 0.032991473 0.041859567
-0.00013875403 0.032437596 0.041273236
0.011309066 0.033365514 0.037588179
0.0061426219 0.032821998 0.037751019
0.016027935 0.032743145 0.033866763
0.011220695 0.032809347 0.033957481
0.0066749565 0.032746788 0.033343077
0.031574063 0.029214473 0.030057907
0.02742463 0.032206506 0.029791892
0.022204611 0.032602467 0.029262543
0.017253214 0.032761097 0.030250192
0.031073712 0.028517734 0.0256024
0.027042739 0.031369925 0.025347114
0.023383748 0.032094695 0.025387645
0.0033231536 0.031530786 0.035475731
-4.557427e-05 0.032200422 0.035840631
0.011761749 0.031574085 0.030022562
0.0049737203 0.032457214 0.031662345
0.00057442207 0.033239663 0.03152889
0.01640507 0.031454742 0.026628494
0.010860138 0.031921994 0.027216196
0.0059514316 0.032565262 0.026543677
0.001014323 0.03384022 0.026806653
-0.0025557391 0.034055836 0.026753664
0.032106627 0.027468083 0.023558676
0.027857367 0.030116372 0.02191633
0.021753663 0.031922292 0.023229957
0.01650051 0.031843591 0.023124456
0.011975545 0.032043006 0.022612333
0.0077555031 0.032146245 0.022587717
0.030195042 0.027498282 0.020013571
0.026767597 0.030132033 0.018514872
0.02222516 0.032016348 0.018908799
0.01710909 0.032255057 0.018559873
0.02596424 0.031356979 0.015729487
0.023927696 0.032184415 0.014906406
0.00069079362 0.032773916 0.022654176
0.010166088 0.031797033 0.019609094
0.005874204 0.032288801 0.019589186
0.001053785 0.03275001 0.01872611
0.028126026 0.027837303 0.015920043
0.017082639 0.031816017 0.014966369
0.01174999 0.032237206 0.015492499
0.0063903551 0.032516226 0.014821112
0.0019343002 0.032825287 0.014509141
0.029038563 0.025139464 0.011964381
0.027292129 0.029193092 0.01207459
0.021963701 0.031456847 0.011434078
0.017117323 0.031535264 0.011504531
0.011976864 0.032355621 0.011332691
0.0082349982 0.032273758 0.012056589
0.027062992 0.029484972 0.007271111
0.023272397 0.031831983 0.0077263117
0.018406862 0.031301051 0.0078091025
0.026024055 0.030096535 0.003875494
0.023814209 0.031400461 0.004091382
0.00028159469 0.032718126 0.012949526
0.011806457 0.031692855 0.0085688829
0.0063562538 0.032446027 0.0090477467
0.0015027774 0.032887515 0.0081421733
-0.0027477955 0.032177083 0.007922411
0.028510958 0.027392052 0.0048300028
0.020865584 0.031012094 0.0048590899
0.016695546 0.031295456 0.0049805641
0.012135637 0.03206953 0.0046200752
0.0072048255 0.032843888 0.0036674142
0.0034279581 0.033270326 0.0045151711
0.029425498 0.024661515 0.0007892251
0.027666304 0.028736299 0.00093221664
0.0228002 0.031430289 0.00091528893
0.017720569 0.031723518 -0.00013929605
0.012714784 0.032062542 -0.00043362379
-0.00061617978 0.032528386 0.004611969
0.0053196852 0.033025455 0.00063818693
0.0012983205 0.032442272 0.0019644499
