# .PCD v0.7 - Point Cloud Data file format
VERSION 0.7
FIELDS x y z
SIZE 4 4 4
TYPE F F F
COUNT 1 1 1
WIDTH 433
HEIGHT 1
VIEWPOINT 0 0 0 1 0 0 0
POINTS 433
DATA ascii
0.025108507 -0.023061657 0.18138248
0.027800966 -0.020210098 0.18109167
0.023595423 -0.027323484 0.1776354
0.025829248 -0.024847616 0.17913616
0.028644565 -0.021207042 0.17845941
0.030347649 -0.019215528 0.17816964
0.02448223 -0.028360235 0.17504799
0.027933165 -0.027004313 0.17526245
0.029865842 -0.022658862 0.17446581
0.028595556 -0.028130513 0.17017916
0.03057239 -0.024117479 0.17047799
0.016417995 -0.026217971 0.17954323
0.019367272 -0.024770668 0.18046248
0.022426827 -0.02114957 0.18197274
0.025584778 -0.017867563 0.18232122
0.028264431 -0.015024187 0.18112877
0.029643789 -0.012769427 0.1787287
0.017608739 -0.027674675 0.17707422
0.020933157 -0.026714986 0.17802113
0.030865598 -0.016965125 0.17715466
0.031023782 -0.014343956 0.17575499
0.018769844 -0.028317841 0.17310435
0.021601647 -0.028332759 0.17360538
0.031424969 -0.018683277 0.17297244
0.023528133 -0.028445937 0.16954151
0.026619866 -0.029068667 0.16745362
0.030626573 -0.023309927 0.16750646
0.031663232 -0.019750744 0.16885698
0.023559341 -0.027962146 0.1652621
0.027736297 -0.026935151 0.16434613
0.029437661 -0.023216445 0.16365418
0.0090218652 -0.025070192 0.18246007
0.011743912 -0.022607386 0.1828509
0.014511371 -0.020137599 0.18262503
0.018179016 -0.016884899 0.18245706
0.021309109 -0.01344434 0.18274075
0.023934981 -0.010442326 0.1828534
0.010538276 -0.027168605 0.1802617
0.013825376 -0.025230665 0.18056256
0.016774381 -0.022110133 0.18135247
0.01859377 -0.019241218 0.18153876
0.028753076 -0.009695108 0.17910329
0.012030888 -0.028545834 0.17575088
0.015340628 -0.028030431 0.17534867
0.030613121 -0.010977148 0.17417717
0.013314603 -0.028636275 0.17059058
0.016229957 -0.028325379 0.17068022
0.03074877 -0.012954138 0.16963425
0.017542077 -0.028225137 0.16641259
0.020462565 -0.028029405 0.16694114
0.03026711 -0.016592914 0.16450799
0.030340318 -0.01311094 0.16559857
0.018413663 -0.028542962 0.16299403
0.021327807 -0.027455484 0.1619994
0.026051387 -0.026027597 0.16081753
0.029000403 -0.021955209 0.16086096
0.029636251 -0.018772269 0.16162539
0.022332538 -0.027086064 0.15861163
0.025684576 -0.026143909 0.15661636
0.028897125 -0.02237596 0.15619576
0.026284976 -0.027442286 0.15184933
0.029072318 -0.024480235 0.15149423
0.027607771 -0.027949845 0.14828271
0.029199602 -0.026083386 0.14862114
0.0065437793 -0.019294454 0.18312642
0.01392606 -0.011603803 0.18240055
0.016583811 -0.0092344098 0.18235675
0.020281805 -0.0062419549 0.18318987
0.0099567482 -0.020775095 0.18372121
0.012771703 -0.017527353 0.18281901
0.014744731 -0.014820464 0.1822688
0.017907504 -0.011877698 0.18215033
0.009943353 -0.028854312 0.1736303
0.01074825 -0.028606912 0.16891271
0.030501515 -0.010342971 0.16684639
0.011987223 -0.028485384 0.16377789
0.015053294 -0.028390519 0.16443199
0.029724933 -0.01138349 0.1619302
0.012745323 -0.028699288 0.16021502
0.015798841 -0.028014399 0.15951318
0.018922392 -0.0273555 0.15979487
0.029046189 -0.015708201 0.15871254
0.02942724 -0.012165992 0.15783012
0.016806707 -0.027876802 0.15484649
0.020313596 -0.027338376 0.15563956
0.029367534 -0.017376089 0.15466851
0.029400263 -0.01357818 0.15431082
0.021610547 -0.027951542 0.15110242
0.025006106 -0.02838728 0.14965314
0.030022234 -0.022128422 0.14947098
0.029570919 -0.018761739 0.15001655
0.022003071 -0.028330239 0.14710483
0.025802832 -0.028151229 0.14558098
0.029597022 -0.024358988 0.14555418
0.030173488 -0.020585816 0.14489108
0.026255094 -0.026932299 0.14133662
0.028920842 -0.024277395 0.14083597
0.0060837888 -0.01660586 0.18254352
0.0085520726 -0.01379828 0.18198976
0.011681494 -0.011211469 0.18265697
0.014102414 -0.0074731838 0.18251938
0.011006101 -0.028631926 0.15780932
0.013354884 -0.027660696 0.15620655
0.029768987 -0.010696685 0.15529218
0.012319538 -0.028684553 0.1534791
0.014211163 -0.027963333 0.15272188
0.029504333 -0.011871419 0.15149775
0.015747733 -0.027824398 0.14894855
0.018705087 -0.02776066 0.14876911
0.02920673 -0.015588841 0.14793649
0.029057164 -0.012868571 0.14749086
0.019936102 -0.027730541 0.14433989
0.029469538 -0.017376468 0.14289695
0.021290572 -0.027032474 0.14030749
0.024285316 -0.026988495 0.13842955
0.029044794 -0.024532689 0.13823766
0.030323802 -0.019666096 0.1383743
0.025239412 -0.026410397 0.13392657
0.028488405 -0.024722833 0.13446456
0.030065607 -0.022285547 0.13363051
0.02883433 -0.023754677 0.13007218
0.0064930562 -0.0059123505 0.18317926
0.0094685163 -0.0031665789 0.18307656
0.0054364279 -0.010634599 0.18248317
0.0083198035 -0.0081782313 0.18267792
0.010951197 -0.0047049616 0.18275598
0.02916351 -0.0097080702 0.14817435
0.0099409465 -0.028053211 0.14593235
0.013625991 -0.027587991 0.14600933
0.028493205 -0.010481263 0.14389661
0.010906542 -0.027979704 0.14198539
0.01455448 -0.027560046 0.14200175
0.017463733 -0.026951436 0.14105138
0.02834573 -0.014977857 0.14148468
0.028538905 -0.01190422 0.14000636
0.015256802 -0.027651628 0.13688913
0.018685678 -0.027006684 0.13768306
0.029939627 -0.016847784 0.13685364
0.029377868 -0.013401231 0.13540161
0.016164709 -0.027995411 0.13340244
0.019397218 -0.027443152 0.13290834
0.023023721 -0.026838791 0.13212997
0.0297854 -0.018832723 0.13229781
0.029804744 -0.015655108 0.13130289
0.020689283 -0.028042279 0.12826195
0.024031222 -0.026676711 0.127341
0.02727868 -0.024450243 0.12750405
0.029017931 -0.020482531 0.12732023
0.021627573 -0.028255606 0.12412724
0.024449777 -0.027124166 0.12234703
0.027155405 -0.02458472 0.12225643
0.028648103 -0.020975763 0.12345815
0.025862142 -0.027048748 0.11900574
0.027262896 -0.025589466 0.11886799
0.0041134055 -0.0034737494 0.18353808
0.0090647731 -0.027923493 0.13908195
0.011929329 -0.027307194 0.13832736
0.028962713 -0.0099263526 0.13782126
0.0099918796 -0.027522162 0.13456666
0.012530605 -0.027651042 0.13457301
0.028674789 -0.0098293209 0.13285035
0.014653536 -0.028148903 0.13115281
0.029561173 -0.012332556 0.12885377
0.016131027 -0.028388904 0.12597275
0.017982464 -0.028270788 0.12691662
0.029384593 -0.018733548 0.12533879
0.029189581 -0.015183536 0.12521189
0.01944571 -0.028414492 0.12205291
0.023076609 -0.02802192 0.11998272
0.028053084 -0.0234455 0.11987817
0.028537735 -0.019361772 0.12078029
0.029161487 -0.016696908 0.12202197
0.020695796 -0.02845533 0.11737502
0.024318224 -0.027783876 0.11643064
0.027595157 -0.024822971 0.11608702
0.028340001 -0.021152947 0.11704361
0.024817541 -0.027521838 0.11175203
0.027461935 -0.025215652 0.11100352
0.028604042 -0.022410315 0.11276639
0.011864461 -0.027251545 0.12742251
0.012252511 -0.027066382 0.12350303
0.02896627 -0.012553194 0.12221599
0.029310236 -0.0099686254 0.12176114
0.013936039 -0.02720952 0.11952347
0.017403472 -0.028147709 0.11881644
0.028305316 -0.014334554 0.1181339
0.029400237 -0.010215105 0.11809516
0.01817443 -0.028643468 0.11520129
0.028447092 -0.018733803 0.11469579
0.028504493 -0.015597319 0.11360914
0.020311028 -0.028401099 0.11129844
0.023234982 -0.027738042 0.11020827
0.028545558 -0.019965202 0.10991478
0.028885758 -0.01697004 0.10944045
0.020553006 -0.028158972 0.10600924
0.02353139 -0.027528988 0.10609484
0.027058912 -0.025059665 0.10579884
0.028481331 -0.021305755 0.10581404
0.024115929 -0.027095957 0.10247958
0.026380701 -0.025043247 0.10196614
-0.0025862262 0.0033757708 0.18425637
0.0087728696 -0.026576582 0.12225926
0.01051924 -0.026959833 0.11704028
0.028157439 -0.011984834 0.1156038
0.029096514 -0.0090282755 0.11491585
0.013144055 -0.027551593 0.11271846
0.028515654 -0.013047522 0.11111891
0.028827211 -0.0095860045 0.11056232
0.014566896 -0.027789025 0.10920238
0.016661478 -0.027542135 0.10778677
0.028813634 -0.01469405 0.10696298
0.018259376 -0.027927477 0.10355496
0.027973365 -0.018986005 0.10205287
0.028782809 -0.016377633 0.10253096
0.019836942 -0.027741333 0.10040939
0.022677084 -0.027065421 0.099088907
0.026117153 -0.024061318 0.098511755
0.02737206 -0.020489225 0.098743558
0.023203477 -0.027021814 0.095488489
0.025763171 -0.024858641 0.094365895
0.026794529 -0.021414796 0.09439832
0.025669018 -0.025381895 0.090405703
0.0093503352 -0.027501808 0.11155987
0.011341556 -0.027409073 0.10638982
0.028266927 -0.012621125 0.10335177
0.028512472 -0.0088132825 0.1049853
0.012659675 -0.027490184 0.10162038
0.015894737 -0.02764019 0.10101485
0.027962122 -0.013127368 0.099557161
0.027460638 -0.0098673543 0.10111582
0.013828882 -0.027647156 0.098833799
0.016789133 -0.027373949 0.096979976
0.027547859 -0.018831544 0.095782042
0.028029665 -0.015268203 0.095614791
0.017593239 -0.026832048 0.093547344
0.021972226 -0.026837582 0.091959119
0.026336882 -0.023022544 0.092214882
0.027521765 -0.02006576 0.091700912
0.02826819 -0.016664805 0.090636313
0.022675626 -0.026814215 0.087864399
0.026291288 -0.024879705 0.087879896
0.027747605 -0.02101538 0.08698535
0.023389898 -0.026399426 0.082723796
0.026055554 -0.024933873 0.082594037
0.027375316 -0.022578815 0.082555175
0.010266985 -0.027068883 0.094795644
0.012531998 -0.026659587 0.09345454
0.027324729 -0.012049578 0.093520999
0.027109168 -0.0090346942 0.092821181
0.014302419 -0.026179289 0.0899297
0.027977973 -0.013416491 0.089315295
0.028055323 -0.010515762 0.088446617
0.01647158 -0.026148133 0.085427403
0.019289099 -0.026056312 0.085043132
0.027748002 -0.01894577 0.083344936
0.028064949 -0.014963059 0.084632516
0.028575458 -0.011710304 0.085030079
0.017347829 -0.0262329 0.081984222
0.020223226 -0.025930315 0.080491304
0.024618266 -0.025813883 0.080058336
0.027171256 -0.019481765 0.08033967
0.028113108 -0.016433846 0.080869436
0.022473011 -0.026582237 0.076448441
0.0253572 -0.025029646 0.076193452
0.026303926 -0.021261489 0.076477826
0.024197584 -0.027774105 0.072047234
0.025888937 -0.025260964 0.071797967
0.027001448 -0.022727259 0.071321726
0.024252582 -0.027978417 0.069174647
0.025747988 -0.026579611 0.068119943
0.0091428338 -0.026973136 0.087949991
0.012070872 -0.026563291 0.087109327
0.010355611 -0.027542666 0.083213747
0.013261301 -0.02694484 0.084043503
0.02886232 -0.0098718377 0.0817101
0.014352149 -0.026783295 0.078815877
0.017178882 -0.026233144 0.078852773
0.027942553 -0.014581785 0.0776999
0.028776534 -0.011525848 0.078303754
0.015012824 -0.026270594 0.074519634
0.018387668 -0.026046284 0.074392557
0.026277861 -0.018656148 0.073775291
0.02697942 -0.016084205 0.073365688
0.020115212 -0.026504718 0.07006979
0.0268317 -0.019647265 0.069095969
0.026804358 -0.016599432 0.069027185
0.022168729 -0.027057104 0.065192461
0.02619911 -0.025367465 0.065723479
0.02704471 -0.022254098 0.065314233
0.024786375 -0.025731388 0.061401784
0.026853712 -0.023054393 0.061243176
0.0083772903 -0.027085308 0.077160001
0.01204688 -0.027100485 0.077348888
0.028309669 -0.0092974333 0.075169325
0.0091628972 -0.027125685 0.072901547
0.012224406 -0.026254561 0.072129011
0.016444761 -0.025915999 0.071077108
0.026334999 -0.012652399 0.070808649
0.027487259 -0.0094584534 0.070701778
0.013191162 -0.026138132 0.067864776
0.017078742 -0.02608842 0.067497611
0.026300268 -0.01413318 0.067026258
0.027069043 -0.010858569 0.067305267
0.018260371 -0.026526388 0.063062787
0.026448825 -0.019081188 0.061810851
0.026423309 -0.01597517 0.062723756
0.019638741 -0.026503677 0.058416188
0.023689896 -0.025186818 0.057855427
0.025688954 -0.021646339 0.057046711
0.026577635 -0.01789418 0.057455659
0.019982882 -0.026360612 0.055086493
0.022844842 -0.02562025 0.053723574
0.025764771 -0.022297159 0.053484797
0.024040854 -0.025398122 0.050082564
0.025640074 -0.02368886 0.049894452
0.0092172157 -0.027411958 0.066118836
0.011994738 -0.027053718 0.065700829
0.026477702 -0.012377333 0.064902723
0.027307235 -0.010002409 0.06439954
0.013083851 -0.026371812 0.061783254
0.016299084 -0.026318535 0.061003089
0.026291979 -0.014431125 0.060025275
0.026448399 -0.011004519 0.060331345
0.013499646 -0.025733337 0.056769431
0.016903363 -0.026649047 0.056961894
0.026000269 -0.015020583 0.055081487
0.018412381 -0.026918575 0.052403748
0.026606183 -0.021237399 0.051542759
0.026353937 -0.018124454 0.051670074
0.019603813 -0.027179843 0.047518134
0.022952184 -0.026402906 0.048014283
0.026073538 -0.022246692 0.04706049
0.026475409 -0.01923559 0.047953486
0.020110669 -0.027115813 0.043196797
0.023302868 -0.026054535 0.043015003
0.025904849 -0.023540556 0.042601883
0.010876933 -0.026356773 0.058326304
0.025845312 -0.0099947294 0.057013512
0.012177648 -0.026545381 0.05442524
0.025782436 -0.014233682 0.052310824
0.025710199 -0.0097599896 0.053037345
0.00909374 -0.027664479 0.051173031
0.012635466 -0.027255729 0.049999118
0.016422939 -0.027089372 0.049167812
0.025569832 -0.014862025 0.048447132
0.02533214 -0.011156363 0.049165964
0.013282087 -0.027817376 0.045573175
0.016943511 -0.027340446 0.04497242
0.02597245 -0.016529491 0.044505358
0.014758877 -0.027803753 0.042313874
0.018204469 -0.027352057 0.040372133
0.022264792 -0.026449716 0.039923012
0.026477359 -0.021630231 0.040248036
0.026039246 -0.017431807 0.040089846
0.018524487 -0.02747668 0.036522031
0.022375276 -0.025733544 0.036313295
0.025532724 -0.022874931 0.036316574
0.026263947 -0.019585127 0.035462499
0.022320172 -0.025835177 0.033178866
0.025246272 -0.022743983 0.032859683
0.025392795 -0.0092933867 0.045794785
0.0084038451 -0.027441759 0.043221474
0.010849795 -0.027878437 0.042997599
0.025768638 -0.011127148 0.042024314
0.012747261 -0.027662992 0.038794041
0.025781112 -0.014897557 0.037040472
0.02562529 -0.012169523 0.036563456
0.013789186 -0.027237734 0.034931242
0.016132105 -0.027014107 0.032770157
0.025972113 -0.016490959 0.033446312
0.018356182 -0.026562944 0.029480577
0.021441251 -0.025153026 0.02890563
0.024101065 -0.021781029 0.028202176
0.025565252 -0.018455856 0.029222667
0.021875883 -0.02444247 0.024759412
0.023378525 -0.022587743 0.02439791
0.025747357 -0.0085698348 0.038830221
0.010123443 -0.027498763 0.036968231
0.026161833 -0.009840196 0.035415471
0.011345746 -0.027605096 0.032883227
0.026315771 -0.011296532 0.031338096
0.012016336 -0.027574509 0.028220952
0.015641022 -0.026775371 0.028007805
0.025467088 -0.016250489 0.026973248
0.026285257 -0.012332648 0.026235938
0.013459013 -0.027499847 0.024228513
0.016624317 -0.026650358 0.023576617
0.019945145 -0.025267463 0.023357034
0.024234498 -0.020798715 0.02293551
0.025586411 -0.017150853 0.022306323
0.017835151 -0.026616577 0.018454194
0.021106791 -0.025303755 0.019157708
0.024275655 -0.022394205 0.019138694
0.025411125 -0.018980779 0.017900348
0.021390492 -0.025315126 0.0145064
0.024755215 -0.022893867 0.01363951
0.025496582 -0.019779248 0.013697505
0.010321354 -0.027410891 0.024216294
0.026188873 -0.0096838251 0.02285248
0.011206893 -0.027069403 0.020679593
0.014251133 -0.026502823 0.019719362
0.025913082 -0.011897772 0.01918149
0.012180051 -0.026654465 0.016270459
0.015310027 -0.026735429 0.016288638
0.02540056 -0.016480379 0.015486956
0.026138648 -0.013116013 0.014560521
0.015994918 -0.026121777 0.011959672
0.019982466 -0.025009995 0.010382056
0.023273999 -0.023821274 0.010884166
0.025290493 -0.017611071 0.01084286
0.020516772 -0.02491368 0.0067590475
0.023902845 -0.02258154 0.007116437
0.02546593 -0.018981969 0.0076459646
0.0086839739 -0.027116111 0.018587708
0.00959564 -0.026556961 0.014447808
0.026123691 -0.010001092 0.013316035
0.011656921 -0.026515983 0.0092834234
0.013836533 -0.02598653 0.0089251399
0.025211725 -0.01555986 0.0081527233
0.025990749 -0.012169512 0.0083146095
0.011587309 -0.02668451 0.0049872994
0.015467915 -0.026196413 0.0053818226
0.018330419 -0.025290197 0.0042167902
0.025075592 -0.016993489 0.0040460229
0.025737315 -0.013694507 0.0032775402
0.01629604 -0.02635698 -0.00033861399
0.019653469 -0.024767838 0.00035399199
0.022708809 -0.021680279 0.00012648106
0.024096457 -0.018461047 -0.00081944466
0.0087141376 -0.025966624 0.0031973124
0.025148869 -0.011599161 0.00073134899
0.0256452 -0.0082338592 0.00072538853
0.012869325 -0.02624112 -0.0010607243
