# .PCD v0.7 - Point Cloud Data file format
VERSION 0.7
FIELDS x y z
SIZE 4 4 4
TYPE F F F
COUNT 1 1 1
WIDTH 446
HEIGHT 1
VIEWPOINT 0 0 0 1 0 0 0
POINTS 446
DATA ascii
0.025667315 0.022159504 0.18141153
0.023341514 0.024664998 0.18168432
0.020814776 0.026548915 0.18082348
0.027301475 0.022894774 0.17872331
0.024891727 0.025876537 0.17918363
0.021460056 0.027799372 0.17854977
0.029138608 0.024350585 0.17542642
0.026947107 0.027623694 0.17524365
0.02257772 0.027999507 0.1753062
0.029703137 0.025140777 0.17116454
0.027745223 0.028281519 0.17004257
0.01433143 0.024032507 0.18322888
0.011584985 0.026870932 0.18306577
0.028614115 0.013863042 0.17994788
0.026970275 0.016236987 0.1808562
0.024816323 0.019242212 0.18155697
0.021061143 0.022283396 0.18251008
0.018103112 0.025963586 0.18197843
0.014750889 0.027989266 0.18084279
0.011693257 0.028684702 0.1803799
0.029799247 0.01491042 0.17749643
0.029155629 0.01801298 0.17774272
0.027624516 0.020716233 0.17865297
0.019730682 0.028519319 0.17711478
0.016567975 0.029537305 0.17628142
0.029789597 0.019037623 0.17377183
0.029329659 0.021702973 0.17422372
0.021395449 0.02879921 0.17299068
0.017894944 0.029526545 0.17194727
0.029575985 0.019838139 0.16980189
0.029696584 0.022994947 0.16871977
0.025835017 0.028926091 0.16674453
0.022360498 0.02877502 0.16856426
0.018734969 0.029444084 0.16837877
0.029104441 0.023755871 0.16510996
0.027147803 0.027063038 0.16359249
0.023249922 0.028149029 0.16485095
0.025051083 0.0094583714 0.18220329
0.022740941 0.011885562 0.18299204
0.020314917 0.015091904 0.18317965
0.017044097 0.01794612 0.18260577
0.013208831 0.021545628 0.18278766
0.010750869 0.024021147 0.18328923
0.027521711 0.01069072 0.18033034
0.02492368 0.0135391 0.18181419
0.022139587 0.016856123 0.18231133
0.019287951 0.01959331 0.18204215
0.0098458901 0.028689072 0.17895451
0.029728008 0.0091185737 0.17645681
0.02978977 0.012189863 0.17548209
0.010566644 0.029159166 0.1736272
0.029785566 0.013740764 0.17090589
0.029710477 0.016919134 0.17085624
0.015702341 0.029801879 0.17001432
0.012087145 0.029212456 0.16933993
0.029737769 0.01421318 0.16708452
0.029514559 0.017480429 0.16652864
0.019996688 0.028720926 0.16600072
0.016739227 0.029219672 0.16528875
0.029509079 0.018216737 0.16235059
0.028706718 0.02165354 0.16228119
0.026025005 0.026500635 0.16058633
0.021277728 0.028151637 0.16164103
0.018246572 0.028696395 0.16222429
0.028934184 0.022606883 0.15743881
0.026673889 0.026482007 0.15681466
0.022744112 0.027882103 0.15675694
0.029261639 0.024157541 0.15251729
0.027964395 0.026578225 0.15208215
0.025063589 0.028162606 0.15155125
0.028502893 0.02694273 0.14888424
0.015482832 0.010270217 0.18279842
0.012632853 0.013073594 0.18256116
0.0092687001 0.016302926 0.18224362
0.0064994586 0.020621749 0.18321651
0.020330472 0.0094821136 0.18325442
0.01784776 0.012654035 0.18339181
0.01416483 0.014566943 0.18227965
0.012017557 0.018028691 0.18183053
0.029679377 0.010939253 0.16863346
0.010198181 0.029126706 0.16638803
0.029849518 0.013023291 0.16434562
0.014266716 0.028526763 0.16167486
0.011267022 0.028837752 0.16220775
0.030034889 0.013609714 0.16003931
0.029191967 0.016030759 0.15939337
0.01565174 0.02787466 0.1584526
0.012196256 0.028254313 0.15848911
0.029953238 0.013747937 0.15589035
0.02929987 0.017408859 0.15579537
0.029300194 0.02060914 0.1553286
0.020658566 0.028108755 0.15484345
0.017078806 0.027667709 0.15408403
0.029413637 0.017997306 0.15156224
0.029338889 0.021738756 0.15089896
0.022042962 0.028805936 0.14994442
0.01901908 0.028883537 0.14981163
0.028917165 0.022246459 0.14665106
0.027813768 0.026073823 0.14520961
0.023554519 0.028409585 0.14481071
0.019361652 0.02905944 0.14637387
0.026997905 0.026323445 0.14141306
0.024381669 0.028095635 0.14092684
0.016686246 0.0057685124 0.1822575
0.013153915 0.0084383013 0.18295574
0.010363432 0.010865141 0.18303135
0.0076723485 0.014452796 0.1825375
0.0090371752 0.028985303 0.15980843
0.029414665 0.0097936084 0.15727621
0.014022465 0.028038885 0.1557326
0.010715628 0.028809758 0.15582067
0.029725656 0.012401371 0.15320122
0.029229188 0.014753191 0.15318823
0.01492474 0.028011074 0.15215409
0.011705694 0.028810553 0.15130931
0.029686321 0.013107083 0.14980394
0.029212384 0.015714617 0.1483835
0.015740037 0.028411843 0.14761284
0.013080955 0.028624482 0.14707911
0.028773407 0.016978202 0.14503169
0.028268684 0.020442069 0.1438047
0.017889708 0.029356785 0.14314705
0.028113697 0.021063223 0.13958678
0.027478121 0.02479789 0.13900518
0.023643944 0.028667327 0.1386666
0.019135959 0.029822323 0.13859037
0.028454721 0.022421412 0.13517174
0.027251212 0.025190184 0.13427639
0.024696216 0.028461337 0.13443404
0.021911208 0.029684335 0.13319266
0.026720399 0.026117878 0.13042372
0.02474872 0.02839186 0.12997156
0.0057311165 0.0068153986 0.1836893
0.0035666935 0.0098768985 0.18347931
0.010733288 0.0051610842 0.18259242
0.0079195425 0.0084764734 0.18334207
0.0048875245 0.011138201 0.18294078
0.0093463361 0.028842248 0.14873171
0.028883545 0.010138752 0.14590156
0.010433625 0.028370544 0.1441626
0.02871434 0.010999191 0.14184368
0.028703766 0.014825741 0.14196825
0.012114981 0.028330168 0.13975257
0.028496571 0.015534147 0.1374431
0.027970243 0.01890618 0.13739651
0.016797759 0.029889222 0.13679609
0.0141731 0.029197162 0.13577402
0.029024698 0.016221292 0.13311145
0.028409876 0.020136643 0.13319242
0.027713522 0.023378067 0.13143954
0.018378079 0.02968638 0.13291374
0.015466409 0.029615356 0.13108462
0.028866261 0.020798285 0.12835851
0.027397996 0.024530271 0.12782738
0.024993943 0.027650336 0.12714362
0.020612648 0.028888607 0.12760311
0.029136043 0.021232165 0.12414044
0.027354551 0.024691338 0.12262657
0.024673492 0.027228039 0.12266162
0.022017924 0.028704317 0.12318459
0.003847105 0.0041208169 0.18392402
0.0091879787 0.028267469 0.13795614
0.028494388 0.010209498 0.13470066
0.028290588 0.012694647 0.13457343
0.010752369 0.028641231 0.13339496
0.02859482 0.014186518 0.13031432
0.012276397 0.02928815 0.12894481
0.028921453 0.015929682 0.12657863
0.029306948 0.018974483 0.12619299
0.018489014 0.029179867 0.12603113
0.015150204 0.029156227 0.12517327
0.029135343 0.016701236 0.12290761
0.029005365 0.019568687 0.12172306
0.028311964 0.023381628 0.12033749
0.023931967 0.027586052 0.11992407
0.019801855 0.028579719 0.12100005
0.016612411 0.029034071 0.12093443
0.028634902 0.020886078 0.11759597
0.027619673 0.024403678 0.11661518
0.024859788 0.027383422 0.11654186
0.020763796 0.028425697 0.11613655
0.027122797 0.025071932 0.11134917
0.025140213 0.027383694 0.11091053
0.022542145 0.028693154 0.11193132
0.00045671451 0.0011839056 0.18428224
0.027987685 0.011953656 0.12728453
0.027590802 0.011953587 0.12318432
0.012611333 0.029024381 0.12228441
0.0099158511 0.029257741 0.12169939
0.028070372 0.014448549 0.11905694
0.013971278 0.028800884 0.11790437
0.010148396 0.029334147 0.11801678
0.027959604 0.015097662 0.11546671
0.028979013 0.018531995 0.11561674
0.019209057 0.028731782 0.11435044
0.015621306 0.029132435 0.1138674
0.028320406 0.019594923 0.11072761
0.02773698 0.022941183 0.11068797
0.020657817 0.028917713 0.11012018
0.016958248 0.029336981 0.10920197
0.028528584 0.020420382 0.10568249
0.028005185 0.024030877 0.10669333
0.025801823 0.027545322 0.10583037
0.021068623 0.028872719 0.1055606
0.017944194 0.029655974 0.10562044
0.027673496 0.024201086 0.10241538
0.025514942 0.026794672 0.10104311
0.022703491 0.02839648 0.1021024
-0.0055831755 -0.0047236076 0.18492225
-0.0031814203 -0.0023855041 0.18444845
0.027142514 0.0094620967 0.12153596
0.02756837 0.010360035 0.11702335
0.0091279922 0.029195484 0.11503398
0.027825618 0.012830509 0.1121574
0.013271789 0.029202551 0.11116129
0.0098871142 0.029518913 0.11089808
0.027592465 0.014297865 0.10794204
0.027418993 0.016002495 0.10684103
0.01430179 0.029242164 0.1065622
0.011196144 0.028943527 0.1067552
0.028270114 0.017624337 0.10341185
0.019807987 0.028455671 0.10221267
0.016607393 0.029369425 0.10223198
0.027952414 0.019950204 0.098637462
0.027542349 0.023031846 0.098990619
0.02391577 0.026875829 0.098729312
0.020447483 0.027950922 0.098396242
0.017441338 0.028889297 0.098951221
0.027294904 0.023497637 0.094639242
0.024941871 0.026399134 0.094514787
0.021551408 0.027558751 0.094278336
0.026898498 0.024277048 0.090586901
0.025609832 0.026458599 0.090233147
0.027794274 0.0088823717 0.11187345
0.027503923 0.011057552 0.10646462
0.0091314148 0.029447114 0.10506469
0.027496532 0.012666405 0.10162812
0.027603857 0.015798412 0.09994787
0.013105854 0.028629642 0.1009146
0.0099029737 0.028740145 0.10055345
0.02726768 0.01342161 0.098350644
0.027398389 0.016056336 0.096660793
0.01880789 0.028146347 0.095457435
0.015038071 0.02877553 0.095553815
0.027380645 0.019012272 0.091756225
0.027782949 0.02138414 0.092436492
0.020360103 0.028211271 0.091890454
0.016625082 0.029441619 0.091055155
0.027705815 0.022764482 0.087979257
0.025382696 0.026978357 0.087705195
0.021667976 0.028648861 0.087712526
0.018245129 0.02960532 0.086493969
0.027638916 0.023858152 0.083242536
0.026019042 0.026920097 0.083602309
0.022518612 0.028615169 0.08293128
0.027813341 0.024555445 0.0783602
0.026255747 0.026916405 0.078743219
0.023565689 0.028151384 0.078671932
0.026904812 0.0081887227 0.099065542
0.027015284 0.010209248 0.094727218
0.026769957 0.012650521 0.09359622
0.0091478452 0.028379347 0.093234658
0.02652638 0.014181044 0.090337455
0.010421314 0.029174954 0.088793337
0.026997792 0.016363295 0.085930705
0.015710615 0.029707626 0.085160255
0.012070987 0.029654536 0.084304631
0.026839346 0.01727923 0.081678629
0.026918812 0.020540392 0.080344558
0.020272072 0.027885083 0.079294026
0.016500097 0.029107224 0.080170631
0.013122298 0.029741842 0.080631912
0.027132962 0.021834642 0.076232016
0.0262406 0.026749911 0.075606942
0.021122439 0.027857235 0.075673699
0.018080542 0.028528983 0.076178133
0.02767979 0.024098698 0.071920633
0.026028549 0.026378455 0.072194934
0.022178847 0.028096009 0.071622133
0.025414012 0.026588023 0.068853974
0.023786308 0.02789825 0.068543196
0.027013471 0.0091863852 0.088002205
0.02681466 0.012341017 0.087435842
0.027912689 0.010441279 0.083410382
0.02735264 0.013159851 0.083751738
0.0096228439 0.029828412 0.081868529
0.027835449 0.010908606 0.079187095
0.027410792 0.014423976 0.078993738
0.026705144 0.017623393 0.078429639
0.014483329 0.028974142 0.077044964
0.011271453 0.029780397 0.077387929
0.026915025 0.015642188 0.07432282
0.026610559 0.018084945 0.074184537
0.015888177 0.028797936 0.07354629
0.012671757 0.029478244 0.072570145
0.026755722 0.020155525 0.069858074
0.020232189 0.028375097 0.069437146
0.01774456 0.028868653 0.069046617
0.026557902 0.022053139 0.066137195
0.026030842 0.025335591 0.065694094
0.021946689 0.02790658 0.065230072
0.018421795 0.028383967 0.065128207
0.025681406 0.025116626 0.061164498
0.023085894 0.026886152 0.061285734
0.027638141 0.012504492 0.075956404
0.027503168 0.0096921716 0.072626472
0.026690781 0.012330361 0.072149575
0.0092634195 0.029083829 0.071031809
0.026296593 0.013360652 0.068077505
0.026254399 0.016632931 0.068358064
0.014373543 0.028441032 0.066461682
0.01101073 0.028791454 0.066417813
0.02621104 0.018284829 0.063202024
0.019932194 0.027746586 0.061677337
0.016378129 0.027836105 0.061726391
0.012289066 0.028250951 0.062855184
0.02630816 0.019129369 0.058645606
0.02517811 0.023889491 0.058113396
0.021011256 0.026662681 0.057630301
0.017121863 0.027460277 0.057471871
0.025255302 0.02316854 0.053849995
0.023067152 0.026236353 0.05286324
0.019830674 0.027270742 0.053046703
0.025398158 0.024040889 0.050082624
0.023636572 0.026441835 0.048571408
0.02755346 0.0092495512 0.067094445
0.026909022 0.011838866 0.065504789
0.0087588448 0.028861048 0.064916492
0.026035551 0.012868471 0.061553776
0.026287481 0.016266048 0.06096077
0.011151029 0.027665785 0.058950484
0.0087757222 0.028720833 0.060720444
0.025640346 0.013400231 0.056641996
0.026517246 0.016763207 0.056780517
0.016223636 0.027838364 0.056046903
0.012596622 0.026950799 0.055366516
0.026088141 0.018135414 0.051935256
0.025784675 0.021251787 0.05237639
0.017075907 0.027478565 0.051230073
0.026470419 0.019709133 0.047707081
0.026147014 0.022683023 0.047657728
0.022259779 0.02741459 0.047590137
0.019449648 0.027974948 0.047681868
0.026016973 0.023656171 0.043319404
0.024099156 0.026805881 0.043556511
0.020062348 0.02703697 0.042632401
0.024121901 0.025854407 0.038490534
0.025773985 0.01098199 0.0586797
0.026275612 0.011658574 0.05442977
0.011033165 0.027299199 0.05241251
0.026777517 0.01216263 0.05005765
0.026184728 0.015517602 0.048990607
0.011994245 0.027108252 0.047997773
0.026956165 0.01360199 0.045690238
0.026534835 0.017319733 0.045164347
0.017112972 0.027518949 0.043624282
0.012860304 0.027733253 0.044221878
0.026937343 0.017802019 0.040512562
0.026152764 0.021647397 0.040004373
0.022011351 0.026820201 0.039697766
0.01816375 0.027044812 0.039518714
0.014339882 0.027371336 0.040840983
0.027091486 0.019058516 0.0361709
0.025897875 0.022816923 0.036272287
0.023278359 0.026159678 0.035365999
0.018930636 0.027236998 0.036050737
0.026269687 0.02174831 0.033117056
0.023072386 0.025484396 0.031138182
0.020725917 0.027191941 0.031614363
0.026887454 0.010092866 0.047068715
0.027174287 0.010963508 0.043200731
0.010786485 0.027958728 0.041837692
0.02710066 0.012531369 0.038954318
0.01235809 0.02755175 0.037159324
0.0088107353 0.027878985 0.037205279
0.026840363 0.013363107 0.034363687
0.02703961 0.016584981 0.034502506
0.017159242 0.027110916 0.032844067
0.013907038 0.027410626 0.032514572
0.02644356 0.018104047 0.030113876
0.025096986 0.021381546 0.028824985
0.022946758 0.025252955 0.028766155
0.018961046 0.027374934 0.029380739
0.024567155 0.021697944 0.025445461
0.022666899 0.025029724 0.024408281
0.0200531 0.027187325 0.02365756
0.022231229 0.026160311 0.020298064
0.02104653 0.026990112 0.019977331
0.027151141 0.010735936 0.036056101
0.027155928 0.010860988 0.032238722
0.026356958 0.014696337 0.030633092
0.011695529 0.027735353 0.030697048
0.026684746 0.012012058 0.027383447
0.026246371 0.015907681 0.027085125
0.016217537 0.02657247 0.025761485
0.012990119 0.02777865 0.026793003
0.0095498171 0.028166747 0.026214957
0.026289601 0.016589351 0.023286223
0.02469236 0.020194396 0.022920489
0.023280477 0.023237938 0.021244884
0.017129358 0.027313773 0.022648275
0.014300227 0.028569475 0.022471547
0.026307631 0.018059492 0.018915176
0.025156036 0.020951413 0.0189417
0.023198972 0.024634497 0.018693805
0.019255135 0.027852274 0.018508494
0.015444428 0.029214878 0.017574787
0.025155 0.022079572 0.014678299
0.023657756 0.025274085 0.014301777
0.02029728 0.027738063 0.01373148
0.016655982 0.02846393 0.01338172
0.024026508 0.025450042 0.010375023
0.021464646 0.026930872 0.0094555616
0.026889995 0.0095336968 0.025458992
0.02630952 0.010593778 0.021434605
0.02614364 0.013927534 0.020312786
0.0094168037 0.028276928 0.019206524
0.02585862 0.011449071 0.017351806
0.026231691 0.015473314 0.016023457
0.01036433 0.02852517 0.015212178
0.025545806 0.01690368 0.011059821
0.025278239 0.020016162 0.011186659
0.018005181 0.027601849 0.0094692707
0.014994482 0.028369566 0.010767102
0.025382213 0.021008242 0.0074561834
0.023038469 0.024697099 0.0060557127
0.019290186 0.027117182 0.0066264868
0.015496992 0.028092049 0.0068202019
0.024823455 0.021917211 0.0041719675
0.022999723 0.024111733 0.0028515458
0.020026999 0.026292583 0.0035595298
0.025949609 0.0081730084 0.018104672
0.025782118 0.0095649492 0.014287114
0.025798226 0.010947635 0.0093517303
0.025547437 0.013564743 0.0094256997
0.011517514 0.027341135 0.0076606274
0.0088487184 0.027505033 0.0083130598
0.025749171 0.015770724 0.0049780607
0.025335666 0.018378444 0.0042848587
0.013566118 0.027784493 0.0033204556
0.026181899 0.016433477 -0.00026625395
0.025267042 0.019901715 0.00063693523
0.022866607 0.02333932 -0.00016593933
0.01895291 0.026397556 -6.4373016e-06
0.025263643 0.0095535312 0.0030580759
0.025674533 0.01257113 0.0038043261
