# .PCD v0.7 - Point Cloud Data file format
VERSION 0.7
FIELDS x y z
SIZE 4 4 4
TYPE F F F
COUNT 1 1 1
WIDTH 370
HEIGHT 1
VIEWPOINT 0 0 0 1 0 0 0
POINTS 370
DATA ascii
-0.0150964 -0.023871349 0.18357369
-0.012826514 -0.026252721 0.18345574
-0.026055539 -0.015474904 0.18110865
-0.023849186 -0.018314037 0.18100107
-0.020247761 -0.021643076 0.18045852
-0.017395459 -0.025058726 0.18090245
-0.014474604 -0.027710875 0.18055412
-0.01152131 -0.028513093 0.1802021
-0.020144012 -0.022944253 0.17689091
-0.017855795 -0.025758032 0.17652172
-0.015566259 -0.027674243 0.17662218
-0.0085206926 -0.022163395 0.18458536
-0.02562061 -0.0092154909 0.18421465
-0.023271378 -0.012505585 0.18448377
-0.020610651 -0.015202007 0.18407393
-0.017330961 -0.018656475 0.18323028
-0.013734112 -0.021645255 0.1838766
-0.01134155 -0.0248625 0.1843009
-0.027806057 -0.011397158 0.18066472
-0.026558109 -0.013700558 0.18053541
-0.021356758 -0.017944502 0.18239841
-0.019914988 -0.019294804 0.18224627
-0.0096663591 -0.028510235 0.17876822
-0.02831535 -0.011641737 0.17552358
-0.026670856 -0.015362605 0.17504686
-0.024295487 -0.018611135 0.17529568
-0.021470999 -0.021929463 0.17496312
-0.018460277 -0.025410689 0.17424136
-0.014888018 -0.028087538 0.1741071
-0.01092016 -0.028694244 0.17320797
-0.028264804 -0.012972081 0.1711258
-0.027129985 -0.015777433 0.17026505
-0.024940329 -0.018980058 0.17037413
-0.021692699 -0.022272052 0.17015409
-0.018398076 -0.025512414 0.16988194
-0.015283631 -0.027997185 0.16933745
-0.012131704 -0.028659172 0.16970208
-0.027228301 -0.017286859 0.16626209
-0.025429273 -0.019437179 0.16561589
-0.022803828 -0.022183426 0.16525209
-0.019473702 -0.025400553 0.16494802
-0.015972303 -0.028118528 0.16539705
-0.023882911 -0.022155609 0.162184
-0.021728495 -0.024688987 0.16221625
-0.019625273 -0.0088424906 0.18438494
-0.016615534 -0.01146077 0.18397391
-0.013117384 -0.01361446 0.1838071
-0.010030369 -0.017109266 0.18364367
-0.0068751066 -0.02055693 0.18402642
-0.017295972 -0.013995026 0.18372205
-0.015451632 -0.01590064 0.18361169
-0.013180973 -0.018316668 0.18350881
-0.028288888 -0.010247513 0.17254636
-0.028358011 -0.010788846 0.16872549
-0.02774458 -0.01412913 0.16773641
-0.010015269 -0.028570922 0.1663909
-0.028263206 -0.011747492 0.16352946
-0.027660832 -0.015185243 0.16427475
-0.026317878 -0.018090278 0.16338271
-0.014991061 -0.027864989 0.16222081
-0.011447274 -0.028603239 0.16192958
-0.028503597 -0.012534233 0.1599946
-0.027505774 -0.015311112 0.15989515
-0.025353553 -0.018788939 0.1594826
-0.022682879 -0.022008654 0.1590364
-0.019402768 -0.025309501 0.15916449
-0.015288921 -0.026905593 0.15836668
-0.012128425 -0.028186461 0.15841541
-0.019457009 -0.023977991 0.15497899
-0.016703757 -0.0058970191 0.18415132
-0.013830354 -0.0086891409 0.18389553
-0.010134935 -0.010704273 0.18426704
-0.0077694198 -0.013979293 0.18368626
-0.0088865189 -0.028873183 0.16059077
-0.028628662 -0.01091334 0.15738788
-0.027232049 -0.014850251 0.1567196
-0.013652642 -0.027064396 0.15563872
-0.010541772 -0.028636303 0.15563095
-0.028668288 -0.012301985 0.15346068
-0.027369633 -0.014772058 0.1530337
-0.02502114 -0.018122541 0.15337709
-0.02216609 -0.020929398 0.15314171
-0.018631 -0.024281405 0.1521658
-0.014971618 -0.026937502 0.1520007
-0.011274343 -0.028304584 0.15115112
-0.026828768 -0.015238144 0.14859086
-0.02497996 -0.018016979 0.14792281
-0.022566473 -0.021048868 0.14783365
-0.019368786 -0.023908922 0.14760965
-0.016047325 -0.026821008 0.14696532
-0.01253467 -0.02811734 0.14742959
-0.023212552 -0.020554375 0.14420572
-0.0065364293 -0.0071397405 0.18381184
-0.0031437324 -0.0094451951 0.18305358
-0.010656 -0.0055101095 0.18344325
-0.0044429116 -0.011643939 0.18293536
-0.028436136 -0.0086933095 0.15053111
-0.0094167031 -0.028269663 0.14816529
-0.028194876 -0.0099769421 0.14567587
-0.02732366 -0.013689967 0.14619869
-0.025719365 -0.016483452 0.14544958
-0.014138693 -0.027665803 0.14439115
-0.010568347 -0.027655497 0.14413884
-0.027979705 -0.010906539 0.14198539
-0.02712227 -0.014086436 0.1414907
-0.025185421 -0.01765603 0.14197519
-0.022484554 -0.02091107 0.14153177
-0.019579582 -0.023453772 0.14166647
-0.015990682 -0.026507575 0.14112091
-0.011919825 -0.027960176 0.13981858
-0.02499477 -0.017239764 0.13785493
-0.02203496 -0.020453904 0.13729975
-0.019916022 -0.023518328 0.13622656
-0.016696976 -0.026711222 0.13615072
-0.013921522 -0.028447839 0.13474503
-0.02012562 -0.024631515 0.13162839
-0.01808429 -0.02715325 0.13135904
-0.015659578 -0.028576408 0.13159359
-0.0036172906 -0.0042129196 0.1827395
-0.008525813 -0.027800633 0.14205348
-0.028321985 -0.008694455 0.13960251
-0.027597733 -0.012242235 0.13866904
-0.0094155706 -0.0279992 0.13747871
-0.027974345 -0.0095427288 0.13555655
-0.026747117 -0.013339373 0.13516927
-0.024634726 -0.016695941 0.13449192
-0.022497401 -0.019923545 0.13473168
-0.011328973 -0.028757814 0.13428593
-0.0094927447 -0.028263416 0.13051403
-0.026602482 -0.013977777 0.13072914
-0.024736635 -0.016792435 0.13006946
-0.022642396 -0.020221021 0.1304014
-0.021217944 -0.023099465 0.13060987
-0.01338427 -0.029111749 0.12929082
-0.024814853 -0.017384786 0.12636483
-0.022580978 -0.019953117 0.12638596
-0.020430202 -0.023506442 0.12562498
-0.017842062 -0.0266528 0.12543541
-0.014896314 -0.028211318 0.12550285
0.00098530611 0.00035713115 0.18189487
-0.0015683577 -0.002189022 0.18256298
-0.026847534 -0.011080291 0.13187015
-0.02683818 -0.012124218 0.12794971
-0.025451403 -0.015204576 0.12748986
-0.026505891 -0.012824846 0.12363076
-0.025504816 -0.016704937 0.12394559
-0.02258753 -0.019806542 0.12342289
-0.019797729 -0.022731382 0.12233201
-0.017138656 -0.025837185 0.12238634
-0.013187574 -0.028334707 0.12258452
-0.0095762312 -0.028743494 0.1215924
-0.026492402 -0.01387298 0.11968547
-0.025679989 -0.017136898 0.11929035
-0.022649234 -0.019613769 0.11852163
-0.019769918 -0.022511292 0.11832392
-0.016866313 -0.02538152 0.11809611
-0.013722687 -0.027395129 0.11788839
-0.025292166 -0.017236799 0.11497855
-0.020372024 -0.021959549 0.11451405
-0.017247407 -0.025554381 0.11377507
0.0030394492 0.0023363691 0.18269339
-0.02706572 -0.0089522023 0.12508023
-0.026786201 -0.0099910153 0.12121716
-0.026948163 -0.011070989 0.11705714
-0.026065096 -0.015183782 0.11626285
-0.012136112 -0.027651984 0.11509305
-0.026841937 -0.012069814 0.11183721
-0.025776807 -0.016328543 0.11226845
-0.022647789 -0.019300992 0.11251283
-0.019792883 -0.02249787 0.11194372
-0.017368801 -0.025556825 0.11122262
-0.013691885 -0.027732136 0.11157441
-0.0097078225 -0.028947873 0.11070752
-0.025533712 -0.016756602 0.10769546
-0.022955449 -0.019310517 0.1068424
-0.020227648 -0.022402178 0.10685521
-0.017593808 -0.025583109 0.10697913
-0.01424006 -0.027489223 0.1061942
-0.023335688 -0.019499477 0.10326421
-0.020455386 -0.022798046 0.10251129
-0.017526334 -0.025333615 0.10286415
-0.01536194 -0.027046293 0.10244989
0.0025468715 0.007609556 0.18336505
0.0053254846 0.0045550852 0.18327627
-0.027578574 -0.0091238618 0.11138314
-0.027137924 -0.011079269 0.1065588
-0.026025943 -0.015165929 0.10513926
-0.012306415 -0.027992643 0.10397643
-0.0089465557 -0.028877087 0.10503131
-0.027179746 -0.012551701 0.1017527
-0.026072284 -0.016287535 0.10121161
-0.023665957 -0.019688411 0.10062748
-0.021044156 -0.02238586 0.099991143
-0.017634064 -0.025307024 0.099958599
-0.014009132 -0.02754841 0.09988904
-0.0098453807 -0.028060991 0.10078591
-0.027251894 -0.013404663 0.098330498
-0.026039653 -0.016502606 0.096858978
-0.023763321 -0.01963187 0.09769088
-0.020563979 -0.022210713 0.096109033
-0.017782778 -0.025275934 0.096077919
-0.01432541 -0.02720923 0.095937371
-0.017744433 -0.025099117 0.092968583
-0.015575718 -0.02682854 0.092557073
-0.02693115 -0.0082172239 0.099098802
-0.027100226 -0.010301099 0.094836056
-0.025971202 -0.013344362 0.093976617
-0.022608036 -0.018313035 0.094178438
-0.012617745 -0.02722873 0.093505204
-0.0087501761 -0.027749456 0.092857957
-0.025587272 -0.01447841 0.090073884
-0.02277525 -0.018275516 0.090273082
-0.019915249 -0.021291293 0.090162098
-0.017297849 -0.024504768 0.08932972
-0.013806911 -0.027155275 0.089336455
-0.01041878 -0.02824826 0.088395774
-0.025694143 -0.015450044 0.085722804
-0.023171663 -0.018636156 0.084984958
-0.02045241 -0.021548972 0.084657669
-0.017465333 -0.02444458 0.084392786
-0.014484385 -0.027110584 0.084246218
-0.011896777 -0.028721061 0.084235311
-0.018773563 -0.02460371 0.08133769
-0.016061528 -0.026793219 0.080832779
-0.027483406 -0.0090915048 0.087968051
-0.026657563 -0.012172181 0.087231815
-0.027901674 -0.0098979054 0.083348811
-0.026841186 -0.013450211 0.083415151
-0.024739891 -0.016889032 0.082723737
-0.01316583 -0.027903434 0.081573963
-0.0098078037 -0.029111899 0.081780374
-0.027663929 -0.010723201 0.078960299
-0.02661846 -0.013634717 0.078995943
-0.023692254 -0.017869836 0.078750014
-0.020889588 -0.021700645 0.078991055
-0.017996132 -0.024964679 0.078434646
-0.014738046 -0.027580017 0.078142405
-0.011153247 -0.029034186 0.077532768
-0.02064134 -0.021241186 0.074490547
-0.017836206 -0.024357004 0.074483395
-0.015006745 -0.026752377 0.073342562
-0.025884669 -0.013695409 0.075492442
-0.024584448 -0.015372207 0.075629652
-0.0092342896 -0.028698742 0.074344873
-0.027741589 -0.0090987049 0.072598219
-0.026048655 -0.012401262 0.07219398
-0.023480296 -0.016069727 0.07224822
-0.020774907 -0.020245656 0.071427047
-0.017609656 -0.023984153 0.071046948
-0.01418456 -0.026508637 0.070868731
-0.0096248798 -0.028243272 0.070691466
-0.026248993 -0.012913037 0.067671657
-0.023958031 -0.016295001 0.06759727
-0.021634107 -0.019630669 0.067474127
-0.018257271 -0.023456188 0.067076623
-0.014071908 -0.026496941 0.066518128
-0.011261719 -0.027906097 0.066556692
-0.024293885 -0.016908972 0.063586354
-0.022021372 -0.020091856 0.063479543
-0.019037353 -0.023422828 0.062665164
-0.015298653 -0.026068648 0.062754989
-0.027977075 -0.0088508585 0.066060424
-0.026966862 -0.012204345 0.065085173
-0.0093859332 -0.028164092 0.064917624
-0.027206447 -0.0092307543 0.061342955
-0.02594234 -0.012624405 0.061198711
-0.024724752 -0.016291475 0.060716152
-0.022244837 -0.020167582 0.060592413
-0.015574433 -0.025927184 0.06007576
-0.011684297 -0.027180854 0.060120702
-0.025562864 -0.013317387 0.0565359
-0.024261778 -0.01641855 0.0567469
-0.021932622 -0.01968286 0.056967139
-0.018954672 -0.02239117 0.055813015
-0.015566686 -0.024953248 0.055392742
-0.026181638 -0.010688204 0.058086574
-0.0095668603 -0.02672093 0.056570888
-0.026138911 -0.011762253 0.054225445
-0.024210459 -0.015285304 0.053189814
-0.021226861 -0.018787235 0.052791953
-0.017401684 -0.022960812 0.052748919
-0.014560459 -0.025107842 0.052113056
-0.011016024 -0.026381481 0.0531106
-0.027875924 -0.0092593692 0.050380111
-0.026647829 -0.011768706 0.04980135
-0.024124091 -0.015508803 0.049618065
-0.021272194 -0.01867442 0.049621999
-0.01845547 -0.022087006 0.049024224
-0.015485475 -0.02461699 0.0485394
-0.011078424 -0.026201382 0.048267663
-0.026556753 -0.012744075 0.046431124
-0.02460786 -0.015734764 0.044865847
-0.021702446 -0.018856719 0.044806242
-0.019310631 -0.022183547 0.044643998
-0.016022623 -0.025482247 0.044425964
-0.012759775 -0.026778186 0.043956161
-0.024331244 -0.01728164 0.041460335
-0.022417078 -0.019389296 0.041454971
-0.019548055 -0.022916533 0.040843427
-0.016874481 -0.025372125 0.040835261
-0.009135698 -0.026559986 0.046077311
-0.027698081 -0.0086178072 0.042485058
-0.027202733 -0.01193979 0.04366982
-0.010459423 -0.027151294 0.041610241
-0.026970971 -0.011988319 0.038406849
-0.025284635 -0.015832745 0.0388273
-0.022396088 -0.019205669 0.038154125
-0.019925464 -0.022251997 0.037833631
-0.016259784 -0.025533659 0.037650049
-0.012398332 -0.026785448 0.037255347
-0.025095556 -0.016043572 0.034009218
-0.022094702 -0.018673705 0.03334862
-0.019472029 -0.022117589 0.033709645
-0.016582478 -0.02527946 0.033692002
-0.013088169 -0.026859026 0.033259332
-0.027425613 -0.010969609 0.035343826
-0.010040282 -0.027006583 0.035401583
-0.028281499 -0.0086047444 0.032283604
-0.027372874 -0.011775789 0.032642484
-0.025899941 -0.014327804 0.032188058
-0.016578168 -0.024114156 0.029730678
-0.011464851 -0.027016861 0.031335115
-0.027602077 -0.012047363 0.028261721
-0.0253345 -0.015577974 0.028334022
-0.022218695 -0.018530998 0.02801466
-0.019101057 -0.021482458 0.027692914
-0.01598057 -0.02469651 0.026933253
-0.012637462 -0.026916323 0.026839375
-0.0089089992 -0.027570475 0.026423693
-0.025598601 -0.015623759 0.024276376
-0.022326138 -0.01842529 0.023740172
-0.019102931 -0.021652471 0.022665501
-0.01668244 -0.024863685 0.021742642
-0.013733257 -0.027025323 0.022090316
-0.027630238 -0.010558993 0.024535835
-0.010449633 -0.026911888 0.022821605
-0.027069468 -0.01109679 0.020789444
-0.024941549 -0.014747558 0.019974172
-0.021669049 -0.017570436 0.019450784
-0.019167097 -0.020650476 0.019133031
-0.012200024 -0.027239602 0.019164622
-0.0087892236 -0.027164113 0.018534422
-0.024496995 -0.014097066 0.015962601
-0.020608094 -0.017337581 0.015262127
-0.018840164 -0.020648809 0.015104532
-0.016393058 -0.024604967 0.015499175
-0.013348989 -0.026996022 0.015532851
-0.018333983 -0.022047516 0.012423754
-0.016374387 -0.024122642 0.011284232
-0.013627036 -0.026519718 0.011948109
-0.026654765 -0.0097739082 0.014368773
-0.024412591 -0.013888487 0.013587892
-0.021426449 -0.016542634 0.013704896
-0.010562139 -0.026599392 0.011883676
-0.026445508 -0.010753586 0.0090507269
-0.024691861 -0.013946488 0.0094801188
-0.021684082 -0.017086057 0.0093689561
-0.019217657 -0.020508735 0.0095867515
-0.016546359 -0.023661591 0.0083763599
-0.012342339 -0.026431559 0.0081237555
-0.0083785439 -0.026382204 0.007922411
-0.027195672 -0.012074519 0.0046139956
-0.025391757 -0.014392288 0.0048490167
-0.022352029 -0.017483821 0.0042119622
-0.019361006 -0.020670867 0.0046181679
-0.016275359 -0.023955856 0.0037275553
-0.013376617 -0.025625523 0.0038727522
-0.026806895 -0.0084112743 0.0072817206
-0.026879352 -0.0083459672 0.002456665
-0.011161564 -0.025783569 0.0019373894
