# .PCD v0.7 - Point Cloud Data file format
VERSION 0.7
FIELDS x y z
SIZE 4 4 4
TYPE F F F
COUNT 1 1 1
WIDTH 381
HEIGHT 1
VIEWPOINT 0 0 0 1 0 0 0
POINTS 381
DATA ascii
-0.010808746 0.027143698 0.18303046
-0.014099137 0.027052095 0.18278873
0.015733084 0.030162899 0.17941678
0.003806365 0.028966069 0.18061972
-0.0099247545 0.029601829 0.18048564
-0.013296725 0.030635169 0.18093628
-0.010507074 0.030893786 0.17584783
-0.013107722 0.03175766 0.17544472
-0.014316347 0.032265849 0.17212996
-0.015633281 0.032045808 0.17189544
-0.010971057 0.021962794 0.18470517
0.011401906 0.024106879 0.18273532
0.0076679573 0.024727974 0.18316799
0.0037079428 0.024444018 0.18275139
1.7872897e-05 0.024127159 0.18214381
-0.0053872336 0.024261527 0.18236074
-0.0093843425 0.02498378 0.18357491
-0.013326922 0.025230849 0.18383333
0.011753988 0.027825136 0.18020743
0.0077758878 0.028387427 0.18040758
0.003822099 0.028349314 0.18016997
-0.00065561733 0.027752535 0.17967495
-0.0055252458 0.027863042 0.1795629
-0.0085591367 0.028605018 0.17951775
0.011963458 0.029561471 0.1751366
0.0080047632 0.029442787 0.17483941
0.0040385788 0.029592481 0.17474204
-0.00074080157 0.029405901 0.17463064
-0.005078143 0.029371211 0.17445928
-0.0087745748 0.030083299 0.17416918
0.012155248 0.029738905 0.17071682
0.0080062905 0.02987005 0.17020446
0.0042414111 0.030022196 0.16959757
1.560407e-06 0.029951487 0.16950381
-0.004535248 0.030269675 0.16915438
-0.0089905979 0.031070454 0.16968846
-0.012776843 0.031800475 0.16981083
0.00039569818 0.030572994 0.16614476
-0.0055685192 0.03105242 0.16619512
-0.0091183828 0.03144525 0.16557294
-0.012959418 0.031842828 0.16480142
-0.016382841 0.031842418 0.16465405
-0.015986491 0.03246602 0.16121477
-0.00097594887 0.018065982 0.18244594
-0.0049790968 0.018814087 0.18276829
-0.0094092134 0.019705908 0.18426064
0.0076495833 0.021730695 0.18372121
0.0036986095 0.020527892 0.18264449
-0.00061060674 0.021001901 0.18230256
-0.0039373506 0.021543758 0.18251482
0.012293497 0.02927828 0.16762656
0.0089731794 0.029354913 0.1675097
0.012460921 0.029097525 0.16381508
0.0084506273 0.029710243 0.16407076
0.0044500856 0.030274782 0.16429144
0.000475181 0.030392136 0.16394243
-0.0038971261 0.030401282 0.16358113
-0.00843897 0.030317442 0.16226578
-0.011410468 0.030808771 0.16202557
0.012289758 0.029578995 0.16001442
0.0086350199 0.029892785 0.1596007
0.004650095 0.030117836 0.15916818
0.00063889159 0.030264566 0.15946844
-0.0037760069 0.029692769 0.15848795
-0.0088429302 0.029519932 0.15800139
-0.012628322 0.030264001 0.15784618
-0.012520174 0.030363064 0.15422007
-0.015850848 0.030294962 0.15399325
0.0075118588 0.015899267 0.1826534
0.0037096804 0.015796065 0.18198395
-0.00034058123 0.015415907 0.18271357
-0.0047440436 0.015074168 0.18271139
0.013414504 0.029363601 0.15727806
0.0087702526 0.029293964 0.15636206
0.0047473973 0.029946072 0.1566568
0.00074940821 0.029880166 0.15639681
-0.0045762444 0.02934025 0.15570036
-0.0079083908 0.02908843 0.15533122
0.013588388 0.029768128 0.15325442
0.0089126518 0.02963933 0.15291008
0.0048911395 0.030013459 0.1529932
0.00089718995 0.029337339 0.15225634
-0.0033816837 0.028983133 0.15194318
-0.0079676835 0.029428687 0.15169641
-0.012459119 0.029952815 0.15180781
0.013087331 0.029643673 0.14939025
0.0077342396 0.029414944 0.14893186
0.0050477404 0.029630184 0.14896154
0.0016986708 0.029649088 0.14880222
-0.0043229847 0.029311385 0.14822331
-0.0080632688 0.029742224 0.14799303
-0.012475788 0.030178579 0.14684117
-0.01615395 0.030335322 0.14677456
-0.01620754 0.031005517 0.14331445
-0.0010843142 0.0087418556 0.18312186
0.0036846008 0.010996853 0.18222395
-3.6884558e-05 0.01133006 0.18271774
-0.0044137817 0.010793005 0.18255964
0.01400709 0.029256925 0.14687875
0.00934231 0.029055834 0.14661881
0.0051689371 0.029228926 0.14583397
0.00094354915 0.028794153 0.14567322
-0.0027318485 0.028559038 0.14559814
-0.0072888415 0.029214008 0.14504108
-0.010906615 0.029865757 0.14456391
0.014106175 0.029224994 0.14157602
0.0093995174 0.029026048 0.14117289
0.005356248 0.029127717 0.14104557
0.0013154038 0.0292137 0.14090568
-0.0027202831 0.029110041 0.14061391
-0.0074297087 0.029215643 0.14045444
-0.012136513 0.029767409 0.14065114
0.014291615 0.029767668 0.13728192
0.0095590139 0.029506342 0.13730192
0.0055002631 0.029264741 0.13737255
0.001132375 0.02934587 0.13673756
-0.0025352745 0.029908368 0.1355769
-0.0068557644 0.030032823 0.13564417
-0.011474423 0.030143226 0.13513255
-0.015848348 0.03016407 0.13533485
-0.0037684713 0.030977726 0.13257605
-0.0067879013 0.03107449 0.13202333
-0.011183703 0.03082604 0.13207105
-0.015200244 0.031060949 0.13110331
-0.00024475684 0.0053485292 0.18314472
0.014387236 0.030454876 0.1349898
0.0096707484 0.029343264 0.13460615
0.0056154164 0.029138396 0.13442183
0.0018285711 0.029618127 0.13442507
0.014376296 0.030137252 0.13108435
0.0096748704 0.02950757 0.13039368
0.0058063227 0.028987477 0.12953061
0.0017357778 0.029229488 0.12951878
-0.0021691609 0.030521495 0.13013652
-0.0060966192 0.030954991 0.12938291
-0.011098821 0.030535594 0.12897354
0.010002038 0.029819114 0.12659115
0.0066086184 0.029890947 0.12647653
-0.0028877454 0.03026155 0.12629578
-0.0067793466 0.030329041 0.12499923
-0.010826095 0.030310543 0.12420002
-0.015488148 0.030601194 0.12465012
0.011310132 0.028972611 0.12788281
0.014872933 0.029001374 0.12423727
0.010098388 0.029636724 0.12427926
0.0058363611 0.029775023 0.12386632
0.0019451993 0.029331002 0.12384975
-0.0019224312 0.029700382 0.12340742
-0.0054970784 0.029706921 0.12281728
-0.011605711 0.029675856 0.12247938
0.014864059 0.029172475 0.11922187
0.010322367 0.029798832 0.11886722
0.006224317 0.030139754 0.11894333
0.0023384797 0.029097166 0.11842775
-0.0019569104 0.028953502 0.11850387
-0.0062304456 0.029508591 0.11833334
-0.010104232 0.030217359 0.11817586
-0.014180299 0.030839272 0.11849076
0.01045778 0.030473931 0.11555952
0.0063775415 0.03009418 0.11503148
-0.0099587673 0.030361328 0.11345392
-0.014047185 0.030468615 0.11333704
-0.00052899832 -0.0039093834 0.1835418
0.001557395 0.028901441 0.11572677
-0.0018484085 0.028441481 0.1151666
-0.0052614459 0.028316975 0.11488819
0.011329355 0.029454643 0.11261326
0.0065031615 0.029720204 0.11179614
0.0023838507 0.028889282 0.11185777
-0.0017178776 0.028706584 0.11149538
-0.0058253421 0.029120922 0.11163789
-0.0098704714 0.030126572 0.11033517
-0.013966926 0.030167237 0.11016208
0.010769028 0.028595774 0.10811764
0.0066588237 0.029642396 0.10782212
0.002886147 0.02901159 0.10758269
-0.0015790077 0.028498599 0.10740942
-0.0066802292 0.029150095 0.10623527
-0.009752173 0.029851506 0.10618991
-0.013680016 0.029626504 0.10635853
-0.0082620941 0.029987149 0.10244989
-0.00054967188 -0.0066908086 0.18347931
0.011923962 0.028840441 0.10681331
0.0067864 0.029230867 0.10452735
0.0023683019 0.028928978 0.10483181
-0.001486098 0.029064622 0.10495079
-0.0047973376 0.028849687 0.10518914
-0.014493849 0.029167719 0.10339838
0.011696337 0.028757269 0.10239357
0.0069235354 0.029798219 0.10107785
0.0027950893 0.029863358 0.10092622
-0.0013350515 0.030217562 0.10102457
-0.005455038 0.030133367 0.10074401
-0.0097393915 0.030068381 0.10022515
-0.013695912 0.029753309 0.099999368
0.011420964 0.028967246 0.097941101
0.0070566242 0.03049171 0.097729743
0.0029259683 0.030484455 0.097515821
-0.0012013593 0.030369096 0.097207785
-0.0053092218 0.029968552 0.096154451
-0.0094261765 0.030046361 0.095519423
-0.01374118 0.030282138 0.095084012
-0.010026218 0.030080643 0.092538238
-0.013163551 0.030530537 0.091582298
-0.016201828 0.030555928 0.091651976
0.013022196 0.027250683 0.093999445
0.0079014497 0.028074861 0.093667507
0.0030605372 0.027933393 0.093300581
-0.0010914875 0.028002772 0.093153179
-0.0052465852 0.028627345 0.093492508
0.012890541 0.027608976 0.090508938
0.0080489805 0.028392384 0.089955926
0.0031916569 0.028601646 0.089897513
-0.00095985498 0.028360197 0.089476466
-0.0051162522 0.028413789 0.089315772
-0.009058292 0.029220087 0.089260817
-0.01336228 0.030179754 0.088467956
0.0072365971 0.029314296 0.085919619
0.0031721902 0.029484937 0.085237443
-0.00060604292 0.029450092 0.084694386
-0.0049331631 0.029455867 0.084232688
-0.0090945782 0.029698083 0.084241748
-0.013251083 0.030285766 0.084559023
-0.0096715055 0.03074256 0.08112514
-0.013393061 0.030794313 0.080180109
-0.015884532 0.030689323 0.079759836
0.013021346 0.027513642 0.08742106
0.013150207 0.02850095 0.084280372
0.0094536925 0.028911762 0.083791554
0.0048650745 0.029123068 0.082408786
-0.0020909251 0.029486623 0.082388818
0.013368279 0.028373022 0.079122424
0.0091676684 0.02882266 0.079319239
0.0042858133 0.029042194 0.079274774
-0.00027845262 0.029616134 0.078350902
-0.0047409288 0.029765623 0.078467488
-0.0086988509 0.030045288 0.077946544
-0.012693081 0.030538609 0.07725668
-0.005994976 0.028768966 0.073444128
-0.0087886406 0.029062781 0.073573411
-0.01294352 0.029733384 0.072961092
0.013492445 0.028465137 0.076167285
0.0093049062 0.028356569 0.075861335
0.0051211235 0.02810296 0.075423956
0.013664716 0.027417595 0.072164953
0.0094617661 0.027343104 0.071889162
0.0052600554 0.02723423 0.071582139
0.00063482852 0.028068526 0.072259307
-0.0038442863 0.027844548 0.071346998
-0.0087246634 0.02847806 0.071005583
-0.012861396 0.028662749 0.068927944
0.01383205 0.028564455 0.068104446
0.0096256314 0.028488483 0.067827404
0.0054282569 0.028098566 0.067261517
0.0012107786 0.028468303 0.067394555
-0.0036980361 0.028607113 0.067281425
-0.0086022364 0.028586576 0.067021132
-0.012788028 0.028748017 0.066377759
0.015390593 0.029029729 0.064503074
0.010476352 0.028929183 0.064168394
0.0048600808 0.028814333 0.063785911
0.0013499085 0.028742449 0.063546836
-0.0028339319 0.029047813 0.062595248
-0.0079148952 0.029182384 0.061628342
-0.01246396 0.029049292 0.061351478
-0.015439813 0.029135328 0.061027825
0.013943809 0.028166568 0.061306596
0.0097032366 0.028230224 0.060826778
0.0058806804 0.028200746 0.060611844
0.0014636854 0.02853477 0.060265303
-0.0027393827 0.029601166 0.060022712
-0.0055505536 0.029649649 0.059930384
-0.013977821 0.029704416 0.059568644
0.0093632825 0.027552264 0.056626379
0.0058303121 0.027593443 0.056492209
0.0015908174 0.027710898 0.056394994
-0.0026527392 0.028350184 0.056787014
-0.0071428972 0.029000044 0.056347251
-0.011269055 0.029415658 0.055884182
-0.015029537 0.028992584 0.055955827
0.014408858 0.027270149 0.054526687
0.010383798 0.027395062 0.053852916
0.0059523336 0.027429597 0.053223014
0.0017120165 0.02721446 0.052813411
-0.0025359704 0.027429597 0.052808762
-0.0064128833 0.027882457 0.052526355
-0.010285141 0.028410623 0.052316129
0.01462338 0.027392969 0.04943341
0.010358608 0.027599726 0.049421787
0.0061020073 0.027678506 0.049289227
0.0018476405 0.027764695 0.049164236
-0.0025979662 0.028241465 0.048953533
-0.006440015 0.028137038 0.048667312
-0.011090566 0.028106432 0.048411965
-0.014949786 0.028024741 0.047810614
0.01473461 0.027876584 0.046755075
0.01047126 0.02793978 0.046608448
0.0058701173 0.028181741 0.046091557
0.0020080158 0.02845221 0.044850588
-0.0020575763 0.028654065 0.044322133
-0.0066693216 0.0288362 0.044272304
-0.010567779 0.028694374 0.043947518
-0.014996875 0.028565524 0.043522358
-0.0063780118 0.02970222 0.041178942
-0.011343068 0.029518194 0.040761113
-0.014181091 0.029347708 0.040459275
0.010595109 0.027986066 0.043505311
0.0066173011 0.028136015 0.043246031
0.0020970635 0.028202586 0.042249203
0.010802332 0.028075783 0.038322091
0.0065201093 0.028245194 0.038279414
0.0022426785 0.028357489 0.038181603
-0.0020320967 0.028512189 0.038124979
-0.0062772403 0.029343316 0.037671149
-0.010352663 0.02914238 0.037732124
-0.015029381 0.028360143 0.036747634
0.0066755624 0.028369699 0.034169197
0.0038280718 0.028042674 0.033712804
-0.0026031407 0.028336797 0.033690512
-0.0061564897 0.028583305 0.033228755
-0.010712193 0.028430596 0.032541513
-0.014017211 0.02817055 0.032978773
0.011018309 0.027950818 0.032904744
0.0067649567 0.028058052 0.031740427
0.0021627713 0.027874283 0.032190859
-0.0014700637 0.027743952 0.031569421
-0.0061016255 0.027951531 0.031017721
-0.008959855 0.027825952 0.030757308
0.01526897 0.028746335 0.029166102
0.011194021 0.028927958 0.028538346
0.0068997536 0.028899653 0.028304577
0.0027895076 0.028285606 0.02776885
-0.001704824 0.027813129 0.027890801
-0.005971679 0.028142555 0.026940167
-0.010268323 0.028568285 0.02715528
-0.014390974 0.028210297 0.026872277
0.014212948 0.029451014 0.024919033
0.011368671 0.02883569 0.024171412
0.0070631355 0.028814435 0.023944676
-0.0072798976 0.028810808 0.023255885
-0.010086868 0.029516766 0.021677017
-0.013670261 0.029432466 0.02142185
0.0012905011 0.026906133 0.023923218
-0.0015820044 0.02678035 0.023661256
0.011535265 0.027826618 0.019942701
0.0072176005 0.02774569 0.019656062
0.002838308 0.027046017 0.020906568
-0.0016655041 0.026782956 0.019967198
-0.0055803289 0.027645452 0.019755244
0.011676942 0.027511906 0.016391039
0.0087993033 0.027230911 0.01597178
0.0044035465 0.026729209 0.017425418
-0.0013697266 0.026878033 0.017299414
-0.0058988603 0.027836885 0.015015125
-0.0099317441 0.028867058 0.015643418
-0.013968178 0.028333476 0.015131235
-0.010559355 0.02842503 0.011917114
0.01178879 0.026839053 0.013548315
0.007135523 0.026578495 0.013934016
0.002881431 0.026089821 0.014271855
-0.0010602332 0.026242886 0.013889551
-0.0041163438 0.026846562 0.012800813
0.011940346 0.027410287 0.0097758174
0.0076151709 0.026760833 0.0089117289
0.0032745469 0.026465535 0.0084061623
-0.0010870793 0.02719295 0.0089387298
-0.0054339375 0.027551753 0.0090973377
-0.0095500238 0.027906368 0.0086404681
-0.014112615 0.027290683 0.0084213018
0.012160868 0.028452313 0.0042871237
0.0081508346 0.027159283 0.0044190884
0.0019692117 0.02675179 0.0042588115
-0.0012107197 0.027569277 0.0040678978
-0.0054272702 0.028119309 0.0033912659
-0.0095877443 0.028232779 0.0030378699
-0.013530764 0.028116651 0.0030474067
-0.010915409 0.028536864 -0.0011039972
-0.013314041 0.028950127 -0.0015228987
0.0071220356 0.027198059 0.0027635098
0.0037662981 0.026478767 0.0027461052
0.00058020093 0.027295947 0.0025558472
