# .PCD v0.7 - Point Cloud Data file format
VERSION 0.7
FIELDS x y z
SIZE 4 4 4
TYPE F F F
COUNT 1 1 1
WIDTH 416
HEIGHT 1
VIEWPOINT 0 0 0 1 0 0 0
POINTS 416
DATA ascii
0.022664744 -0.027032489 0.1805926
0.024498049 -0.026334543 0.18053058
0.022626752 -0.028620929 0.17773935
0.025957868 -0.027208289 0.17772245
0.023665477 -0.030160595 0.17402512
0.026620567 -0.028755452 0.17372686
0.025067464 -0.03041522 0.17092326
0.01291814 -0.027445249 0.17996484
0.016744733 -0.026268773 0.1811417
0.020233128 -0.024676293 0.18132997
0.024080832 -0.023002341 0.18134743
0.013711484 -0.029291328 0.17669851
0.017806685 -0.029284429 0.17743284
0.020588525 -0.028259229 0.17781469
0.027348869 -0.024804536 0.1783196
0.015053427 -0.029839359 0.17355114
0.018220011 -0.029744575 0.17268139
0.021318639 -0.029636737 0.17308787
0.029393397 -0.026054498 0.17200369
0.01876371 -0.030128654 0.16858402
0.02223045 -0.030121386 0.16843098
0.02633585 -0.0295821 0.16790116
0.029374164 -0.026929606 0.16708207
0.023096263 -0.029522922 0.16432941
0.024742119 -0.03005854 0.16512462
0.029566171 -0.027334057 0.16358867
-0.0014089383 -0.027033046 0.18316805
0.002312826 -0.025595015 0.18341389
0.006050407 -0.024276847 0.1829685
0.0092310831 -0.02252068 0.18202886
0.014294473 -0.020749563 0.18187144
0.018333308 -0.018916644 0.18275183
-0.00061374158 -0.029236529 0.18034384
0.0032321112 -0.028122358 0.1804561
0.0072729597 -0.027235487 0.18011427
0.010734994 -0.025473598 0.18079838
0.015699456 -0.023559868 0.1819666
-0.00014365558 -0.030318944 0.17627588
0.0037329053 -0.02955078 0.1754604
0.0074002407 -0.028742038 0.1749585
0.010791104 -0.028824763 0.17499837
0.0082565267 -0.028913964 0.16980883
0.012194181 -0.028847512 0.17017132
0.016079757 -0.029138241 0.1705659
0.012524448 -0.029640011 0.16549566
0.0170242 -0.029563917 0.16592473
0.020312965 -0.029543277 0.16549215
0.029756501 -0.024674961 0.16609025
0.012743593 -0.030473454 0.16248018
0.016769296 -0.029339256 0.16141385
0.021126594 -0.028825359 0.16126895
0.025363464 -0.028331155 0.16126508
0.029535757 -0.026347453 0.16084212
0.021723321 -0.028391831 0.1576443
0.025151212 -0.02771871 0.15638578
0.027752399 -0.026288565 0.15697911
1.0161661e-05 -0.020076493 0.18325666
0.002933492 -0.018457392 0.18280888
0.011679905 -0.014623101 0.18215862
0.016185757 -0.013891399 0.18267265
-0.0022465819 -0.02492661 0.18424872
0.0015360462 -0.0236411 0.18422297
0.0049130274 -0.021450702 0.18348524
0.0085929809 -0.019339357 0.18214482
0.012370817 -0.017760538 0.1818648
0.015982637 -0.016988503 0.18292993
-0.00077572744 -0.029736228 0.17245561
0.0019526798 -0.029421028 0.17196321
-0.0013902504 -0.028721105 0.1685282
0.002862412 -0.0285876 0.16791528
0.0060781818 -0.028498655 0.16816413
0.0035245572 -0.028627485 0.16294327
0.0072056535 -0.029073805 0.16379145
0.0043135537 -0.029481916 0.15968567
0.0075725988 -0.029277109 0.15910167
0.011278062 -0.029468138 0.15900975
0.015501711 -0.028837295 0.1582728
0.011587622 -0.028766299 0.15427765
0.015629321 -0.027775282 0.1538102
0.020555682 -0.028004687 0.15468627
0.023697257 -0.028260078 0.15434259
0.027953349 -0.02383709 0.15361124
0.01730719 -0.028118307 0.15014338
0.020549083 -0.027910372 0.14956596
0.024712883 -0.027606191 0.14946544
0.026892269 -0.024929466 0.14941144
0.021535046 -0.028317135 0.14576656
0.024573352 -0.028188776 0.14356601
0.026778564 -0.025842328 0.14586735
-0.0012869029 -0.016946983 0.1833885
0.0029003283 -0.015784258 0.18234807
0.0067319395 -0.014900445 0.18254068
0.010129805 -0.012591186 0.18251181
-0.0026699854 -0.028297832 0.16577032
-0.0025889296 -0.028699461 0.16188091
0.0015038177 -0.028611735 0.16160703
-0.0010709306 -0.029374031 0.15716642
0.0023820754 -0.029064715 0.15681413
0.0059222137 -0.029027879 0.15665624
0.0027670432 -0.029094435 0.15296882
0.0067971763 -0.029223094 0.15267017
0.010361588 -0.029113937 0.15255177
0.0077538611 -0.029392974 0.14789259
0.011127041 -0.029625753 0.14845622
0.015158331 -0.028513517 0.14823169
0.011404277 -0.030003192 0.14430973
0.015796922 -0.029137941 0.14365801
0.020571172 -0.02896429 0.14335343
0.026088806 -0.028093416 0.14177749
0.027716748 -0.024788748 0.14281154
0.015745817 -0.029343031 0.14003626
0.019916143 -0.029541194 0.1382314
0.024764651 -0.028665848 0.13810718
0.027524974 -0.025636837 0.13744605
0.021810815 -0.030033311 0.13397327
0.024412611 -0.028862985 0.13363048
0.02678084 -0.026818298 0.13343173
0.0047505666 -0.0068959757 0.18269637
0.00072175823 -0.011383247 0.18207967
0.0043693972 -0.010308433 0.1823453
0.0085411509 -0.0082504675 0.1821551
-0.0026972694 -0.028941534 0.15025342
0.0019769771 -0.029066119 0.15022233
-0.0019443659 -0.029246921 0.14598024
0.0021070279 -0.029154813 0.1458081
0.0054721851 -0.028805351 0.14602593
0.002830633 -0.029013572 0.14148033
0.0064363293 -0.029060621 0.14141923
0.01037782 -0.029399911 0.14104348
0.0073718699 -0.028643854 0.13731885
0.010607761 -0.02903912 0.13680425
0.014596519 -0.029067464 0.13709366
0.01163112 -0.02880181 0.13285154
0.015194348 -0.029229932 0.13285664
0.01925255 -0.029262189 0.13224036
0.02469109 -0.028154772 0.13059127
0.027510403 -0.025117867 0.13135678
0.015909655 -0.029003041 0.12842238
0.019791534 -0.02924371 0.12739709
0.02441301 -0.028688407 0.12664655
0.027364962 -0.026736047 0.1264551
0.020188175 -0.029204277 0.12399316
0.023969127 -0.028546555 0.1219458
0.027233791 -0.026986971 0.12224108
0.0023897015 -0.0054261745 0.18229514
0.00095226988 -0.028335646 0.1385842
0.0046135373 -0.028901994 0.13869709
0.0020331908 -0.027819619 0.13466093
0.0054107429 -0.028184079 0.13431114
0.0086447112 -0.028541321 0.13376832
0.006094656 -0.027980588 0.13075238
0.009715246 -0.027972531 0.12979019
0.013345869 -0.028517894 0.12990603
0.010958689 -0.027781254 0.12613863
0.013943139 -0.028468965 0.12531835
0.017471604 -0.029549081 0.12544438
0.028281193 -0.023775671 0.12574252
0.014685173 -0.028363336 0.12183031
0.018478584 -0.028789347 0.12127542
0.023308281 -0.028302409 0.11932647
0.027651504 -0.025358645 0.12058294
0.019774554 -0.028771462 0.11679506
0.022996254 -0.028509408 0.1161235
0.02695258 -0.02664591 0.11707878
0.0014615139 -0.002376569 0.18263146
0.00045667961 -0.027820988 0.13233623
0.0009649843 -0.027922159 0.12766585
0.0049562315 -0.027807962 0.12784916
0.0078257211 -0.027224407 0.12678763
0.00539988 -0.027844561 0.12304065
0.009169478 -0.027703391 0.12342924
0.006094953 -0.028580241 0.11901706
0.0094951298 -0.028084274 0.11850148
0.01356216 -0.028179459 0.11889458
0.016461924 -0.027672729 0.11790562
0.01062756 -0.028067777 0.11467314
0.013500806 -0.028007288 0.11347365
0.017660402 -0.028357377 0.1146307
0.026867328 -0.024754155 0.11392689
0.014899642 -0.028142778 0.11007386
0.018157158 -0.028538929 0.10960037
0.022423042 -0.02861318 0.11061734
0.025929216 -0.026426673 0.10982871
0.027570203 -0.023237756 0.10770434
0.019463591 -0.028902868 0.10611475
0.022501636 -0.028798502 0.10517967
0.025809743 -0.026996193 0.10464627
0.026231498 -0.027883127 0.10133123
-0.0016463492 0.0044678431 0.18343917
-0.002319769 -0.027730009 0.1264044
-0.00057339016 -0.027221859 0.12239084
0.0031927489 -0.027329747 0.12079689
0.00037563127 -0.026863154 0.11739814
0.0044672876 -0.028003575 0.11643183
0.0076319566 -0.027862744 0.11563039
0.0049883449 -0.028007949 0.11167145
0.008884592 -0.028121503 0.11204016
0.0061658863 -0.028663062 0.10804856
0.008984183 -0.028347896 0.107602
0.013308013 -0.028523067 0.10773408
0.016224364 -0.028099218 0.10649943
0.013554228 -0.028611366 0.10279202
0.017370651 -0.028086932 0.10264152
0.020540621 -0.028260382 0.10197228
0.027006648 -0.026033305 0.10199183
0.018887067 -0.028017996 0.099327683
0.022187036 -0.027731262 0.098725438
0.025523987 -0.026373822 0.096920907
0.028672364 -0.024544882 0.098090291
0.025174141 -0.026677774 0.093609393
-0.0014339131 0.0066899941 0.18341568
-0.0019736448 -0.027354877 0.11584669
-0.00075065531 -0.027800828 0.11131668
0.0029372503 -0.027706102 0.11128157
0.00027284771 -0.028530639 0.10653698
0.0041727726 -0.028753987 0.10690832
0.0087399064 -0.028062098 0.10435343
0.004091484 -0.028612746 0.10170901
0.0088703362 -0.028716784 0.10097963
0.012482908 -0.028577946 0.099924088
0.005715874 -0.028582698 0.097988307
0.0087804701 -0.028874671 0.097125292
0.013142684 -0.028265672 0.09614259
0.016949497 -0.027587721 0.096186399
0.020417484 -0.027206236 0.095802546
0.012888495 -0.028477134 0.092021704
0.017286476 -0.028410513 0.091260433
0.02158612 -0.02799128 0.092170119
0.02577173 -0.026704473 0.091127098
0.027819559 -0.023601137 0.09071511
0.018293893 -0.029123655 0.086571991
0.021755766 -0.028860765 0.086978316
0.025520861 -0.02716562 0.086660624
0.027722709 -0.025277387 0.08571434
0.022174738 -0.029319568 0.082992733
0.025899433 -0.027714148 0.082438111
0.028113194 -0.026520569 0.082885563
-0.0021199603 -0.02766245 0.098970175
0.00095412415 -0.027820818 0.098980546
-0.0011455473 -0.028031088 0.094902039
0.0029803393 -0.02753723 0.094570458
0.00767003 -0.026548939 0.092888892
0.0047140461 -0.027895615 0.089649796
0.0079672309 -0.027582912 0.089837015
0.011740712 -0.027744442 0.089075923
0.0090823164 -0.02802893 0.085022092
0.012374978 -0.027817607 0.085314393
0.016080242 -0.028423466 0.084920764
0.012745489 -0.02819097 0.081214726
0.016577344 -0.028125318 0.080217838
0.021164134 -0.027967773 0.079353809
0.025020294 -0.026462298 0.078890264
0.027665602 -0.023573112 0.080237031
0.018051481 -0.027823558 0.076943278
0.020902982 -0.027606897 0.075598001
0.024734601 -0.02646279 0.075522125
0.027366647 -0.02503236 0.076352954
0.021853093 -0.028393209 0.072517753
0.024350362 -0.027173946 0.072223842
0.0010129455 -0.026958063 0.091302514
-0.0024868669 -0.027089015 0.087884426
0.0016600769 -0.027535923 0.087704599
0.0020547658 -0.028005943 0.082996726
0.0062223086 -0.028074035 0.083458424
0.0075224494 -0.02801837 0.078435838
0.011948164 -0.02816074 0.078222394
0.012171956 -0.027941847 0.073485613
0.016239956 -0.027747028 0.074047208
0.019270988 -0.027466567 0.072952747
0.02694368 -0.024202829 0.072468758
0.013485963 -0.028360216 0.068900466
0.016694862 -0.028385654 0.069144249
0.020774135 -0.028332373 0.069518864
0.024941303 -0.026455972 0.069165349
0.026963312 -0.024535675 0.06869328
0.021203678 -0.028019302 0.064516008
0.024282554 -0.026424913 0.064617872
0.0016421461 -0.0278267 0.080121517
0.0010610018 -0.027284995 0.076875865
0.0051940414 -0.027686564 0.075988293
-0.0017317096 -0.027779844 0.072963357
0.0016828161 -0.027265713 0.072324872
0.0053193187 -0.027082179 0.071866512
0.0092597334 -0.027547996 0.072006464
0.0058393036 -0.027264945 0.068162024
0.0098889312 -0.027574873 0.067549169
0.01392877 -0.02788648 0.065553963
0.010686909 -0.027456468 0.064173639
0.015230509 -0.027630359 0.062652946
0.019408211 -0.027510922 0.061454237
0.024511121 -0.025531773 0.061132073
0.026280912 -0.023213442 0.062209249
0.015773261 -0.027370425 0.059504688
0.019678023 -0.026618898 0.057313621
0.023588795 -0.025196526 0.057144701
0.026045512 -0.022922195 0.05775708
0.02123601 -0.026362639 0.054130256
0.00022048783 -0.027281445 0.070052683
-0.0024836687 -0.02675667 0.065691829
0.00087307859 -0.026970819 0.065430462
0.0051371949 -0.027497761 0.065375745
0.0053817988 -0.026807342 0.061445534
0.0095069846 -0.027248053 0.060974658
0.0097534619 -0.026789114 0.056582332
0.013777729 -0.027015151 0.055901527
0.017706124 -0.02686776 0.05553335
0.024809757 -0.023827899 0.055071414
0.025874611 -0.022718534 0.054419339
0.014794347 -0.026844006 0.051819146
0.018324759 -0.02685577 0.051568091
0.022400875 -0.025220806 0.051141739
0.024022816 -0.022054987 0.051161826
0.018610287 -0.026997074 0.047099054
0.021893181 -0.02554507 0.046529293
-0.00035260245 -0.026724786 0.06218636
0.00013823248 -0.02639777 0.058942497
0.0044822041 -0.025897857 0.057778478
0.00023755804 -0.027114281 0.054403007
0.0044246139 -0.026604379 0.05467099
0.0087301414 -0.026286507 0.053007424
0.0010639774 -0.027614338 0.050931513
0.0045093866 -0.026723661 0.050181985
0.0088811042 -0.026275679 0.049078703
0.012965277 -0.026344407 0.048701704
0.024173506 -0.020703493 0.047912836
0.0091478331 -0.026783662 0.044980168
0.013727142 -0.026825471 0.044394493
0.017798683 -0.026932057 0.04395175
0.022362497 -0.02522907 0.043569267
0.024469089 -0.02179631 0.043756723
0.013939577 -0.026974104 0.040494204
0.018345866 -0.027332054 0.040054202
0.022249645 -0.02622956 0.039720953
0.025000483 -0.023540534 0.039211869
0.018096527 -0.027613176 0.03576225
0.022460967 -0.02713022 0.035350442
0.025534995 -0.024875084 0.034917057
0.022698887 -0.027261551 0.031530917
0.025877904 -0.025830621 0.030694127
-0.00035462622 -0.026966451 0.047204852
0.004138683 -0.026186248 0.046438277
2.3292378e-06 -0.026996657 0.042893946
0.0041736602 -0.026650595 0.042655706
0.0081360443 -0.026989195 0.042135358
0.0050335214 -0.026692582 0.038041472
0.0086360462 -0.026733201 0.037838817
0.012524508 -0.026457027 0.038011312
0.0090020448 -0.027094169 0.033519566
0.013028285 -0.02656013 0.033822715
0.016722389 -0.026395705 0.031708598
0.026739553 -0.022535728 0.033578336
0.018439671 -0.026730588 0.02876097
0.021871556 -0.027153278 0.028284907
0.026465746 -0.024256136 0.027651727
0.022247829 -0.026914474 0.023996413
0.025327183 -0.025954332 0.023950934
-0.00051814876 -0.026766703 0.040193081
-0.00052150991 -0.027519166 0.037429512
0.0029882928 -0.026852487 0.036814451
-0.0001589749 -0.027915411 0.032400846
0.0041965996 -0.027670983 0.032999516
0.0077520055 -0.027055476 0.031475186
0.013325645 -0.025712211 0.029947221
0.0041760919 -0.028113576 0.028066099
0.0086774575 -0.027288727 0.02799499
0.012429993 -0.026184896 0.027341783
0.01603099 -0.02571751 0.026584148
0.012854842 -0.026101379 0.023198783
0.016931932 -0.02631079 0.022547007
0.021653974 -0.026220592 0.020385265
0.017689353 -0.026751669 0.01810205
0.021446576 -0.026459843 0.017775536
0.023867024 -0.024240185 0.017111301
0.018903969 -0.027639994 0.013247967
0.021292578 -0.0266423 0.013334453
-0.0014763279 -0.027520273 0.028853834
-0.00065810047 -0.027439211 0.025370359
0.0034843967 -0.026873775 0.023461878
0.0064447112 -0.026444653 0.024052739
-0.001282013 -0.026836138 0.021830738
0.0037122387 -0.026746942 0.020725548
0.0076895496 -0.025988968 0.0208143
0.011796527 -0.025526503 0.019395113
0.0085611362 -0.024671823 0.016628623
0.012678342 -0.025366511 0.015436649
0.015833728 -0.026227398 0.01480937
0.024020305 -0.021814868 0.014318228
0.013468632 -0.025731839 0.011716425
0.016553465 -0.026570965 0.010760486
0.021103643 -0.025649473 0.009569943
0.023668777 -0.022248251 0.009729445
0.017536039 -0.026591986 0.0074234009
0.020605098 -0.025451908 0.0058662295
-0.0015709586 -0.026967382 0.019075751
0.0022676121 -0.026324889 0.018221259
-0.0013078535 -0.027053496 0.013974011
0.0028629703 -0.026284052 0.014043331
0.0068446109 -0.02502195 0.013933778
0.0099639576 -0.024550844 0.013737082
0.0031607305 -0.02650971 0.0094572306
0.0071886452 -0.025426796 0.0084442496
0.011232631 -0.025360208 0.0091910958
0.011857964 -0.025708536 0.004121244
0.015779225 -0.0256836 0.0041120052
0.021719124 -0.023668759 0.00387609
0.023723632 -0.021314532 0.0036674738
0.016455276 -0.026016507 -0.00090312958
0.020544671 -0.025012482 -0.00071299076
0.023070429 -0.022171158 -0.0011258125
-0.0023610191 -0.02573581 0.0073679686
0.0019485373 -0.026620794 0.0075062513
0.0054533207 -0.02575767 0.0057000518
-0.0011478849 -0.025295747 0.0029700398
0.0023445915 -0.025572235 0.0028733611
0.006647252 -0.025156179 0.0022416115
0.001253657 -0.025693923 -0.00022262335
