# .PCD v0.7 - Point Cloud Data file format
VERSION 0.7
FIELDS x y z
SIZE 4 4 4
TYPE F F F
COUNT 1 1 1
WIDTH 430
HEIGHT 1
VIEWPOINT 0 0 0 1 0 0 0
POINTS 430
DATA ascii
0.028780853 0.018435139 0.1808328
0.027239975 0.021580555 0.18177077
0.025876099 0.024583139 0.18142885
0.030470846 0.018312193 0.17839161
0.029798664 0.022281583 0.17885223
0.027365953 0.026221529 0.17806
0.031879324 0.019425053 0.1742397
0.031229516 0.022695608 0.17455769
0.029325802 0.025979361 0.17420739
0.032722577 0.020330487 0.17053479
0.031967878 0.022850573 0.17060044
0.030377686 0.025504265 0.17039701
0.022857843 0.020675154 0.18382499
0.0217032 0.02322547 0.18349031
0.028708722 0.0084671285 0.1802673
0.028044563 0.012656654 0.18105388
0.026639309 0.016788982 0.18219602
0.024899591 0.019798715 0.1829389
0.023261655 0.025118925 0.18212676
0.030026309 0.0095409602 0.17600879
0.030520778 0.013342524 0.1772553
0.023598365 0.028220894 0.17586526
0.030934284 0.0097902976 0.17307794
0.031508721 0.013758715 0.17278233
0.031633016 0.017185269 0.17352697
0.027564496 0.027546238 0.17309624
0.025720958 0.027476368 0.17085084
0.031775862 0.01526921 0.16816607
0.032471456 0.018349847 0.16870224
0.031421244 0.022528034 0.16739896
0.028857158 0.026236987 0.16765547
0.025405709 0.027266329 0.16784099
0.031650901 0.018281959 0.16470009
0.030773968 0.022194019 0.16502091
0.029301375 0.025480423 0.16429564
0.026680732 -0.0012284368 0.18251285
0.025417751 0.0022147712 0.18288058
0.02413594 0.0059878058 0.18285701
0.022726132 0.0099265967 0.18248111
0.020875795 0.015146272 0.18299964
0.019213801 0.018099859 0.18364573
0.029089108 -0.00068131648 0.18022624
0.028719604 0.0034606298 0.18001997
0.027467228 0.0065527535 0.18076825
0.025006186 0.01058406 0.18179458
0.030715259 -6.6190958e-05 0.17568806
0.030402031 0.0039334856 0.17495129
0.030222746 0.0074672112 0.1756582
0.030814186 0.0010475069 0.17090935
0.030965349 0.004132174 0.17015186
0.030904088 0.0080670342 0.17059326
0.030976675 0.011097623 0.16977599
0.031582076 0.0055067893 0.16703272
0.031426322 0.0084458115 0.1660271
0.031563155 0.012456211 0.16664338
0.023991555 0.027481914 0.16467619
0.031957537 0.0090596406 0.16265851
0.031538427 0.013239098 0.16215274
0.030550966 0.017294651 0.16076648
0.029565692 0.021592954 0.16123879
0.028300656 0.025630683 0.16112584
0.025681419 0.027871527 0.16085994
0.03015814 0.017784161 0.15750432
0.029832141 0.021654719 0.15617362
0.028428126 0.025106665 0.15599754
0.026310869 0.027303925 0.15749925
0.029719559 0.024182342 0.1518482
0.016317312 0.0078152092 0.18244594
0.014824744 0.011524051 0.1822612
0.013636922 0.016457152 0.18301526
0.02232267 0.00094006117 0.18318442
0.020113248 0.0043198476 0.18243435
0.018700149 0.0083967522 0.18193465
0.018213306 0.011865557 0.1821135
0.030597793 -0.0011526207 0.17206296
0.030509446 -0.00083386526 0.16817695
0.030776596 0.0023162933 0.16751853
0.03083634 -2.1276996e-05 0.16331121
0.031156117 0.0035839016 0.16418928
0.031631574 0.0068185735 0.1637125
0.031441681 8.209981e-05 0.16007674
0.031094048 0.0038402886 0.16000509
0.031024341 0.0076090377 0.1592443
0.030840544 0.011309863 0.15870625
0.03048175 0.0083853556 0.15524167
0.029970884 0.011503237 0.15440354
0.029855011 0.015953371 0.15473872
0.030497415 0.020263955 0.15329069
0.027617773 0.026239179 0.15265208
0.024804898 0.027484439 0.15420887
0.030258339 0.012425452 0.15050632
0.029700935 0.016451105 0.1500358
0.030343037 0.02150777 0.14977577
0.029007506 0.025433995 0.14954233
0.025404833 0.026712403 0.14925522
0.029922165 0.017873771 0.14603877
0.03057993 0.021415541 0.14433238
0.029595606 0.025327735 0.14459744
0.026560882 0.027043313 0.14554358
0.030950075 0.022480024 0.13973531
0.030267779 0.02436061 0.13970459
0.017297205 -0.0012034923 0.18200186
0.016259084 0.0027257726 0.18217596
0.014126771 0.0060204612 0.1828976
0.012136851 0.010163045 0.18273106
0.030504582 -0.0029822113 0.16198015
0.030847801 -0.0014363127 0.15741149
0.030636616 0.0028603664 0.15692422
0.031026212 -0.00015912391 0.15351021
0.030770151 0.003096696 0.15288913
0.030716585 0.00695117 0.15319547
0.030720331 0.0043337336 0.14848721
0.030742427 0.007235893 0.14830333
0.030588817 0.01103939 0.14853245
0.030154264 0.014197055 0.14776573
0.031028412 0.008630529 0.14418378
0.031096339 0.011546475 0.14404616
0.030262046 0.01596237 0.14380333
0.024454353 0.027760271 0.14249212
0.031316761 0.012954131 0.14081693
0.030650537 0.016634783 0.13917273
0.031075079 0.020202393 0.1381329
0.029411815 0.025926309 0.13861102
0.026536599 0.027620861 0.13775921
0.031443872 0.021420339 0.13451523
0.02991225 0.024927225 0.13368323
0.027437577 0.027496591 0.13347068
0.031152599 0.022562757 0.12903857
0.030527811 0.023754055 0.12886935
0.0085202204 0.0010454371 0.18297184
0.0083213858 0.0038994309 0.1834667
0.0070749209 0.0077601494 0.18347931
0.012069581 0.001025171 0.18261051
0.010306152 0.0046898406 0.18314597
0.0089430138 0.0084904656 0.1830678
0.030173751 -0.0023987256 0.14559805
0.030231414 0.0021632686 0.14636105
0.030294348 -0.0012485618 0.14203131
0.030124582 0.002813817 0.14168537
0.030097906 0.0062745581 0.14165744
0.02937329 0.0071780612 0.13719267
0.029611953 0.010666529 0.13702181
0.03018993 0.014289317 0.13715452
0.028845072 0.011650039 0.13288999
0.029862145 0.014954495 0.13264892
0.030260887 0.019406099 0.13129491
0.027912848 0.025664721 0.13018802
0.025079574 0.027485903 0.13100576
0.029305691 0.016039694 0.12869388
0.030218007 0.019566754 0.12717566
0.029272983 0.02506154 0.12700978
0.026449669 0.027249053 0.12619919
0.029897358 0.020447277 0.12365389
0.029068209 0.024716049 0.1224367
0.027334122 0.027375482 0.12255535
0.0049109976 0.0025265692 0.18363559
0.029942172 0.0011629928 0.13922656
0.029840568 -0.0017297203 0.13586083
0.029133484 0.0020187404 0.13466173
0.028760318 0.005344206 0.13433889
0.028973643 0.0088360412 0.13415155
0.028560858 0.0058762073 0.13037711
0.028510055 0.009757394 0.12997895
0.028570026 0.012853807 0.12917846
0.028281596 0.010659252 0.12580875
0.028722525 0.014052849 0.12554702
0.028535705 0.014759526 0.12198681
0.029312436 0.018471213 0.12113911
0.02922924 0.023196504 0.11971396
0.027288668 0.027038241 0.119865
0.029609395 0.019136716 0.11696756
0.029505782 0.023459665 0.11568248
0.026583659 0.026898075 0.11604702
0.029806046 0.02004586 0.11285979
0.02919282 0.023851948 0.11187834
0.028652139 -0.00017280877 0.13249004
0.028738126 0.0011392776 0.12810385
0.028642002 0.005132942 0.12765309
0.028526098 0.0015737265 0.12323585
0.029260037 0.0055961693 0.12392828
0.028541662 0.0092147579 0.12369889
0.029453438 0.006347348 0.11887211
0.029172173 0.0097794961 0.11919922
0.028541686 0.013719257 0.1192255
0.029004598 0.0098165236 0.11442012
0.028851079 0.013865721 0.11425042
0.029339753 0.017481277 0.11435485
0.025581624 0.027164847 0.11338031
0.029147968 0.014907748 0.10942507
0.029579068 0.018212792 0.10997254
0.029597705 0.022770736 0.10957026
0.026408311 0.026332667 0.10964948
0.029693883 0.018587107 0.10572946
0.029338203 0.022535061 0.10538679
0.027149124 0.025872823 0.10478973
0.029016327 0.023011897 0.10134077
0.027925989 0.026249111 0.10137182
-0.0069205984 -0.002207817 0.18495598
-0.0040404652 -0.0010682077 0.18430704
0.028060226 -0.0009104358 0.12178755
0.028258197 -0.00029885583 0.11708373
0.028930055 0.0040567662 0.11695689
0.028379282 0.0013060393 0.1129998
0.02911357 0.0050311363 0.11201018
0.028954197 0.0090170261 0.11152631
0.028982216 0.0057801288 0.10754389
0.028738344 0.0093147866 0.10727447
0.029109398 0.012849982 0.10793447
0.028399711 0.010310683 0.103104
0.02954952 0.013922289 0.10334992
0.029138068 0.017590238 0.10234058
0.026076179 0.027024101 0.10203218
0.023669267 0.028315265 0.10238773
0.029539088 0.014321151 0.099270046
0.028830115 0.018098999 0.099278212
0.027907625 0.021514546 0.09745574
0.02682304 0.025708303 0.097347736
0.024846917 0.028488416 0.097892761
0.027873205 0.022571418 0.093683004
0.027125513 0.025713678 0.093645871
0.025454605 0.027992308 0.092914224
0.028361984 -0.0025769388 0.11517823
0.028758973 -0.0010882299 0.1115002
0.02868622 -5.0319359e-06 0.10677648
0.028951157 0.004331436 0.10580093
0.028839879 0.0075834952 0.10465997
0.029013503 0.0040623718 0.10183138
0.029249758 0.0089087877 0.10118103
0.029044613 0.011937948 0.10015219
0.029080756 0.0054072635 0.097648084
0.029139189 0.0094528738 0.096346438
0.029103745 0.013075094 0.096004546
0.028518412 0.017201951 0.096092582
0.029220769 0.010203405 0.091859102
0.029316146 0.013375222 0.091121316
0.02893845 0.017511707 0.09176898
0.028624561 0.02133435 0.091965795
0.02725013 0.025674768 0.090762734
0.029722271 0.014708501 0.087615371
0.029859889 0.017890748 0.086926103
0.029398115 0.021980574 0.087500393
0.027846349 0.02580029 0.087320209
0.02532394 0.028485175 0.085979998
0.030012472 0.019119227 0.083169222
0.029847985 0.022493597 0.082704902
0.028458569 0.025871303 0.081863344
0.026555581 0.028098905 0.081907392
0.028474813 0.026502814 0.078050971
0.027566224 -0.0021643993 0.098879099
0.028011108 0.0010408824 0.09916085
0.028059253 -0.0011325069 0.09492892
0.027895227 0.0026576882 0.094301939
0.027707422 0.0074282 0.093779862
0.027906008 0.0046271388 0.090468168
0.027994366 0.0077060293 0.08981812
0.028534245 0.0093051549 0.085514486
0.029266335 0.01247804 0.085901082
0.0292952 0.015881591 0.083595157
0.028700134 0.012879743 0.081385791
0.02854735 0.016649602 0.079967141
0.028901743 0.020796007 0.079708576
0.024428409 0.028203132 0.079113483
0.028165184 0.017442869 0.07705301
0.028300967 0.021182379 0.075945497
0.02790489 0.025103727 0.075618863
0.025453433 0.028256264 0.075976074
0.028635351 0.022183154 0.07215333
0.027646225 0.024754148 0.071405292
0.027194969 0.00035729632 0.091309309
0.027305143 -0.0021890653 0.087445557
0.027436202 0.0016147271 0.087607503
0.02786536 0.0049751969 0.087192953
0.027370568 0.0019715633 0.083374977
0.027937898 0.0061608744 0.08332485
0.028045639 0.0080398945 0.079379678
0.028081752 0.011289775 0.077551603
0.028038159 0.012013944 0.073266268
0.027968749 0.016296374 0.073930025
0.027550722 0.019306529 0.073036432
0.022924609 0.027926099 0.071661353
0.028658176 0.013120409 0.06938833
0.029060714 0.016785458 0.069506228
0.028572226 0.02058504 0.069573522
0.026619162 0.02577183 0.068789482
0.024269665 0.027607117 0.068660736
0.029026682 0.017616171 0.064967453
0.028897304 0.021243026 0.064875245
0.027469901 0.024978101 0.064526796
0.0252594 0.027835965 0.063470602
0.027516413 0.024118455 0.060199022
0.027050607 0.0013482375 0.080728471
0.026707135 0.00084027927 0.076644897
0.026948638 0.0052876589 0.076402843
0.027779844 -0.0017317114 0.072963357
0.026867757 0.001301853 0.072584689
0.026953056 0.0053024958 0.072078466
0.027105935 0.0085955597 0.07244283
0.027626898 0.0057973415 0.067510486
0.02803996 0.010466017 0.067182064
0.028198926 0.007179739 0.063738108
0.027898708 0.010358724 0.062813103
0.028300878 0.014987892 0.062482357
0.027406609 0.018835405 0.060497522
0.02749899 0.015065574 0.059396565
0.0270826 0.019684918 0.057531178
0.026180424 0.024562549 0.05708915
0.024808537 0.027267795 0.058098137
0.026362643 0.021236008 0.054130256
0.025967218 0.024265029 0.052667201
0.024651732 0.026602358 0.054305434
0.027304651 0.00068525877 0.070008993
0.027067779 -0.0023401426 0.06600523
0.027472977 0.0010594837 0.065592527
0.02795385 0.0048456676 0.064861178
0.026801497 0.0019206721 0.060886025
0.02728482 0.0054727881 0.060755134
0.027845457 0.0089354413 0.060536623
0.027315147 0.010079948 0.056286156
0.026836943 0.013700925 0.05571878
0.026837461 0.016929928 0.055260599
0.026428612 0.014383931 0.052010953
0.026863085 0.018327527 0.051574945
0.026828317 0.02182823 0.051278949
0.023721185 0.02706448 0.051129103
0.026919208 0.018577455 0.047018051
0.026587747 0.023151569 0.04681623
0.024364978 0.02624971 0.045612514
0.026309907 0.023112223 0.042178035
0.027215473 -0.00090442039 0.062444448
0.026486982 -0.00014108885 0.05872643
0.026465558 0.0036898567 0.057685018
0.026994007 0.00038895011 0.054604828
0.026908953 0.0047641462 0.054601192
0.026586846 0.0081361616 0.052948534
0.027411798 0.0017514778 0.050968528
0.026826967 0.0045555593 0.050288618
0.02644123 0.0089539075 0.049250066
0.026125403 0.013167582 0.048669159
0.026913334 0.0092049893 0.045115709
0.026683634 0.013665985 0.044246614
0.026832629 0.017756365 0.043847799
0.022473179 0.026975609 0.043082356
0.027069464 0.013764494 0.040243328
0.027278638 0.018323703 0.039998353
0.02654458 0.02214276 0.039373755
0.024199314 0.02580324 0.039624929
0.027523709 0.018059004 0.0356673
0.027075147 0.022437867 0.03529191
0.024438653 0.02572633 0.035000145
0.028011832 0.019655179 0.032061994
0.027261535 0.022698926 0.031530976
0.02598975 0.025452083 0.031407237
0.027045894 -0.00144637 0.05172503
0.026824415 -0.00016938895 0.047737122
0.026399303 0.0042339009 0.046660006
0.026446043 0.00025826599 0.043324292
0.026516046 0.0041127973 0.042514563
0.027143709 0.0082042441 0.042297602
0.026608327 0.0055454569 0.038837314
0.027014181 0.0087599289 0.038135767
0.027079366 0.012360956 0.037964702
0.02693986 0.0095772343 0.033389688
0.026797304 0.013336428 0.033687949
0.026817372 0.016902328 0.03215909
0.023278495 0.027011268 0.033294678
0.02681536 0.017856397 0.028645873
0.027127307 0.02186124 0.028257072
0.024317851 0.026243728 0.027986765
0.02681632 0.018941872 0.024314523
0.02688648 0.022198599 0.023609042
0.025384502 0.02501953 0.024308801
0.026138378 -0.0021451199 0.044388771
0.026460718 -0.00061209872 0.040944159
0.026997991 -0.00076051988 0.036876798
0.026612747 0.003617275 0.036942303
0.027047815 0.00030496903 0.032569349
0.027212502 0.0039897966 0.032509148
0.027079459 0.0075298985 0.032133698
0.026081195 0.012706926 0.030083716
0.027132688 0.0047978028 0.0277192
0.027027989 0.0083969738 0.028461933
0.026138125 0.012409681 0.027291298
0.025951207 0.016353395 0.025841355
0.026196495 0.01340154 0.022289753
0.026212875 0.016590653 0.022237778
0.026794558 0.02034466 0.0204826
0.023596503 0.025660787 0.021414101
0.026995786 0.017705442 0.017928004
0.026867814 0.02182392 0.017832339
0.02385081 0.025247885 0.016905665
0.027652295 0.018944493 0.014355958
0.027029749 0.021966055 0.013258755
0.025168784 0.024618875 0.013216734
0.026578298 -0.0015827026 0.029376626
0.026198333 -0.0011071553 0.024744987
0.026473671 0.0029996829 0.025077105
0.025813689 0.0077360971 0.023896098
0.025377143 0.0035582669 0.02101016
0.025621489 0.0078503322 0.020739853
0.025600685 0.010994378 0.019947469
0.024610823 0.0085343188 0.016561866
0.02590985 0.013047559 0.015428662
0.026447559 0.015419301 0.015237093
0.021711553 0.025933329 0.015416265
0.025716359 0.01267575 0.011429667
0.026509594 0.016837539 0.010727465
0.026972789 0.020855319 0.010033906
0.024035847 0.025644645 0.010318398
0.026104365 0.017329097 0.0068805218
0.026416693 0.021618981 0.0067190528
0.024722097 0.025274469 0.0061398745
0.025379192 0.022330374 0.0024690628
0.02590609 -0.0018044757 0.018620968
0.02546552 0.0022035809 0.018835723
0.024996737 0.005630122 0.018108368
0.026142634 -0.00075988378 0.013221323
0.025770931 0.0026312084 0.013479769
0.024824075 0.006756804 0.013716459
0.024672963 0.010017321 0.013870955
0.025998443 0.0033500982 0.009581387
0.025162417 0.007113474 0.0085166693
0.025383135 0.011152314 0.0087702274
0.025598809 0.01180994 0.0039986372
0.025582118 0.015736129 0.0039986372
0.02552139 0.019327275 0.0037394166
0.024935937 -0.002388184 0.0070365071
0.025887765 0.0020378185 0.0073831081
0.02510895 0.0021353643 0.0023554564
0.024622902 0.0062440033 0.0024118423
0.025693923 0.0012536561 -0.00022262335
