# .PCD v0.7 - Point Cloud Data file format
VERSION 0.7
FIELDS x y z
SIZE 4 4 4
TYPE F F F
COUNT 1 1 1
WIDTH 372
HEIGHT 1
VIEWPOINT 0 0 0 1 0 0 0
POINTS 372
DATA ascii
0.035108447 -0.012980206 0.1791209
0.03473109 -0.0086098369 0.17928779
0.034649312 -0.0045016375 0.1793513
0.034398973 0.0011993252 0.17947754
0.034328699 0.0062794494 0.17956433
0.034525752 0.011050971 0.1798335
0.035228789 0.015645647 0.180363
0.035731494 -0.012279617 0.1776709
0.036090136 -0.010775119 0.17692327
0.036122561 0.0017165912 0.17598838
0.036868572 0.0060909535 0.17574635
0.036968946 0.010693083 0.17560169
0.037113249 0.015292475 0.17548484
0.037512422 0.01209751 0.17225397
0.037780046 0.016671451 0.17130923
0.028223753 -0.013235119 0.18252167
0.028574884 -0.0089547345 0.18299773
0.028518021 -0.0043257144 0.1827513
0.028656125 0.00058961229 0.18206877
0.028566241 0.0067734546 0.18209305
0.028448403 0.011130442 0.18290824
0.03216511 -0.013850385 0.18057084
0.03277576 -0.0092196763 0.18090349
0.031955421 -0.0044047893 0.18127564
0.031753957 0.00047684787 0.1812287
0.031439245 0.0063935681 0.18136466
0.03155911 0.010238838 0.18126428
0.032189608 0.014081733 0.18148291
0.035947144 -0.014103999 0.17584673
0.035729945 -0.0088674631 0.17543837
0.035521448 -0.0046860003 0.17537552
0.036122441 -0.00070678472 0.17485252
0.036209226 -0.014168041 0.17077649
0.036289632 -0.0095395166 0.17061937
0.036407411 -0.0049123955 0.17048702
0.036428332 0.00048046719 0.17025694
0.037093401 0.0058782413 0.17044181
0.037462294 0.010294052 0.17025253
0.037273288 0.014658017 0.16990083
0.037961543 0.020194063 0.1694454
0.036719084 -0.0093378108 0.16676974
0.037124932 -0.0049401806 0.16568911
0.037169456 -0.00019452185 0.16545844
0.037423551 0.0050976947 0.16503501
0.037525356 0.01049416 0.16525415
0.037402451 0.01511859 0.1649662
0.038279891 0.020304704 0.16507736
0.038195074 -0.0037377814 0.16242957
0.037923872 -0.001426317 0.16214716
0.038180649 0.0024405417 0.16214263
0.037828267 0.015563479 0.16132128
0.038430452 0.019418037 0.1615448
0.020990849 0.0081334459 0.18207261
0.022730887 0.011246641 0.18299913
0.025409341 -0.0089231404 0.18375626
0.024423122 -0.0043033091 0.18293637
0.024385691 0.00062205375 0.18196243
0.024679422 0.0052270079 0.18205374
0.035342574 -0.014482513 0.16472313
0.036245048 -0.010168774 0.16401559
0.0367468 -0.0067841918 0.16345599
0.036486566 0.0086749475 0.16259027
0.036727846 0.01331223 0.16254005
0.035153151 -0.014771765 0.15906811
0.035189509 -0.010304922 0.15942124
0.036130667 -0.0056272582 0.15907237
0.036693037 -0.00055975863 0.15892047
0.03644377 0.0048675272 0.15887213
0.03526026 0.010078976 0.15802339
0.035530508 0.014493575 0.15747613
0.037136316 0.019341124 0.15792653
0.035836935 -0.005599244 0.15539962
0.035614371 0.0052809822 0.15476447
0.035575032 0.015383461 0.1542863
0.036579967 0.019438447 0.15344721
0.018885195 -0.008626231 0.18200445
0.018476009 -0.0043268269 0.18201324
0.018675447 0.00059625029 0.18230161
0.018593609 0.0052347863 0.18235764
0.035016596 -0.0094255954 0.15688372
0.035507023 -0.01561678 0.15359482
0.035191774 -0.010376809 0.1533196
0.035428703 -0.0057062139 0.15303594
0.035434365 -0.0010225571 0.15306306
0.035336912 0.0043485104 0.15258849
0.035000801 0.0098727029 0.15228635
0.035287321 0.014302706 0.15174785
0.036168635 0.018367281 0.15082642
0.036023676 -0.016379816 0.14891118
0.035983086 -0.010414012 0.14847752
0.036045849 -0.0059340694 0.14808607
0.036128938 -0.0012486374 0.14793384
0.035791099 0.003746636 0.14766979
0.035830259 0.0090966057 0.1471006
0.035766661 0.01435093 0.14699391
0.036461234 0.01902415 0.14725667
0.036308348 -0.0053159618 0.14448267
0.036256135 -0.0014072659 0.1442734
0.035915077 0.0017138437 0.14390197
0.035819113 0.006404703 0.14362812
0.036417067 0.019195145 0.14271566
0.009655714 0.0012565148 0.18279406
0.0095341802 0.004401431 0.18257588
0.012744129 -0.0043011135 0.18217176
0.013347387 0.00011206476 0.18251857
0.012906253 0.0055253622 0.18227637
0.035375416 -0.014644517 0.14614266
0.034967005 -0.012311796 0.14576125
0.035032392 -0.016417546 0.1422157
0.035032511 -0.010925993 0.14197209
0.035469949 -0.0064557181 0.141534
0.03597796 -0.0015349949 0.14126039
0.035531938 0.0033824944 0.14144382
0.035393178 0.0088842828 0.14116883
0.035313487 0.01415878 0.1410518
0.035670698 0.018416753 0.13969347
0.035206318 -0.016308535 0.13773119
0.034294009 -0.011133717 0.1376861
0.034234226 -0.0064145089 0.13743606
0.034976482 -0.0013969432 0.1369673
0.035610855 0.0029685346 0.13607326
0.035980999 0.0084695984 0.13608766
0.035471737 0.013964711 0.13549104
0.035173059 0.018677587 0.13507533
0.036511302 0.0043637152 0.1318838
0.036603034 0.007510887 0.13180923
0.036294937 0.012501666 0.13169146
0.036028385 0.018929737 0.13138059
0.0066344142 0.00049680128 0.18284649
0.034692109 -0.01727494 0.13480842
0.034560442 -0.011261782 0.1350227
0.033774137 -0.0065574595 0.13426894
0.034220278 -0.002232146 0.13391197
0.034435332 -0.016979991 0.13136947
0.034659386 -0.011279516 0.13055709
0.033617318 -0.0067359419 0.13034615
0.034061849 -0.001984634 0.13044775
0.035324216 0.0024711506 0.13017875
0.036734164 0.0074034012 0.12904283
0.036418438 0.013463208 0.12919083
0.036163509 0.018139632 0.12893283
0.034520268 0.004149077 0.12570655
0.035655379 0.0078008226 0.12506804
0.035942674 0.012573255 0.12459603
0.035973608 0.017783539 0.12421447
0.0034785867 -0.0002726613 0.18282622
0.033127189 -0.017183939 0.1275833
0.033581734 -0.013203477 0.12772846
0.03361702 -0.0068672118 0.1274747
0.033043683 -0.0021300488 0.12686262
0.03301549 0.0010374277 0.1267035
0.033099592 -0.017383324 0.12371618
0.034459591 -0.011773884 0.12443709
0.034432411 -0.0070189503 0.12420934
0.033513069 -0.0022847024 0.12334785
0.033688962 0.0022679432 0.12303245
0.034714699 0.0061375252 0.12254846
0.033902943 -0.01759574 0.11946195
0.03462261 -0.012047997 0.118765
0.035217702 -0.007259727 0.11898255
0.033829451 -0.0027310089 0.11834383
0.033460796 0.0019676066 0.11848372
0.034493029 0.0072689406 0.11838126
0.035396397 0.011788821 0.11827832
0.035607338 0.017127799 0.11837375
0.035007477 -0.012220673 0.11516571
0.035182655 -0.0074383006 0.11508405
0.034612179 0.012446364 0.11380482
0.035257459 0.016077751 0.11333519
-0.0084044933 -0.0040930943 0.18520257
-0.0084862709 -9.1268121e-05 0.18496898
-0.0050235987 0.00064956374 0.18419394
0.034159005 -0.015343791 0.11663461
0.033281386 -0.0018264693 0.11541224
0.03263557 0.002565918 0.11524165
0.033063948 0.0061385497 0.11490792
0.034036934 -0.013230523 0.11237633
0.034344673 -0.0075629693 0.11228734
0.033020139 -0.0027966169 0.1113615
0.032443523 0.0019870657 0.11073482
0.033665597 0.006793288 0.11141384
0.03470993 0.011336053 0.11141759
0.034663618 0.016711323 0.11024427
0.03336519 -0.010962343 0.10805064
0.034224093 -0.0077344314 0.10853928
0.032984018 -0.0029662387 0.10742462
0.032918572 0.00023522372 0.1072377
0.033572197 0.0069357581 0.1066401
0.034180641 0.011166824 0.1062851
0.034174204 0.016419271 0.10605252
0.033355713 -0.01376362 0.10704219
0.033759177 -0.0074590952 0.10573053
0.033481836 -0.0030179401 0.106318
0.033421397 0.0022231038 0.1055544
0.034034312 0.0061201132 0.10436147
0.034100115 0.01210692 0.10365874
0.03406179 0.015308632 0.10349184
0.033266008 -0.013656519 0.10218304
0.033893466 -0.0080430955 0.10174745
0.033967614 -0.0032393192 0.10126543
0.034531832 0.001400692 0.10089064
0.034601986 0.00635861 0.1003328
0.034334898 0.01116907 0.099927127
0.034200311 0.015980216 0.099619567
0.033874273 -0.0090444591 0.097484887
0.03498888 -0.0034275299 0.09708488
0.035268486 0.001398401 0.097086489
0.034197211 0.0062054484 0.096077204
0.034170687 0.011029055 0.095849633
0.034771502 0.016235733 0.095578492
0.031691551 -0.014815007 0.095103264
0.031686604 -0.0097185308 0.093285441
0.032148302 -0.0035816343 0.092969775
0.032427013 0.0012695617 0.092970729
0.032202065 0.0061099618 0.092593431
0.032273889 0.010953153 0.092439234
0.032407403 0.014986979 0.092366159
0.031514943 -0.015017192 0.090984404
0.032137752 -0.0085724089 0.090033054
0.032095611 -0.0037114457 0.089936018
0.032148242 0.001126518 0.08933866
0.032155573 0.0059585958 0.088564515
0.032523394 0.01081345 0.088634431
0.032965958 0.015661607 0.088761449
0.033337474 0.011485184 0.085212827
0.033864856 0.015826864 0.084626198
0.031338394 -0.015151574 0.088277042
0.031733274 -0.01062551 0.08775115
0.031956792 -0.003844094 0.086826801
0.031794548 0.001016363 0.08649534
0.032154977 -0.015386704 0.083441079
0.032478511 -0.010500381 0.083480477
0.032727361 -0.0048100841 0.083428562
0.032990932 0.0008751094 0.083388805
0.032957017 0.0057399846 0.083154976
0.033219635 0.0103535 0.082583308
0.033645034 0.015010545 0.081775308
0.031781435 -0.015600783 0.079117179
0.031909108 -0.01070813 0.079007387
0.032907307 -0.0044675362 0.078836501
0.033417344 0.00063784566 0.077661157
0.033672035 0.0057322546 0.077895105
0.034210742 0.010396687 0.077860713
0.034681678 0.015265195 0.0780195
0.033684254 0.01025228 0.073399901
0.03437525 0.015524769 0.07320714
0.03130722 -0.015695143 0.07723093
0.031862438 -0.010780121 0.077451944
0.032365084 -0.0059416168 0.076111555
0.032862604 -0.0027128332 0.075344384
0.032756031 0.0038033812 0.074984789
0.031175852 -0.015925776 0.072550833
0.03110224 -0.011019169 0.072285175
0.031744838 -0.006351654 0.072006166
0.032780945 -0.00073961396 0.07228595
0.032208383 0.0048385835 0.071310341
0.032671988 0.010204466 0.071387172
0.034074664 0.014255272 0.07149905
0.031904817 -0.016146654 0.068012297
0.031804264 -0.011232409 0.06772542
0.032156289 -0.0063059763 0.067794085
0.03300029 -0.0014171791 0.067226708
0.032875657 0.0040920093 0.067082465
0.033121049 0.0097001996 0.066648006
0.033002794 0.014939671 0.066537917
0.033532917 -0.001574891 0.063546836
0.033450127 0.0033396049 0.063274086
0.033315122 0.0090726446 0.062925279
0.03319782 0.014805922 0.062590599
0.031557083 -0.016312748 0.064659536
0.03181076 -0.011375985 0.064652205
0.032790661 -0.0064227921 0.065219641
0.031180799 -0.016430207 0.062302172
0.031982243 -0.011465481 0.062730372
0.032131314 -0.0064060078 0.060826063
0.032324493 -0.0016965442 0.060265005
0.032602668 0.0032084896 0.059507728
0.03303647 0.0081387963 0.059647799
0.032913327 0.013064945 0.05934298
0.032454669 0.0088465232 0.056046963
0.031832218 0.012960528 0.055374026
0.03033483 -0.01166804 0.058320403
0.031132162 -0.008390001 0.057783842
0.030866563 -0.011842246 0.054596484
0.031479239 -0.0068682865 0.054880798
0.031281054 -0.0019216747 0.054513991
0.031352401 0.0027934904 0.05359292
0.031332552 0.0079285363 0.052754939
0.031395137 0.012863086 0.052112937
0.030848563 -0.012036688 0.050414979
0.031125367 -0.0070614968 0.050431192
0.031246364 -0.0019197152 0.049529433
0.031356752 0.0030417419 0.048553109
0.031144321 0.0075318827 0.048193157
0.031098485 0.012731695 0.047938347
0.032371283 0.0037595998 0.045059144
0.03211993 0.0076470538 0.0453915
0.031966329 0.013440618 0.045024514
0.030552149 -0.012193353 0.047036171
0.030608535 -0.0072141816 0.046874583
0.030962229 -0.0038877227 0.047024429
0.030740738 -0.012382166 0.042987287
0.030624211 -0.0073982929 0.042684197
0.031313598 -0.0023958017 0.043043315
0.032064378 0.0020167246 0.042776167
0.031976283 0.0075327731 0.042123914
0.031181395 0.012284343 0.041723073
0.030445397 -0.010922306 0.038457155
0.030781925 -0.0025814069 0.03839004
0.030878544 0.0028117071 0.037716746
0.031001151 0.0073913275 0.03762877
0.030405521 0.012399946 0.037457585
0.030412734 -0.012983306 0.037242532
0.030123651 -0.0076447004 0.036994159
0.030414045 -0.0026771021 0.035968482
0.030451 0.0014932541 0.035826564
0.030488789 0.007330311 0.035616457
0.030142009 0.012329382 0.035121441
0.030370831 0.015663257 0.035173535
0.03140676 -0.012850001 0.03296113
0.031373978 -0.00784015 0.032727122
0.031236768 -0.0028336295 0.032405615
0.031111181 0.0021734587 0.032093823
0.031183004 0.007182607 0.031947613
0.031161785 0.01218933 0.031723499
0.03185302 -0.016971687 0.028524995
0.032308698 -0.013064159 0.028391838
0.032206059 -0.0080488604 0.02809906
0.031908095 -0.0030377083 0.027641177
0.031280994 0.0020117643 0.027974784
0.031725407 0.007433088 0.027591705
0.031878293 0.012012896 0.026997626
0.031092942 -0.013259328 0.024152517
0.030859947 -0.0082310168 0.023748517
0.029768407 -0.0032202215 0.022616267
0.029815733 0.0022086776 0.023723662
0.030113697 0.0065604574 0.023367822
0.030916572 0.01190376 0.022970974
0.030378103 -0.013411784 0.020856142
0.030254364 -0.0083911838 0.020005286
0.029641867 -0.003311832 0.020355701
0.028691411 0.00092044601 0.020452678
0.029800594 0.007186213 0.019521117
0.031070709 0.011979108 0.019059479
0.030855298 0.011616101 0.014292598
0.029356301 -0.013525975 0.01836741
0.028928816 -0.0034181315 0.017588615
0.028393328 0.0016655339 0.017789423
0.028609216 0.0058529614 0.016936302
0.030135036 -0.013697966 0.014703035
0.029810011 -0.0086421957 0.014216781
0.029217124 -0.0035907056 0.013500214
0.029303551 0.0014794929 0.013368011
0.029850483 0.0065517141 0.013632774
0.030426383 0.011309893 0.01321137
0.031298578 -0.013905709 0.010275602
0.030710101 -0.008676975 0.0087314248
0.030136466 -0.0037930929 0.0088543296
0.03052026 0.0012481523 0.0078905821
0.030789196 0.0063261366 0.0079193115
0.031018317 0.01139876 0.0079128146
0.031526506 0.0061762533 0.0041934252
0.03107053 0.011253321 0.0035882592
0.030863941 0.014640586 0.00327003
0.030334771 -0.0022284114 0.0056822896
0.030092061 -0.003661877 0.0037724972
0.030945063 0.0010443418 0.0027930737
0.03164649 0.0060989945 0.002107501
0.030882001 0.011179307 0.0012296438
0.030832291 0.015724624 0.0017344952
0.031224668 0.0026200353 -0.00032401085
0.032457054 0.006541369 -0.00086265802
