# .PCD v0.7 - Point Cloud Data file format
VERSION 0.7
FIELDS x y z
SIZE 4 4 4
TYPE F F F
COUNT 1 1 1
WIDTH 372
HEIGHT 1
VIEWPOINT 0 0 0 1 0 0 0
POINTS 372
DATA ascii
0.030092955 -0.011125891 0.1791209
0.029769506 -0.0073798606 0.17928779
0.029699411 -0.0038585463 0.1793513
0.029484835 0.001027993 0.17947754
0.0294246 0.0053823856 0.17956433
0.029593501 0.0094722603 0.1798335
0.030196104 0.013410554 0.180363
0.030626995 -0.010525387 0.1776709
0.030934403 -0.009235817 0.17692327
0.030962195 0.0014713639 0.17598838
0.031601634 0.0052208174 0.17574635
0.031687669 0.0091654984 0.17560169
0.031811357 0.013107835 0.17548484
0.032153506 0.010369294 0.17225397
0.032382898 0.014289815 0.17130923
0.024191789 -0.011344388 0.18252167
0.024492757 -0.0076754866 0.18299773
0.024444018 -0.0037077554 0.1827513
0.024562392 0.0005053819 0.18206877
0.02448535 0.0058058179 0.18209305
0.024384346 0.009540379 0.18290824
0.027570095 -0.01187176 0.18057084
0.028093509 -0.0079025803 0.18090349
0.027390361 -0.0037755338 0.18127564
0.027217679 0.00040872674 0.1812287
0.026947925 0.0054802014 0.18136466
0.027050667 0.0087761478 0.18126428
0.027591093 0.012070057 0.18148291
0.030811839 -0.012089144 0.17584673
0.030625667 -0.0076006828 0.17543837
0.030446956 -0.0040165717 0.17537552
0.030962093 -0.0006058155 0.17485252
0.031036479 -0.012144036 0.17077649
0.031105399 -0.0081767291 0.17061937
0.031206353 -0.0042106244 0.17048702
0.031224284 0.00041182901 0.17025694
0.031794343 0.0050384928 0.17044181
0.032110538 0.008823473 0.17025253
0.031948533 0.012564014 0.16990083
0.032538466 0.017309198 0.1694454
0.031473503 -0.0080038384 0.16676974
0.03182137 -0.0042344402 0.16568911
0.031859536 -0.00016673302 0.16545844
0.032077331 0.0043694526 0.16503501
0.032164592 0.0089949947 0.16525415
0.032059245 0.012958791 0.1649662
0.032811336 0.017404033 0.16507736
0.032738633 -0.0032038128 0.16242957
0.032506175 -0.0012225575 0.16214716
0.032726273 0.002091893 0.16214263
0.03242423 0.013340125 0.16132128
0.032940388 0.016644033 0.1615448
0.017992156 0.006971525 0.18207261
0.019483618 0.0096399784 0.18299913
0.021779435 -0.0076484061 0.18375626
0.020934105 -0.0036885506 0.18293637
0.020902021 0.00053318898 0.18196243
0.021153791 0.0044802926 0.18205374
0.030293636 -0.012413584 0.16472313
0.031067185 -0.0087160924 0.16401559
0.031497259 -0.0058150212 0.16345599
0.031274199 0.0074356692 0.16259027
0.031481013 0.011410482 0.16254005
0.030131273 -0.012661514 0.15906811
0.030162437 -0.0088327909 0.15942124
0.030969143 -0.0048233639 0.15907237
0.031451173 -0.00047979315 0.15892047
0.031237517 0.0041721663 0.15887213
0.030223081 0.0086391214 0.15802339
0.030454721 0.012423064 0.15747613
0.03183113 0.016578106 0.15792653
0.030717373 -0.004799352 0.15539962
0.030526605 0.0045265565 0.15476447
0.030492885 0.013185823 0.1542863
0.031354256 0.016661527 0.15344721
0.01618731 -0.0073939124 0.18200445
0.01583658 -0.0037087088 0.18201324
0.016007526 0.0005110717 0.18230161
0.01593738 0.0044869594 0.18235764
0.030014226 -0.0080790827 0.15688372
0.030434592 -0.013385813 0.15359482
0.030164378 -0.0088944091 0.1533196
0.03036746 -0.0048910403 0.15303594
0.030372314 -0.00087647751 0.15306306
0.030288782 0.003727295 0.15258849
0.030000687 0.0084623164 0.15228635
0.030246275 0.012259462 0.15174785
0.031001687 0.015743384 0.15082642
0.030877437 -0.014039843 0.14891118
0.030842645 -0.0089262966 0.14847752
0.030896442 -0.0050863451 0.14808607
0.030967662 -0.0010702607 0.14793384
0.030678086 0.0032114023 0.14766979
0.030711651 0.0077970903 0.1471006
0.030657139 0.012300797 0.14699391
0.031252488 0.016306415 0.14725667
0.031121442 -0.0045565385 0.14448267
0.031076686 -0.0012062279 0.1442734
0.030784352 0.001469009 0.14390197
0.030702097 0.0054897456 0.14362812
0.031214628 0.016452981 0.14271566
0.0082763266 0.0010770126 0.18279406
0.0081721544 0.0037726553 0.18257588
0.010923539 -0.0036866688 0.18217176
0.011440618 9.6055519e-05 0.18251857
0.011062503 0.0047360249 0.18227637
0.030321786 -0.012552444 0.14614266
0.029971719 -0.010552969 0.14576125
0.030027764 -0.014072184 0.1422157
0.030027866 -0.0093651377 0.14197209
0.030402813 -0.0055334726 0.141534
0.030838251 -0.0013157099 0.14126039
0.030455947 0.002899281 0.14144382
0.03033701 0.0076150992 0.14116883
0.030268703 0.012136096 0.1410518
0.030574884 0.015785789 0.13969347
0.030176844 -0.013978745 0.13773119
0.029394865 -0.009543187 0.1376861
0.029343622 -0.0054981504 0.13743606
0.029979842 -0.0011973799 0.1369673
0.030523591 0.0025444583 0.13607326
0.030840857 0.0072596557 0.13608766
0.030404346 0.011969752 0.13549104
0.030148337 0.016009361 0.13507533
0.031295404 0.0037403274 0.1318838
0.03137403 0.0064379033 0.13180923
0.031109946 0.010715714 0.13169146
0.030881474 0.016225489 0.13138059
0.0056866407 0.0004258297 0.18284649
0.029736094 -0.014807093 0.13480842
0.029623237 -0.0096529564 0.1350227
0.028949261 -0.0056206794 0.13426894
0.029331667 -0.0019132679 0.13391197
0.029515998 -0.014554278 0.13136947
0.029708045 -0.0096681574 0.13055709
0.028814845 -0.0057736645 0.13034615
0.029195871 -0.0017011148 0.13044775
0.0302779 0.0021181291 0.13017875
0.031486426 0.0063457727 0.12904283
0.031215804 0.011539892 0.12919083
0.030997293 0.015548256 0.12893283
0.029588802 0.0035563519 0.12570655
0.030561754 0.0066864197 0.12506804
0.030808005 0.010777076 0.12459603
0.030834522 0.015243033 0.12421447
0.0029816458 -0.00023370968 0.18282622
0.028394733 -0.014729091 0.1275833
0.028784344 -0.011317267 0.12772846
0.028814588 -0.0058861813 0.1274747
0.028323157 -0.001825756 0.12686262
0.028298991 0.00088922377 0.1267035
0.028371079 -0.014899992 0.12371618
0.029536793 -0.010091902 0.12443709
0.029513495 -0.0060162428 0.12420934
0.028725488 -0.0019583164 0.12334785
0.028876254 0.0019439515 0.12303245
0.029755456 0.0052607362 0.12254846
0.029059665 -0.015082064 0.11946195
0.029676523 -0.010326855 0.118765
0.030186603 -0.0062226229 0.11898255
0.028996672 -0.0023408649 0.11834383
0.028680682 0.0016865201 0.11848372
0.029565454 0.0062305206 0.11838126
0.03033977 0.010104703 0.11827832
0.030520575 0.01468097 0.11837375
0.030006409 -0.010474863 0.11516571
0.030156562 -0.0063756863 0.11508405
0.029667582 0.010668312 0.11380482
0.03022068 0.013780929 0.11333519
-0.0072038514 -0.0035083664 0.18520257
-0.0072739464 -7.8229823e-05 0.18496898
-0.004305942 0.00055676897 0.18419394
0.029279146 -0.013151822 0.11663461
0.028526902 -0.0015655451 0.11541224
0.027973346 0.0021993583 0.11524165
0.028340528 0.0052616145 0.11490792
0.029174516 -0.01134045 0.11237633
0.029438291 -0.0064825448 0.11228734
0.028302977 -0.0023971002 0.1113615
0.027808735 0.0017031991 0.11073482
0.028856227 0.0058228187 0.11141384
0.02975137 0.009716616 0.11141759
0.029711673 0.01432399 0.11024427
0.028598735 -0.0093962951 0.10805064
0.029334936 -0.0066295126 0.10853928
0.028272016 -0.0025424904 0.10742462
0.028215919 0.00020162034 0.1072377
0.028776169 0.0059449356 0.1066401
0.029297693 0.0095715625 0.1062851
0.029292176 0.014073661 0.10605252
0.028590612 -0.011797389 0.10704219
0.028936438 -0.0063935099 0.10573053
0.028698716 -0.002586806 0.106318
0.028646912 0.0019055177 0.1055544
0.029172268 0.0052458118 0.10436147
0.029228671 0.01037736 0.10365874
0.029195819 0.013121684 0.10349184
0.028513722 -0.011705589 0.10218304
0.029051542 -0.0068940823 0.10174745
0.029115098 -0.0027765594 0.10126543
0.029598713 0.0012005932 0.10089064
0.029658847 0.0054502375 0.1003328
0.029429913 0.0095734885 0.099927127
0.029314552 0.013697327 0.099619567
0.029035091 -0.0077523938 0.097484887
0.029990468 -0.0029378829 0.09708488
0.030230131 0.0011986294 0.097086489
0.029311895 0.005318956 0.096077204
0.02928916 0.0094534755 0.095849633
0.029804144 0.013916343 0.095578492
0.027164187 -0.012698578 0.095103264
0.027159946 -0.0083301691 0.093285441
0.027555687 -0.0030699724 0.092969775
0.027794583 0.0010881957 0.092970729
0.027601771 0.0052371104 0.092593431
0.027663333 0.0093884161 0.092439234
0.027777774 0.012845981 0.092366159
0.027012808 -0.012871879 0.090984404
0.027546644 -0.0073477793 0.090033054
0.027510524 -0.0031812394 0.089936018
0.027555637 0.00096558692 0.08933866
0.02756192 0.0051073679 0.088564515
0.027877195 0.0092686713 0.088634431
0.028256536 0.013424234 0.088761449
0.028574977 0.0098444428 0.085212827
0.029027019 0.013565883 0.084626198
0.026861481 -0.012987063 0.088277042
0.02719995 -0.0091075804 0.08775115
0.027391536 -0.0032949378 0.086826801
0.027252469 0.00087116827 0.08649534
0.027561409 -0.013188604 0.083441079
0.027838724 -0.0090003274 0.083480477
0.028052025 -0.0041229292 0.083428562
0.028277943 0.00075009378 0.083388805
0.028248873 0.0049199872 0.083154976
0.028473973 0.0088744285 0.082583308
0.028838601 0.012866181 0.081775308
0.02724123 -0.0133721 0.079117179
0.027350664 -0.0091783972 0.079007387
0.028206263 -0.0038293169 0.078836501
0.028643439 0.00054672488 0.077661157
0.028861744 0.0049133613 0.077895105
0.029323492 0.0089114457 0.077860713
0.029727153 0.013084452 0.0780195
0.028872218 0.0087876683 0.073399901
0.0294645 0.013306945 0.07320714
0.02683476 -0.013452981 0.07723093
0.027310662 -0.0092401039 0.077451944
0.027741501 -0.0050928141 0.076111555
0.028167946 -0.0023252857 0.075344384
0.028076598 0.0032600411 0.074984789
0.026722159 -0.013650666 0.072550833
0.026659064 -0.0094450023 0.072285175
0.027209861 -0.0054442747 0.072006166
0.028097954 -0.00063395483 0.07228595
0.027607186 0.0041473578 0.071310341
0.028004561 0.0087466845 0.071387172
0.029206855 0.012218804 0.07149905
0.027346985 -0.01383999 0.068012297
0.027260797 -0.009627779 0.06772542
0.027562533 -0.0054051224 0.067794085
0.028285963 -0.0012147248 0.067226708
0.028179135 0.0035074365 0.067082465
0.028389471 0.0083144559 0.066648006
0.028288109 0.012805432 0.066537917
0.028742502 -0.0013499067 0.063546836
0.028671537 0.0028625184 0.063274086
0.02855582 0.0077765523 0.062925279
0.028455274 0.01269079 0.062590599
0.027048929 -0.013982357 0.064659536
0.027266366 -0.009750844 0.064652205
0.028106282 -0.0055052503 0.065219641
0.026726399 -0.014083035 0.062302172
0.027413351 -0.0098275552 0.062730372
0.027541127 -0.0054908637 0.060826063
0.027706709 -0.0014541808 0.060265005
0.027945144 0.0027501339 0.059507728
0.028316975 0.0069761109 0.059647799
0.028211424 0.011198523 0.05934298
0.027818289 0.0075827339 0.056046963
0.027284758 0.011109024 0.055374026
0.026001284 -0.010001178 0.058320403
0.026684711 -0.0071914289 0.057783842
0.026457055 -0.010150497 0.054596484
0.026982205 -0.0058871028 0.054880798
0.026812332 -0.0016471498 0.054513991
0.026873486 0.0023944203 0.05359292
0.026856475 0.0067958888 0.052754939
0.026910119 0.011025502 0.052112937
0.026441626 -0.010317161 0.050414979
0.026678886 -0.0060527115 0.050431192
0.026782598 -0.0016454703 0.049529433
0.026877217 0.0026072073 0.048553109
0.026695132 0.0064558997 0.048193157
0.026655845 0.010912881 0.047938347
0.027746813 0.0032225142 0.045059144
0.027531369 0.006554618 0.0453915
0.027399711 0.011520529 0.045024514
0.026187556 -0.010451445 0.047036171
0.026235888 -0.0061835847 0.046874583
0.026539054 -0.0033323339 0.047024429
0.026349204 -0.010613285 0.042987287
0.026249323 -0.006341394 0.042684197
0.026840227 -0.0020535444 0.043043315
0.027483754 0.0017286211 0.042776167
0.027408242 0.0064566629 0.042123914
0.026726911 0.010529437 0.041723073
0.026096055 -0.0093619768 0.038457155
0.026384506 -0.0022126345 0.03839004
0.026467323 0.0024100346 0.037716746
0.026572416 0.0063354233 0.03762877
0.026061876 0.010628526 0.037457585
0.026068058 -0.011128549 0.037242532
0.025820272 -0.0065526008 0.036994159
0.026069181 -0.0022946589 0.035968482
0.026100857 0.0012799322 0.035826564
0.026133249 0.0062831235 0.035616457
0.025836008 0.010568042 0.035121441
0.026032142 0.013425648 0.035173535
0.02692008 -0.011014286 0.03296113
0.02689198 -0.006720128 0.032727122
0.026774373 -0.0024288252 0.032405615
0.026666727 0.0018629646 0.032093823
0.026728289 0.0061565205 0.031947613
0.026710102 0.010447997 0.031723499
0.027302589 -0.014547161 0.028524995
0.027693169 -0.011197851 0.028391838
0.027605193 -0.0068990234 0.02809906
0.027349796 -0.00260375 0.027641177
0.026812281 0.0017243694 0.027974784
0.027193205 0.0063712187 0.027591705
0.027324252 0.010296769 0.026997626
0.026651094 -0.011365138 0.024152517
0.026451383 -0.0070551573 0.023748517
0.025515778 -0.0027601898 0.022616267
0.025556343 0.0018931522 0.023723662
0.025811741 0.0056232489 0.023367822
0.02649992 0.010203223 0.022970974
0.026038375 -0.011495815 0.020856142
0.025932312 -0.0071924431 0.020005286
0.025407314 -0.0028387131 0.020355701
0.024592638 0.00078895368 0.020452678
0.025543366 0.006159611 0.019521117
0.026632037 0.010267807 0.019059479
0.026447399 0.0099566579 0.014292598
0.025162544 -0.011593693 0.01836741
0.024796128 -0.002929827 0.017588615
0.024337139 0.0014276004 0.017789423
0.024522185 0.0050168238 0.016936302
0.02583003 -0.011741114 0.014703035
0.025551438 -0.0074075963 0.014216781
0.025043249 -0.0030777475 0.013500214
0.02511733 0.0012681367 0.013368011
0.025586128 0.005615755 0.013632774
0.026079757 0.0096941944 0.01321137
0.026827352 -0.011919179 0.010275602
0.026322944 -0.007437407 0.0087314248
0.025831256 -0.0032512227 0.0088543296
0.026160223 0.0010698449 0.0078905821
0.026390741 0.0054224026 0.0079193115
0.026587129 0.0097703654 0.0079128146
0.027022719 0.0052939318 0.0041934252
0.026631884 0.0096457032 0.0035882592
0.026454806 0.012549073 0.00327003
0.026001232 -0.0019100669 0.0056822896
0.025793195 -0.0031387517 0.0037724972
0.026524339 0.00089515012 0.0027930737
0.027125563 0.0052277097 0.002107501
0.026470287 0.0095822634 0.0012296438
0.026427679 0.013478248 0.0017344952
0.026764002 0.0022457445 -0.00032401085
0.027820332 0.0056068879 -0.00086265802
