# .PCD v0.7 - Point Cloud Data file format
VERSION 0.7
FIELDS x y z
SIZE 4 4 4
TYPE F F F
COUNT 1 1 1
WIDTH 359
HEIGHT 1
VIEWPOINT 0 0 0 1 0 0 0
POINTS 359
DATA ascii
-0.02643821 -0.019615768 0.18340531
-0.025589678 -0.022588555 0.18348515
-0.023867372 -0.025197277 0.18297619
-0.033516016 -0.0092587546 0.181308
-0.031622615 -0.014126845 0.18089521
-0.029389884 -0.019172292 0.18080673
-0.027638998 -0.023265667 0.18032461
-0.025236003 -0.026201744 0.18097824
-0.03249513 -0.014296913 0.17692685
-0.020372437 -0.017277159 0.18480074
-0.019692387 -0.020340977 0.18499357
-0.031486064 0.0014178203 0.18386123
-0.03017759 -0.0028689271 0.18415147
-0.028828925 -0.007328718 0.18422565
-0.026581181 -0.011990808 0.18364388
-0.024361704 -0.016599143 0.18379882
-0.023264948 -0.021724988 0.18465006
-0.034177989 0.00068439636 0.18039098
-0.033975355 -0.0044157533 0.18062112
-0.034499507 -0.0077148778 0.17862836
-0.030182544 -0.017562365 0.17800081
-0.024392543 -0.027256314 0.17867237
-0.035353974 0.00022273324 0.17596096
-0.034739483 -0.0041092131 0.17477566
-0.034049738 -0.0090139387 0.17498451
-0.032934174 -0.01438644 0.1750313
-0.030266222 -0.019112118 0.17473117
-0.027968854 -0.023150586 0.1741544
-0.02546561 -0.02711121 0.17343733
-0.034756146 -0.0057682563 0.17110816
-0.034248382 -0.0090519432 0.16986802
-0.03329565 -0.014307325 0.17013308
-0.031077158 -0.01922385 0.16978082
-0.028690675 -0.02323465 0.16913977
-0.025873009 -0.02678307 0.16923863
-0.035091341 -0.00986748 0.16666174
-0.034352794 -0.014017491 0.16541466
-0.032337606 -0.018407214 0.16489482
-0.029304666 -0.022508528 0.16570467
-0.03578528 -0.014127026 0.16247001
-0.034340419 -0.016865892 0.16214266
-0.024703111 -0.00058917049 0.18411738
-0.0225804 -0.0047821179 0.18459359
-0.02117442 -0.0092435274 0.18462983
-0.019052714 -0.013879515 0.18441173
-0.016821411 -0.019213863 0.1849103
-0.034923747 0.00081575383 0.17230988
-0.034514733 0.0012095412 0.1683079
-0.034182295 -0.0034912573 0.16822726
-0.034247518 -0.0070452634 0.16739291
-0.025016051 -0.027091146 0.16630107
-0.03451436 -0.00021012779 0.16337836
-0.034116793 -0.0033937991 0.16286936
-0.034674868 -0.008475557 0.16374916
-0.030326227 -0.020309545 0.16312206
-0.027483255 -0.022727542 0.16225275
-0.024683814 -0.026182428 0.161993
-0.034395568 -0.0050324844 0.15968567
-0.03427463 -0.0086845476 0.15963775
-0.033760741 -0.013142593 0.15891382
-0.031073343 -0.017820371 0.15865356
-0.027369313 -0.02231434 0.15892839
-0.025656966 -0.024966147 0.15841541
-0.033379145 -0.01281267 0.15512741
-0.020463713 0.0011793887 0.18403545
-0.017748775 -0.0027758165 0.18412331
-0.01536079 -0.0068816673 0.1844337
-0.014064824 -0.01173227 0.18405885
-0.034207236 0.0032438124 0.16200516
-0.023603324 -0.027551005 0.15952855
-0.034467317 0.001836299 0.15735257
-0.033972435 -0.0028082561 0.15685987
-0.03368954 -0.0075328839 0.15652254
-0.029380487 -0.018791888 0.15573516
-0.026686292 -0.021916062 0.15563118
-0.024393581 -0.026259942 0.15580666
-0.033930682 -0.0032227375 0.1529595
-0.033776864 -0.0077888616 0.15243855
-0.032969482 -0.012534623 0.15271199
-0.030645492 -0.017480321 0.15253121
-0.027552849 -0.022094131 0.15155739
-0.024677873 -0.025428131 0.15107006
-0.034519769 -0.0084422436 0.14806435
-0.034404889 -0.012912487 0.1483393
-0.032283191 -0.017091315 0.14788637
-0.029359654 -0.020954054 0.14731902
-0.035189021 -0.0096656103 0.14438039
-0.034861181 -0.01289293 0.14393836
-0.032892268 -0.016742609 0.14398089
-0.030743573 -0.019667998 0.14370376
-0.0095161647 -0.0044658273 0.18334025
-0.013528135 -0.00099608302 0.18316659
-0.0093306135 -0.010286378 0.18250239
-0.033535406 -0.0021357043 0.14994633
-0.023372706 -0.026512992 0.14860135
-0.034286465 0.0023719119 0.1451669
-0.033963274 -0.0024350584 0.14577076
-0.034180447 -0.0064830869 0.1455397
-0.027014483 -0.022454813 0.14472961
-0.023904439 -0.025441881 0.14432195
-0.034256194 -0.0033256207 0.14086545
-0.03461758 -0.0073749912 0.14138111
-0.0344669 -0.012587092 0.14078715
-0.032148827 -0.017076928 0.1410279
-0.028476944 -0.021407312 0.14055857
-0.024703395 -0.025358099 0.13938826
-0.034285732 -0.0083817504 0.13720542
-0.034087334 -0.012467835 0.13696188
-0.032568879 -0.016717933 0.13668147
-0.030006623 -0.020745324 0.13590056
-0.027209949 -0.024032176 0.13556069
-0.032830399 -0.016972663 0.13234958
-0.030942425 -0.020946862 0.13180918
-0.029180523 -0.02365586 0.13220879
-0.00507958 -0.0026217941 0.18228078
-0.03383594 0.0032992335 0.13917005
-0.033690877 -0.00068706274 0.13905928
-0.024036221 -0.026918489 0.13716698
-0.03344297 0.0017803134 0.13501579
-0.033542864 -0.0022538304 0.13471019
-0.033939835 -0.0064074667 0.13463235
-0.034105066 -0.010442583 0.13438141
-0.025231415 -0.025794152 0.13335055
-0.033492021 -0.0069319243 0.13050783
-0.033265792 -0.011612118 0.13027245
-0.033133812 -0.016218819 0.12980384
-0.03090154 -0.020813029 0.12888786
-0.026832595 -0.025166385 0.12908298
-0.023286186 -0.028045008 0.12929878
-0.033130378 -0.011373186 0.12629557
-0.032726061 -0.016508086 0.12552547
-0.030360393 -0.020435296 0.12484246
-0.027993212 -0.023481481 0.12499762
-0.0025275708 -0.0015985591 0.18247157
-0.032983441 -0.00015847944 0.13195968
-0.033054948 -0.0011133524 0.1277402
-0.033190072 -0.005887161 0.12747946
-0.033222921 -0.0021181842 0.12358469
-0.034217235 -0.0065651364 0.12399101
-0.033180807 -0.011260307 0.12341642
-0.032299615 -0.014288262 0.12256092
-0.029554516 -0.020004354 0.12203512
-0.026945032 -0.024685923 0.12264666
-0.023324035 -0.027792893 0.12157077
-0.034524262 -0.0070261741 0.11915189
-0.033375237 -0.011119567 0.11868262
-0.031499181 -0.015497836 0.1184327
-0.029329192 -0.019525971 0.11845517
-0.026997134 -0.023977458 0.11832899
-0.024390008 -0.027232379 0.11829108
-0.032990202 -0.01163699 0.11466044
-0.031906661 -0.013768954 0.1144225
0.0040906142 0.0010619282 0.1828405
-0.032810792 0.0008130949 0.12182599
-0.032983333 0.00016584899 0.1171369
-0.034072556 -0.0049821353 0.1164242
-0.02780964 -0.019890316 0.11501169
-0.026160065 -0.023516992 0.11473989
-0.023433939 -0.027859166 0.11529136
-0.03325684 -0.00100521 0.11297864
-0.033855237 -0.0058203228 0.11192238
-0.033124886 -0.010460013 0.11196649
-0.030801954 -0.015146469 0.11179662
-0.028586611 -0.01919594 0.11147946
-0.025625266 -0.023145907 0.11038184
-0.023669507 -0.02704015 0.11024219
-0.03361268 -0.0063937553 0.10797614
-0.032981247 -0.010441696 0.10752904
-0.030739514 -0.014698023 0.10699689
-0.028329609 -0.01888592 0.10633206
-0.026515959 -0.021633863 0.10671687
0.0058969394 0.0069567226 0.18352291
0.0076155243 0.0024631643 0.18337777
-0.033088978 0.003006421 0.11517823
-0.033719279 0.0011924617 0.11163324
-0.033827696 0.00030084606 0.10669625
-0.033764131 -0.0054867147 0.10589731
-0.032987159 -0.010306559 0.10455322
-0.031075001 -0.014713269 0.10428619
-0.029146394 -0.01911266 0.10400581
-0.026380662 -0.023237372 0.10504329
-0.023469774 -0.027532477 0.10545987
-0.033849195 -0.0010182094 0.10290456
-0.03425049 -0.0048307423 0.10141569
-0.033876956 -0.010514652 0.10128295
-0.032034893 -0.014956492 0.10107374
-0.02977819 -0.019220296 0.10052949
-0.026945574 -0.023286093 0.10052121
-0.024082871 -0.027348362 0.10049134
-0.034331061 -0.0052973968 0.097353935
-0.033954933 -0.010678089 0.096627712
-0.032023415 -0.01473406 0.096061766
-0.029692197 -0.018639006 0.095572293
-0.026851282 -0.02343726 0.096333146
-0.024587795 -0.0265471 0.096690357
-0.033576827 -0.010889564 0.093231201
-0.032700643 0.0025117071 0.099012613
-0.03296518 0.0012157289 0.095116735
-0.032867067 -0.0030777585 0.094110072
-0.032377597 -0.0078075253 0.093604088
-0.027046004 -0.019566102 0.092729092
-0.025617212 -0.022466794 0.092432499
-0.023144485 -0.026983753 0.093217015
-0.033128545 -0.004927191 0.089709759
-0.033107545 -0.0094274785 0.08996278
-0.031042796 -0.014089191 0.090220869
-0.028248005 -0.018161019 0.089238763
-0.025798801 -0.022390831 0.088543952
-0.023566168 -0.026158396 0.088556409
-0.033682019 -0.0062321224 0.086135387
-0.03327876 -0.010122168 0.085487843
-0.031632818 -0.014081192 0.08463037
-0.029516822 -0.018245932 0.084406078
-0.027290259 -0.022481203 0.084823906
-0.032365885 -0.00070832577 0.091835499
-0.032260709 0.0026001679 0.087205768
-0.03282252 -0.0014003646 0.087919474
-0.033231601 0.0011566263 0.082933187
-0.033590659 -0.0025293762 0.083115876
-0.033596464 -0.0074568326 0.083162963
-0.028403617 -0.019660465 0.081692874
-0.026842663 -0.022980522 0.081908703
-0.024069501 -0.026713386 0.082358003
-0.033351097 -0.0040031746 0.079273343
-0.032856409 -0.008851761 0.078577995
-0.032291684 -0.014101818 0.079064727
-0.0300592 -0.01843923 0.078545928
-0.027858194 -0.022583529 0.078253567
-0.024392763 -0.026669528 0.077529252
-0.032154348 -0.013201986 0.073095083
-0.029338188 -0.017965078 0.073837757
-0.027653769 -0.020787623 0.073328257
-0.032758679 -0.0015244223 0.076986551
-0.032337528 -0.006076335 0.076019108
-0.025437744 -0.023468722 0.074426174
-0.024857651 -0.024991766 0.074393511
-0.033182904 0.0023014573 0.072777033
-0.032622419 -0.0015716245 0.072003543
-0.031940367 -0.0063602719 0.0721609
-0.03228309 -0.011990918 0.071063459
-0.029228913 -0.017370846 0.071055532
-0.025562512 -0.021984866 0.070871592
-0.023059599 -0.026154324 0.071077347
-0.033366345 -0.0028326157 0.067421317
-0.032753211 -0.0067125643 0.067299306
-0.03250299 -0.012809799 0.067693472
-0.029198458 -0.017865997 0.067327976
-0.026377134 -0.02178647 0.066512108
-0.023938991 -0.025593504 0.065989256
-0.032898743 -0.0083763693 0.063738108
-0.032529134 -0.012327693 0.063136935
-0.031097084 -0.016651116 0.062981844
-0.028023869 -0.021084083 0.062078416
-0.033332855 0.0032017529 0.065810919
-0.033627875 -0.0010981811 0.066131175
-0.022745755 -0.027334101 0.064236641
-0.033259403 -0.0013365401 0.062140703
-0.032668572 -0.0061409338 0.060647309
-0.032849889 -0.010585478 0.060854375
-0.03038168 -0.017823311 0.060238063
-0.028241903 -0.02109693 0.06018436
-0.024770953 -0.024651572 0.059631407
-0.032360442 -0.0078453645 0.056990802
-0.032387905 -0.011595037 0.056204617
-0.030812565 -0.01583872 0.05615139
-0.02826418 -0.020016257 0.056326449
-0.031994633 -0.0010814341 0.058532834
-0.032645952 -0.00049975794 0.054971099
-0.03218529 -0.0056252219 0.053919435
-0.031639725 -0.0091345683 0.052631915
-0.028959256 -0.016958518 0.052706122
-0.026785847 -0.020085769 0.052414298
-0.023887152 -0.023857074 0.053045571
-0.032985736 -0.0012183003 0.050118387
-0.032333437 -0.005679219 0.049089432
-0.03173602 -0.011028143 0.049307704
-0.03036155 -0.015593994 0.04923749
-0.027475141 -0.019532822 0.048356771
-0.023914365 -0.023686711 0.047987461
-0.033080701 -0.0064021233 0.045321763
-0.032359291 -0.010591293 0.044619322
-0.031415753 -0.015829604 0.044885933
-0.028273353 -0.020154841 0.044092715
-0.025562093 -0.02395118 0.043901205
-0.023741366 -0.027033016 0.044129074
-0.033384867 -0.011092414 0.040899754
-0.031733796 -0.015771713 0.04046309
-0.029431561 -0.019777868 0.040759206
-0.032943729 0.00073063467 0.047458529
-0.033209298 -0.00059758592 0.043380678
-0.033295035 -0.0045800796 0.042881489
-0.024968512 -0.025637783 0.041541398
-0.032928426 -0.0018426152 0.039020419
-0.03323625 -0.0055278675 0.038171172
-0.033156507 -0.010849067 0.037486374
-0.031485964 -0.015550456 0.037493825
-0.028544713 -0.020100776 0.037305534
-0.025151677 -0.023767311 0.036938667
-0.022578137 -0.026951743 0.03722769
-0.033665922 -0.0067016394 0.033892512
-0.032933466 -0.010607369 0.034062862
-0.031418756 -0.015127385 0.033346295
-0.028841708 -0.019355739 0.033515155
-0.026011262 -0.022167616 0.032925189
-0.03236917 0.0019698581 0.03964293
-0.032875612 0.00044423062 0.03706938
-0.033854585 -0.00011038221 0.032888412
-0.033617303 -0.0042096674 0.032440424
-0.032340672 -0.010202147 0.030287802
-0.029854583 -0.016392715 0.030074298
-0.027972486 -0.019255595 0.030459285
-0.024907077 -0.023827333 0.031244934
-0.034011111 -0.00028806832 0.02793777
-0.03374505 -0.0052458849 0.0278548
-0.03238152 -0.010076277 0.027079523
-0.030409805 -0.014682217 0.026823938
-0.028122056 -0.019410985 0.027152836
-0.025611747 -0.023357969 0.026814461
-0.022598116 -0.027439617 0.026597023
-0.031669311 -0.010532221 0.023425877
-0.030633274 -0.014643935 0.023779154
-0.028475102 -0.019178245 0.023353457
-0.033576839 0.00088829827 0.024356604
-0.023663286 -0.024501113 0.02317518
-0.032628521 0.0010010591 0.020871401
-0.032456305 -0.0046488303 0.020821214
-0.031235343 -0.0090380022 0.019875228
-0.029852727 -0.014169598 0.019786596
-0.027788304 -0.018759808 0.019452274
-0.024884628 -0.023039989 0.01942873
-0.03163112 -0.0038805734 0.01715523
-0.030164981 -0.0098547377 0.01481837
-0.029343652 -0.01376677 0.014933109
-0.027535971 -0.018125914 0.014955759
-0.025690353 -0.022308439 0.015546858
-0.022836044 -0.025752187 0.016402602
-0.032144718 0.0013332786 0.018223464
-0.032221522 0.0012740167 0.014231265
-0.031703126 -0.0035146875 0.014317751
-0.030491898 -0.0075093471 0.013674378
-0.025959793 -0.019601678 0.012805283
-0.023870774 -0.022858201 0.012602508
-0.032776646 -0.00031958893 0.0094302893
-0.032053869 -0.0036525959 0.0087299347
-0.030953581 -0.0087140864 0.0093240738
-0.029680016 -0.013684275 0.0097501874
-0.027579404 -0.01828989 0.0093901157
-0.024678908 -0.022562394 0.0082749128
-0.021744821 -0.025481965 0.0072789788
-0.032083228 -0.0053140204 0.00487113
-0.031831164 -0.0088356305 0.00414747
-0.030408535 -0.01372521 0.0038056374
-0.028660972 -0.018494328 0.0037865043
-0.025646411 -0.02251015 0.0027663708
-0.028313365 -0.019095376 -0.00071239471
-0.031884633 0.0016841469 0.0029331446
-0.03197898 -0.0029717656 0.0027676225
-0.021316806 -0.025767041 0.0016413927
-0.031817667 0.00061489735 -0.001527369
