# .PCD v0.7 - Point Cloud Data file format
VERSION 0.7
FIELDS x y z
SIZE 4 4 4
TYPE F F F
COUNT 1 1 1
WIDTH 351
HEIGHT 1
VIEWPOINT 0 0 0 1 0 0 0
POINTS 351
DATA ascii
0.014537535 -0.029495256 0.17731944
-0.01165007 -0.024354918 0.1831097
-0.0076597007 -0.024987612 0.1833556
-0.0036968088 -0.024890287 0.18307412
0.00063730084 -0.024720822 0.18259096
0.0053247325 -0.024267349 0.18214217
0.0095127514 -0.024538789 0.18211573
-0.011756793 -0.026738355 0.18031645
-0.007769194 -0.027434094 0.18061367
-0.0037103142 -0.027641518 0.17989072
0.00091902859 -0.027805567 0.17969966
0.0053992947 -0.028061423 0.17946821
0.0093538174 -0.028352635 0.17947215
0.01319265 -0.02816953 0.17938069
-0.011659639 -0.028007679 0.17558649
-0.0079908464 -0.028711388 0.17520496
-0.0041729026 -0.0289558 0.17463857
0.00043504953 -0.029363804 0.1746152
0.0052003274 -0.029629419 0.17428055
0.0091585461 -0.029801233 0.17419842
0.013114667 -0.029532092 0.17378938
-0.0034440858 -0.02958354 0.16959125
-0.00027389984 -0.029908776 0.16930306
0.004360761 -0.030291336 0.16934612
0.008989634 -0.030679259 0.16939372
0.012952841 -0.030174647 0.16880506
-0.00039571204 -0.030572841 0.16614467
0.0055649597 -0.030691624 0.16592145
0.0095353043 -0.030538253 0.16559625
0.012844298 -0.03063895 0.16549873
-0.0079902178 -0.018483333 0.18367958
-0.0033318768 -0.018351419 0.18333602
7.7434415e-05 -0.018468363 0.18351084
0.0049753971 -0.018240504 0.18235731
-0.0076357257 -0.0221857 0.18404797
-0.0036775288 -0.021389315 0.18326345
0.00029814988 -0.02109657 0.18284047
0.0048011784 -0.021373017 0.18243653
0.0095894653 -0.02165447 0.18274608
-0.012753774 -0.027322156 0.17259973
-0.012249007 -0.027706146 0.1688872
-0.0082530379 -0.02878654 0.16887751
-0.0052777063 -0.029100947 0.1684998
-0.011500885 -0.027588539 0.16307718
-0.0084917508 -0.028477192 0.16313303
-0.0044717039 -0.029473901 0.16368169
-0.00048269704 -0.030025925 0.16366306
0.0038937628 -0.030117886 0.16336474
0.0086064357 -0.029837558 0.16274506
0.01278487 -0.030121105 0.1630387
-0.0086293099 -0.028915696 0.15977639
-0.0046324115 -0.02954226 0.15958503
-0.00062859483 -0.029951947 0.15969029
0.003723101 -0.029308472 0.15863672
0.0086904215 -0.028625403 0.15864599
0.012645514 -0.029627118 0.15788484
-0.0071806903 -0.015664408 0.18450871
-0.003781067 -0.01497112 0.18436569
0.00059327431 -0.014738713 0.18425888
0.0047469335 -0.015248843 0.18283534
-0.013754012 -0.026080165 0.16528541
-0.012743291 -0.027624199 0.15760434
-0.0087608099 -0.028429117 0.15662253
-0.0047490378 -0.028833237 0.15653867
-0.00074187189 -0.028914213 0.15639141
0.0043171798 -0.028964844 0.15579474
0.0086037666 -0.028928518 0.15609992
0.012575812 -0.029495921 0.15540281
-0.011605647 -0.028110418 0.15279275
-0.0089201396 -0.028286474 0.15278989
-0.0050852993 -0.028691411 0.15220386
-0.00088918902 -0.028074555 0.15220547
0.0035642104 -0.028708322 0.15194726
0.0079653692 -0.029059768 0.15140778
0.012466838 -0.029552529 0.15172738
0.016005434 -0.030251946 0.1514681
0.0076706451 -0.029242925 0.14799529
0.012358157 -0.029194646 0.14771354
-0.0036082019 -0.009720223 0.18406352
0.00042874951 -0.0097357035 0.18385768
0.0037775785 -0.0085397447 0.1828348
0.004418374 -0.011135817 0.18280205
-0.0090479692 -0.027937071 0.14971507
-0.0036765789 -0.028033938 0.14951131
-0.00099718303 -0.027851803 0.14922905
0.0016866289 -0.02787648 0.14910868
-0.012891348 -0.02675363 0.14548844
-0.0092047732 -0.027900236 0.14593354
-0.0051592756 -0.028246624 0.14599618
-0.0011285651 -0.028185317 0.14573854
0.0029015371 -0.028134584 0.14548919
0.0075777704 -0.028755937 0.14479756
0.012276893 -0.028356466 0.14423689
-0.012072548 -0.027496729 0.14198539
-0.0092453398 -0.028344154 0.14085737
-0.0053592869 -0.029022422 0.14096129
-0.0013168928 -0.029145241 0.14085084
0.002719728 -0.029073205 0.14058441
0.0074286428 -0.028954523 0.14024574
0.012137909 -0.028654013 0.13976112
-0.0041520339 -0.029237203 0.13728076
-0.0012074874 -0.029477987 0.136563
0.0027424039 -0.029616952 0.13587409
0.0065795416 -0.029888749 0.13535237
0.011172902 -0.029488001 0.13517219
0.00042588371 -0.00574943 0.18288854
-0.01400299 -0.026387317 0.13930228
-0.010887848 -0.027365277 0.13802376
-0.013057894 -0.026930707 0.13492724
-0.0096677523 -0.028112616 0.13475174
-0.0057758177 -0.02845834 0.13459235
-0.0019136603 -0.029272811 0.13386348
0.0017948513 -0.029934833 0.13373414
0.011914504 -0.030011468 0.13327536
0.014610806 -0.030074563 0.13318774
-0.0091382619 -0.028360453 0.13110596
-0.0057566208 -0.028118186 0.13073447
-0.0014386411 -0.028467434 0.13003096
0.0025103705 -0.029647861 0.12988192
0.0063980934 -0.03031126 0.12998542
0.011127218 -0.02982264 0.12934268
0.01585721 -0.029850433 0.12912226
0.0076245656 -0.029693944 0.12558484
0.0089790495 -0.02947804 0.1253373
0.0001263528 0.00059059687 0.18262431
0.00043874714 -0.0026240689 0.18254009
-0.010142742 -0.027516451 0.12799996
-0.0058755577 -0.027882509 0.12766978
-0.0021552141 -0.027989643 0.12708613
0.00088510185 -0.028063519 0.1265102
-0.0099850213 -0.027490292 0.12297857
-0.0060550901 -0.028182302 0.12310731
-0.0019793299 -0.027803523 0.12258545
0.0021106303 -0.028132899 0.12264845
0.0060263299 -0.029345104 0.12321264
0.010439117 -0.029310618 0.12295857
0.014746342 -0.029110091 0.1224272
-0.0094032818 -0.028570788 0.11908674
-0.0062224665 -0.028917484 0.1188913
-0.0021091518 -0.028364182 0.11918879
0.0019794239 -0.028264863 0.11889732
0.0060742167 -0.028916359 0.11923206
0.0098060379 -0.029246757 0.11883253
0.014661507 -0.028823886 0.11742449
0.00077851437 0.0037134034 0.18292388
-0.012612817 -0.026473556 0.12154508
-0.011441173 -0.027522683 0.11677486
-0.0063439095 -0.028655853 0.1157639
-0.0022291744 -0.027790291 0.11579943
0.0018642534 -0.027339578 0.11521256
0.0059696394 -0.027669515 0.11528027
0.010337042 -0.027933137 0.11508495
0.013246105 -0.02822859 0.1150558
-0.010810518 -0.027462346 0.11270899
-0.0064933565 -0.028765593 0.11196214
-0.0023762984 -0.027660625 0.11179578
0.001521582 -0.027495453 0.11103815
0.0059898328 -0.027497752 0.11049843
0.0099230204 -0.027656283 0.11018848
0.014028007 -0.028470397 0.11067009
-0.0066474238 -0.028744545 0.10803604
0.0084339287 -0.028047528 0.10667706
0.014814463 -0.028691718 0.10624975
-0.0035741329 0.0069188219 0.18354544
0.000549144 0.0067236596 0.18345675
-0.011782316 -0.026981592 0.11032784
-0.0024862927 -0.02757878 0.10879397
0.0023162584 -0.027480535 0.10846692
0.0043744994 -0.027438436 0.10832673
-0.011351428 -0.027099559 0.1066227
-0.006394289 -0.028913243 0.10571069
-0.0025754939 -0.02840909 0.10656071
0.0016920221 -0.028563993 0.10573983
0.0056302887 -0.028538244 0.10527271
0.0099126333 -0.028539674 0.10481167
0.013388617 -0.028736779 0.10439569
-0.010208938 -0.027544396 0.10166657
-0.0068951566 -0.029020531 0.10172075
-0.0028968705 -0.028922746 0.1016981
0.0011972392 -0.029399209 0.10071778
0.0054764482 -0.029081788 0.10082072
0.0096018296 -0.028981958 0.10052639
0.013726435 -0.028882079 0.10023212
-0.0070628552 -0.029017005 0.097434521
-0.0026470944 -0.029399464 0.097347438
0.0011856753 -0.029473646 0.096426189
0.0053487015 -0.029060738 0.096848309
0.009763889 -0.02879359 0.09659183
0.013623118 -0.02861263 0.096240222
-0.012929019 -0.025337987 0.099218726
-0.011885284 -0.02627538 0.094686806
-0.0085765962 -0.027193205 0.094067693
-0.0030764826 -0.027247259 0.092699647
0.0010794678 -0.027301159 0.092538357
0.005227319 -0.026614768 0.09172833
0.0090573188 -0.02743859 0.092756391
0.013552994 -0.027311888 0.092419744
-0.0075131455 -0.027726429 0.089786649
-0.0033908023 -0.027684383 0.089670181
0.0009768398 -0.027348468 0.089584947
0.0053224959 -0.027400477 0.088983893
0.009268159 -0.027692351 0.088471651
0.013427148 -0.027561102 0.08814764
0.010538553 -0.028745055 0.085329592
0.013644394 -0.028729372 0.084658504
-0.013011677 -0.025695615 0.087821245
-0.0097658467 -0.027075291 0.087539911
-0.0026023909 -0.027300494 0.086711407
0.00087047584 -0.02721405 0.086461246
0.0043440354 -0.027204446 0.086279213
-0.012739634 -0.026494503 0.083140373
-0.0089885332 -0.028191192 0.083795309
-0.0041170027 -0.028266447 0.083620429
0.00074981473 -0.028262615 0.083374977
0.004919813 -0.028228385 0.083136797
0.0089088427 -0.028436475 0.082871616
0.012944819 -0.028607778 0.08186698
-0.011978006 -0.027166741 0.078980863
-0.0091901245 -0.028180566 0.078741074
-0.0042936802 -0.028227415 0.078878164
0.00017036179 -0.028205292 0.078153968
0.0047622141 -0.028759565 0.078570902
0.0089091714 -0.028758032 0.077349067
0.013086249 -0.029054608 0.077410638
0.014370902 -0.02859761 0.072873712
-0.0093268612 -0.027715394 0.075280726
-0.0064543802 -0.027641518 0.077104926
-0.00024272395 -0.02747231 0.074610114
0.0053475359 -0.027392354 0.074260592
-0.013480805 -0.026341591 0.072451651
-0.0094640944 -0.027278271 0.071830153
-0.0052249352 -0.027119279 0.072495937
-0.00085771934 -0.027043207 0.071955621
0.0037771857 -0.026910577 0.071179986
0.0087490436 -0.027069824 0.07073921
0.012663661 -0.02781466 0.071020007
-0.012894187 -0.027217474 0.068188787
-0.0098182242 -0.027712073 0.067379475
-0.0054072873 -0.027471185 0.06771028
-0.0011907364 -0.027689338 0.067702532
0.0029824153 -0.027520793 0.066315949
0.0078950571 -0.027479921 0.066036105
0.012806919 -0.027735677 0.066028953
0.0028623003 -0.028656313 0.063259959
0.008478581 -0.028541412 0.062877476
0.011286717 -0.028484039 0.062686265
-0.0083131287 -0.02817888 0.065424919
-0.005510346 -0.027924094 0.065051496
-0.0012922548 -0.028035369 0.064946771
-0.012637049 -0.027607391 0.063048422
-0.0095745921 -0.027496271 0.061966896
-0.0056419615 -0.027115243 0.061420441
-0.0012189953 -0.027908921 0.061292171
0.0027662404 -0.029062016 0.060549498
0.006790523 -0.028386252 0.060163975
0.011746537 -0.027672376 0.059586108
0.0019367896 -0.027661443 0.056176007
0.0082870871 -0.027531521 0.055743515
-0.010017468 -0.025900535 0.057881057
-0.0057776123 -0.026046958 0.057637334
-0.002246449 -0.02667439 0.057531953
0.013992079 -0.026342256 0.056426048
-0.010346212 -0.026152253 0.054765821
-0.005902661 -0.026438203 0.054371238
-0.0016808733 -0.026964376 0.053617358
0.0027455939 -0.026932392 0.052775979
0.0066230576 -0.027026961 0.053010106
0.011049395 -0.026855197 0.052892327
-0.010130228 -0.026497927 0.050010562
-0.0060829436 -0.026988029 0.04967916
-0.0018569651 -0.027342899 0.048764169
0.0023994914 -0.027504597 0.048710227
0.0066465521 -0.026935253 0.047963381
0.010900226 -0.026720064 0.047552109
-0.0062149465 -0.027852671 0.046318531
-0.0016183396 -0.027925525 0.045640111
0.0022688152 -0.028035522 0.045031667
0.0065253549 -0.027925935 0.044720113
0.011151179 -0.02776587 0.044867635
-0.011153352 -0.026450412 0.047320485
-0.01059428 -0.026884777 0.043499708
-0.0063558025 -0.027099865 0.042448044
-0.0023620252 -0.027738078 0.042657435
0.0021617119 -0.027845316 0.041699171
0.0064289998 -0.027998226 0.041639686
0.010430856 -0.027498825 0.041808069
-0.010054326 -0.026717357 0.039090693
-0.006864314 -0.026673777 0.038364649
-0.0022379619 -0.02691916 0.037849069
0.0020448235 -0.026626213 0.03757
0.0066145444 -0.027009232 0.037719488
0.010890759 -0.026467528 0.036989331
-0.011208374 -0.026199613 0.037055969
-0.0058576027 -0.026493993 0.03655225
0.00200088 -0.026490364 0.03616935
0.0048554274 -0.026297348 0.035844386
0.0091395285 -0.025985088 0.035334945
-0.013905399 -0.026276503 0.032472968
-0.011009241 -0.027059453 0.033097088
-0.0067080469 -0.027294874 0.033121049
-0.002417804 -0.027251909 0.032872736
0.001870638 -0.027144263 0.032561183
0.0061594439 -0.02704663 0.032259345
0.010448539 -0.026953902 0.031962395
-0.014092735 -0.027070846 0.027917266
-0.011194997 -0.027771287 0.028468668
-0.0068966234 -0.027683361 0.02817595
-0.0025982575 -0.027595434 0.027883172
0.0016987978 -0.027418206 0.027502418
0.0059982785 -0.027404768 0.027283072
0.010283938 -0.027454171 0.026667297
0.014378106 -0.027245982 0.026265442
-0.011373853 -0.026428137 0.023932159
-0.007042245 -0.026882529 0.024174929
-0.0027380404 -0.026467171 0.023557663
0.0015695968 -0.026051912 0.022940159
0.0058900351 -0.026394777 0.023073196
0.010203232 -0.026671018 0.02314043
-0.011478645 -0.025933232 0.021291256
-0.0071833325 -0.026243908 0.02031517
-0.0028639319 -0.025977476 0.019843459
0.0017633832 -0.026355438 0.020215392
0.0057923007 -0.026594691 0.0200454
0.010269434 -0.027066145 0.019492149
0.0060359347 -0.026529755 0.016186953
0.0090162773 -0.026781168 0.015394628
-0.011595201 -0.025129182 0.01833421
-3.6984151e-05 -0.02489274 0.017547071
-0.011573884 -0.025198052 0.01433152
-0.0074041644 -0.025664959 0.014330626
-0.0030752772 -0.025147064 0.013604105
0.0012760928 -0.025610702 0.013863683
0.0052930363 -0.026244316 0.013007224
0.010271213 -0.026384354 0.01258564
-0.010515811 -0.025573816 0.0089375973
-0.0075930464 -0.02617831 0.0094121695
-0.0032452014 -0.0260747 0.0091011524
0.0010762843 -0.026561074 0.008297205
0.0054282611 -0.026986036 0.0085231066
0.0097711599 -0.026705401 0.0080325603
0.0052927872 -0.02694915 0.0041182041
0.0081964321 -0.027073707 0.004108727
-0.0077222395 -0.025987489 0.0059428811
-0.001914465 -0.02580234 0.0054796934
-0.011719488 -0.024348276 0.0029933453
-0.0078594182 -0.025572948 0.0022300482
-0.0036482355 -0.025325928 0.0026029944
0.00087726436 -0.025508268 0.0017521381
0.0052197897 -0.026456492 0.0014209747
0.0096126664 -0.026155625 0.0020036101
0.012805747 -0.025689688 0.0011556149
