# .PCD v0.7 - Point Cloud Data file format
VERSION 0.7
FIELDS x y z
SIZE 4 4 4
TYPE F F F
COUNT 1 1 1
WIDTH 359
HEIGHT 1
VIEWPOINT 0 0 0 1 0 0 0
POINTS 359
DATA ascii
-0.022661325 -0.016813517 0.18340531
-0.02193401 -0.019361617 0.18348515
-0.020457746 -0.021597665 0.18297619
-0.02872801 -0.0079360744 0.181308
-0.0271051 -0.012108725 0.18089521
-0.025191329 -0.016433394 0.18080673
-0.023690568 -0.019942001 0.18032461
-0.021630861 -0.022458637 0.18097824
-0.027852969 -0.012254497 0.17692685
-0.017462088 -0.014808993 0.18480074
-0.01687919 -0.017435124 0.18499357
-0.026988054 0.0012152744 0.18386123
-0.025866507 -0.00245908 0.18415147
-0.024710508 -0.0062817587 0.18422565
-0.022783868 -0.010277835 0.18364388
-0.020881459 -0.014227836 0.18379882
-0.019941386 -0.018621419 0.18465006
-0.029295418 0.00058662612 0.18039098
-0.029121732 -0.0037849313 0.18062112
-0.029571004 -0.0066127512 0.17862836
-0.02587075 -0.015053457 0.17800081
-0.020907896 -0.023362556 0.17867237
-0.030303407 0.00019091461 0.17596096
-0.0297767 -0.0035221823 0.17477566
-0.029185489 -0.007726233 0.17498451
-0.028229291 -0.012331233 0.1750313
-0.025942475 -0.016381815 0.17473117
-0.023973307 -0.019843359 0.1741544
-0.021827664 -0.02323818 0.17343733
-0.029790984 -0.0049442197 0.17110816
-0.029355755 -0.0077588083 0.16986802
-0.028539129 -0.012263421 0.17013308
-0.026637565 -0.016477585 0.16978082
-0.024592008 -0.019915415 0.16913977
-0.022176865 -0.022956915 0.16923863
-0.030078292 -0.0084578395 0.16666174
-0.029445251 -0.012014993 0.16541466
-0.02771795 -0.015777614 0.16489482
-0.025118288 -0.019293025 0.16570467
-0.030673098 -0.01210888 0.16247001
-0.029434644 -0.014456479 0.16214266
-0.021174096 -0.00050500361 0.18411738
-0.01935463 -0.0040989583 0.18459359
-0.018149504 -0.0079230238 0.18462983
-0.016330896 -0.011896728 0.18441173
-0.014418353 -0.016469026 0.1849103
-0.029934639 0.0006992165 0.17230988
-0.029584058 0.0010367502 0.1683079
-0.02929911 -0.0029925066 0.16822726
-0.029355016 -0.0060387976 0.16739291
-0.021442331 -0.023220981 0.16630107
-0.029583737 -0.0001801094 0.16337836
-0.029242964 -0.0029089702 0.16286936
-0.029721318 -0.0072647627 0.16374916
-0.025993906 -0.017408183 0.16312206
-0.023557074 -0.01948075 0.16225275
-0.021157555 -0.022442082 0.161993
-0.029481916 -0.0043135588 0.15968567
-0.029378254 -0.0074438988 0.15963775
-0.028937781 -0.01126508 0.15891382
-0.026634295 -0.015274605 0.15865356
-0.023459412 -0.019126577 0.15892839
-0.021991687 -0.021399556 0.15841541
-0.028610699 -0.010982288 0.15512741
-0.017540326 0.0010109041 0.18403545
-0.015213236 -0.0023792714 0.18412331
-0.013166392 -0.0058985716 0.1844337
-0.012055564 -0.010056231 0.18405885
-0.02932049 0.0027804105 0.16200516
-0.02023142 -0.023615148 0.15952855
-0.029543413 0.0015739696 0.15735257
-0.029119229 -0.0024070758 0.15685987
-0.028876752 -0.0064567579 0.15652254
-0.025183275 -0.016107332 0.15573516
-0.022873966 -0.018785195 0.15563118
-0.020908784 -0.022508521 0.15580666
-0.029083442 -0.0027623465 0.1529595
-0.0289516 -0.0066761672 0.15243855
-0.028259559 -0.010743964 0.15271199
-0.026267564 -0.014983133 0.15253121
-0.023616727 -0.018937826 0.15155739
-0.021152463 -0.021795541 0.15107006
-0.029588372 -0.0072362088 0.14806435
-0.029489907 -0.011067847 0.1483393
-0.027671307 -0.014649699 0.14788637
-0.025165418 -0.017960617 0.14731902
-0.030162018 -0.0082848081 0.14438039
-0.029881014 -0.011051083 0.14393836
-0.028193375 -0.01435081 0.14398089
-0.026351636 -0.016858283 0.14370376
-0.0081567122 -0.003827852 0.18334025
-0.011595543 -0.00085378555 0.18316659
-0.0079976702 -0.0088168951 0.18250239
-0.028744634 -0.001830603 0.14994633
-0.020033751 -0.022725422 0.14860135
-0.029388402 0.0020330669 0.1451669
-0.029111378 -0.0020871926 0.14577076
-0.029297527 -0.0055569317 0.1455397
-0.023155272 -0.019246984 0.14472961
-0.020489521 -0.021807328 0.14432195
-0.029362453 -0.0028505325 0.14086545
-0.029672215 -0.0063214218 0.14138111
-0.029543057 -0.010788936 0.14078715
-0.027556138 -0.014637369 0.1410279
-0.024408812 -0.018349124 0.14055857
-0.021174341 -0.021735515 0.13938826
-0.029387768 -0.0071843569 0.13720542
-0.029217714 -0.010686717 0.13696188
-0.027916186 -0.014329656 0.13668147
-0.025719965 -0.017781707 0.13590056
-0.023322815 -0.020599009 0.13556069
-0.028140344 -0.014547998 0.13234958
-0.026522081 -0.017954456 0.13180918
-0.025011875 -0.020276451 0.13220879
-0.0043539256 -0.002247252 0.18228078
-0.029002232 0.0028279144 0.13917005
-0.028877893 -0.00058890972 0.13905928
-0.020602476 -0.023072992 0.13716698
-0.028665405 0.0015259832 0.13501579
-0.028751025 -0.0019318564 0.13471019
-0.029091289 -0.005492114 0.13463235
-0.029232915 -0.0089507848 0.13438141
-0.021626927 -0.022109274 0.13335055
-0.028707445 -0.005941649 0.13050783
-0.028513536 -0.0099532446 0.13027245
-0.028400412 -0.013901846 0.12980384
-0.026487034 -0.017839739 0.12888786
-0.022999369 -0.021571189 0.12908298
-0.019959588 -0.024038577 0.12929878
-0.028397467 -0.0097484458 0.12629557
-0.028050909 -0.014149789 0.12552547
-0.026023196 -0.017515969 0.12484246
-0.023994181 -0.020126984 0.12499762
-0.0021664894 -0.0013701936 0.18247157
-0.028271522 -0.00013583992 0.13195968
-0.028332815 -0.00095430296 0.1277402
-0.028448632 -0.0050461381 0.12747946
-0.02847679 -0.0018155864 0.12358469
-0.02932906 -0.0056272596 0.12399101
-0.028440695 -0.0096516917 0.12341642
-0.027685387 -0.012247082 0.12256092
-0.025332443 -0.017146589 0.12203512
-0.023095742 -0.021159362 0.12264666
-0.019992031 -0.023822479 0.12157077
-0.029592227 -0.0060224342 0.11915189
-0.028607342 -0.0095310565 0.11868262
-0.026999297 -0.013283859 0.1184327
-0.025139306 -0.016736547 0.11845517
-0.023140401 -0.020552106 0.11832899
-0.020905722 -0.023342039 0.11829108
-0.028277315 -0.0099745635 0.11466044
-0.027348571 -0.01180196 0.1144225
0.0035062407 0.00091022416 0.1828405
-0.028123535 0.00069693848 0.12182599
-0.028271429 0.00014215615 0.1171369
-0.029205047 -0.0042704022 0.1164242
-0.023836834 -0.017048841 0.11501169
-0.022422913 -0.020157421 0.11473989
-0.020086233 -0.023879286 0.11529136
-0.028505862 -0.00086160842 0.11297864
-0.029018775 -0.0049888492 0.11192238
-0.028392758 -0.0089657251 0.11196649
-0.026401674 -0.012982689 0.11179662
-0.02450281 -0.016453665 0.11147946
-0.021964511 -0.019839348 0.11038184
-0.020288151 -0.023177272 0.11024219
-0.028810868 -0.0054803621 0.10797614
-0.028269641 -0.0089500258 0.10752904
-0.026348155 -0.012598306 0.10699689
-0.024282521 -0.016187932 0.10633206
-0.022727966 -0.018543312 0.10671687
0.0050545195 0.005962905 0.18352291
0.0065275924 0.0021112841 0.18337777
-0.028361984 0.0025769332 0.11517823
-0.028902238 0.0010221098 0.11163324
-0.028995169 0.00025786739 0.10669625
-0.028940685 -0.0047028977 0.10589731
-0.028274707 -0.0088341925 0.10455322
-0.026635716 -0.012611372 0.10428619
-0.024982624 -0.016382281 0.10400581
-0.022611996 -0.019917749 0.10504329
-0.020116949 -0.023599265 0.10545987
-0.029013593 -0.00087275077 0.10290456
-0.029357562 -0.0041406355 0.10141569
-0.029037394 -0.0090125594 0.10128295
-0.02745848 -0.012819851 0.10107374
-0.025524162 -0.016474539 0.10052949
-0.023096208 -0.019959509 0.10052121
-0.020642461 -0.023441453 0.10049134
-0.029426627 -0.004540626 0.097353935
-0.029104231 -0.009152648 0.096627712
-0.027448641 -0.012629195 0.096061766
-0.025450453 -0.015976291 0.095572293
-0.023015384 -0.020089081 0.096333146
-0.021075252 -0.022754658 0.096690357
-0.028780138 -0.0093339114 0.093231201
-0.028029123 0.0021528928 0.099012613
-0.028255869 0.0010420531 0.095116735
-0.028171774 -0.0026380792 0.094110072
-0.027752228 -0.0066921641 0.093604088
-0.02318229 -0.016770946 0.092729092
-0.021957608 -0.019257251 0.092432499
-0.019838132 -0.02312893 0.093217015
-0.028395899 -0.0042233071 0.089709759
-0.028377898 -0.0080806948 0.08996278
-0.026608111 -0.01207645 0.090220869
-0.024212576 -0.015566589 0.089238763
-0.02211326 -0.019192141 0.088543952
-0.020199571 -0.022421483 0.088556409
-0.028870301 -0.00534182 0.086135387
-0.028524652 -0.0086761443 0.085487843
-0.027113842 -0.012069593 0.08463037
-0.025300134 -0.01563937 0.084406078
-0.023391653 -0.019269602 0.084823906
-0.027742188 -0.00060713571 0.091835499
-0.027652036 0.0022287145 0.087205768
-0.028133588 -0.0012003118 0.087919474
-0.028484229 0.00099139381 0.082933187
-0.028791998 -0.0021680361 0.083115876
-0.028796969 -0.0063915709 0.083162963
-0.024345957 -0.016851828 0.081692874
-0.023007996 -0.01969759 0.081908703
-0.020631 -0.022897188 0.082358003
-0.028586654 -0.0034312918 0.079273343
-0.028162636 -0.0075872238 0.078577995
-0.027678587 -0.012087273 0.079064727
-0.02576503 -0.015805054 0.078545928
-0.023878451 -0.019357312 0.078253567
-0.020908084 -0.022859596 0.077529252
-0.027560869 -0.011315989 0.073095083
-0.025147021 -0.015398638 0.073837757
-0.023703231 -0.017817961 0.073328257
-0.028078871 -0.0013066484 0.076986551
-0.027717879 -0.0052082874 0.076019108
-0.021803781 -0.020116046 0.074426174
-0.021306558 -0.021421514 0.074393511
-0.028442491 0.0019726772 0.072777033
-0.027962074 -0.0013471069 0.072003543
-0.02737746 -0.0054516615 0.0721609
-0.02767122 -0.010277931 0.071063459
-0.025053354 -0.014889298 0.071055532
-0.021910725 -0.01884417 0.070871592
-0.01976537 -0.022417992 0.071077347
-0.028599728 -0.002427957 0.067421317
-0.028074181 -0.005753627 0.067299306
-0.027859706 -0.010979827 0.067693472
-0.025027251 -0.015313713 0.067327976
-0.022608971 -0.018674118 0.066512108
-0.020519134 -0.021937288 0.065989256
-0.028198924 -0.007179745 0.063738108
-0.027882118 -0.010566594 0.063136935
-0.026654646 -0.014272385 0.062981844
-0.02402046 -0.018072071 0.062078416
-0.028571017 0.0027443599 0.065810919
-0.028823894 -0.00094129797 0.066131175
-0.019496361 -0.02342923 0.064236641
-0.028508062 -0.001145605 0.062140703
-0.028001634 -0.0052636573 0.060647309
-0.028157046 -0.0090732658 0.060854375
-0.026041437 -0.015277123 0.060238063
-0.024207344 -0.018083084 0.06018436
-0.021232245 -0.021129919 0.059631407
-0.027737521 -0.0067245984 0.056990802
-0.027761064 -0.0099386023 0.056204617
-0.026410772 -0.013576045 0.05615139
-0.024226438 -0.017156791 0.056326449
-0.027423969 -0.00092694256 0.058532834
-0.027982244 -0.00042836275 0.054971099
-0.02758739 -0.0048216186 0.053919435
-0.027119767 -0.0078296307 0.052631915
-0.024822222 -0.014535872 0.052706122
-0.022959299 -0.017216373 0.052414298
-0.020474702 -0.020448919 0.053045571
-0.028273489 -0.0010442585 0.050118387
-0.027714375 -0.004867902 0.049089432
-0.027202303 -0.009452695 0.049307704
-0.026024187 -0.013366281 0.04923749
-0.023550121 -0.016742419 0.048356771
-0.020498026 -0.020302895 0.047987461
-0.028354887 -0.0054875338 0.045321763
-0.027736533 -0.0090782512 0.044619322
-0.026927792 -0.013568232 0.044885933
-0.024234304 -0.017275579 0.044092715
-0.021910368 -0.020529585 0.043901205
-0.020349743 -0.023171157 0.044129074
-0.028615601 -0.0095077846 0.040899754
-0.027200397 -0.013518611 0.04046309
-0.025227051 -0.016952459 0.040759206
-0.028237483 0.00062625762 0.047458529
-0.028465115 -0.00051221624 0.043380678
-0.028538603 -0.0039257822 0.042881489
-0.02140158 -0.021975242 0.041541398
-0.028224366 -0.0015793843 0.039020419
-0.028488215 -0.0047381725 0.038171172
-0.028419863 -0.009299201 0.037486374
-0.02698797 -0.013328962 0.037493825
-0.024466898 -0.017229237 0.037305534
-0.021558583 -0.020371979 0.036938667
-0.019352689 -0.023101494 0.03722769
-0.028856507 -0.0057442621 0.033892512
-0.028228683 -0.009092031 0.034062862
-0.026930362 -0.01296633 0.033346295
-0.024721462 -0.016590632 0.033515155
-0.022295367 -0.019000813 0.032925189
-0.027745005 0.0016884506 0.03964293
-0.028179098 0.00038076937 0.03706938
-0.029018216 -9.4613992e-05 0.032888412
-0.02881483 -0.0036082859 0.032440424
-0.027720576 -0.008744698 0.030287802
-0.025589643 -0.014050899 0.030074298
-0.023976415 -0.016504796 0.030459285
-0.021348923 -0.020423431 0.031244934
-0.029152382 -0.00024691597 0.02793777
-0.028924327 -0.0044964729 0.0278548
-0.027755586 -0.008636809 0.027079523
-0.026065547 -0.012584757 0.026823938
-0.024104619 -0.016637987 0.027152836
-0.021952927 -0.020021118 0.026814461
-0.019369815 -0.023519672 0.026597023
-0.027145123 -0.009027618 0.023425877
-0.026257092 -0.012551944 0.023779154
-0.02440723 -0.016438495 0.023353457
-0.028780147 0.00076139811 0.024356604
-0.020282816 -0.021000955 0.02317518
-0.027967304 0.00085804984 0.020871401
-0.027819691 -0.0039847116 0.020821214
-0.026773151 -0.0077468595 0.019875228
-0.02558805 -0.012145369 0.019786596
-0.023818545 -0.016079836 0.019452274
-0.02132968 -0.019748561 0.01942873
-0.027112387 -0.0033262069 0.01715523
-0.025855698 -0.0084469188 0.01481837
-0.025151704 -0.011800089 0.014933109
-0.023602262 -0.015536497 0.014955759
-0.022020301 -0.019121516 0.015546858
-0.019573752 -0.022073302 0.016402602
-0.027552614 0.0011428101 0.018223464
-0.027618447 0.0010920139 0.014231265
-0.027174106 -0.0030125896 0.014317751
-0.026135912 -0.0064365841 0.013674378
-0.02225125 -0.016801439 0.012805283
-0.020460663 -0.019592743 0.012602508
-0.028094269 -0.00027393363 0.0094302893
-0.027474746 -0.0031307968 0.0087299347
-0.026531642 -0.0074692168 0.0093240738
-0.025440011 -0.011729379 0.0097501874
-0.023639489 -0.01567705 0.0093901157
-0.021153349 -0.019339195 0.0082749128
-0.018638421 -0.021841682 0.0072789788
-0.02749991 -0.0045548743 0.00487113
-0.027283855 -0.0075733988 0.00414747
-0.026064459 -0.011764466 0.0038056374
-0.024566548 -0.015852282 0.0037865043
-0.02198264 -0.019294415 0.0027663708
-0.024268599 -0.016367465 -0.00071239471
-0.027329687 0.0014435546 0.0029331446
-0.027410554 -0.0025472278 0.0027676225
-0.018271549 -0.022086035 0.0016413927
-0.027272288 0.000527055 -0.001527369
