# .PCD v0.7 - Point Cloud Data file format
VERSION 0.7
FIELDS x y z
SIZE 4 4 4
TYPE F F F
COUNT 1 1 1
WIDTH 1357
HEIGHT 1
VIEWPOINT 0 0 0 1 0 0 0
POINTS 1357
DATA ascii
0.033250183 0.014255553 0.098275542
0.033591762 0.0090411678 0.10001367
0.033755139 0.0075801313 0.10001367
0.033755139 0.0073030367 0.099694856
0.03378737 0.0073030367 0.10001367
0.033439651 0.010779299 0.10001367
0.033755139 0.0090411678 0.10157675
0.033872053 0.0073030367 0.1017518
0.033781245 0.0090411678 0.1017518
0.033547252 0.010779299 0.1017518
0.033755139 0.0092577413 0.1017518
0.033388093 0.012517422 0.10001367
0.033283606 0.014255553 0.10001367
0.03342098 0.012517422 0.1017518
0.033345789 0.014255553 0.1017518
0.033816442 0.0073030367 0.10348993
0.033862323 0.0090411678 0.10348993
0.033717632 0.010779299 0.10348993
0.033755139 0.010537088 0.10348993
0.034006462 0.0073030367 0.10522806
0.034039319 0.0090411678 0.10522806
0.033755139 0.010779299 0.10387883
0.033887491 0.010779299 0.10522806
0.033552527 0.012517422 0.10348993
0.033489853 0.014255553 0.10348993
0.033743799 0.012517422 0.10522806
0.033755139 0.012265563 0.10522806
0.033638075 0.014255553 0.10522806
0.032896727 0.015993685 0.093061149
0.032754004 0.017731816 0.093061149
0.033046246 0.015993685 0.09479928
0.032950908 0.017731816 0.09479928
0.032348573 0.019469947 0.091323018
0.032664448 0.019469947 0.093061149
0.032145977 0.021208078 0.091323018
0.032307014 0.021208078 0.093061149
0.032706603 0.019469947 0.09479928
0.032238483 0.021208078 0.09479928
0.033091158 0.015993685 0.096537411
0.032875896 0.017731816 0.096537411
0.033106431 0.015993685 0.098275542
0.032841668 0.017731816 0.098275542
0.031950012 0.021208078 0.096537411
0.032017007 0.020973474 0.096537411
0.032017007 0.021208078 0.096105129
0.031939641 0.021208078 0.098275542
0.032017007 0.020982847 0.098275542
0.032451078 0.019469947 0.096537411
0.03244786 0.019469947 0.098275542
0.031681672 0.022946209 0.091323018
0.03162095 0.022946209 0.093061149
0.032017007 0.021713167 0.091323018
0.032017007 0.021935448 0.093061149
0.03090632 0.02468434 0.091323018
0.030830041 0.02468434 0.093061149
0.03155902 0.022946209 0.09479928
0.032017007 0.021847725 0.09479928
0.03075245 0.02468434 0.09479928
0.029723063 0.026422471 0.091323018
0.029684901 0.026422471 0.093061149
0.030278876 0.025635183 0.091323018
0.030278876 0.025597587 0.093061149
0.029757425 0.026422471 0.09479928
0.030278876 0.025610387 0.09479928
0.031430662 0.022946209 0.096537411
0.030739486 0.02468434 0.096537411
0.031401426 0.022946209 0.098275542
0.030757457 0.02468434 0.098275542
0.029874384 0.026422471 0.096537411
0.030278876 0.025626704 0.096537411
0.028642431 0.028160602 0.096537411
0.030067906 0.026422471 0.098275542
0.030278876 0.025869578 0.098275542
0.029088825 0.028160602 0.098275542
0.033115834 0.015993685 0.10001367
0.032858565 0.017731816 0.10001367
0.033196494 0.015993685 0.1017518
0.032928392 0.017731816 0.1017518
0.031831831 0.021208078 0.10001367
0.032017007 0.020715505 0.10001367
0.031730622 0.021208078 0.1017518
0.032017007 0.02049534 0.1017518
0.032432318 0.019469947 0.10001367
0.032410234 0.019469947 0.1017518
0.033334926 0.015993685 0.10348993
0.03303127 0.017731816 0.10348993
0.033427387 0.015993685 0.10522806
0.033065155 0.017731816 0.10522806
0.031233758 0.022946209 0.10001367
0.030768856 0.02468434 0.10001367
0.031151548 0.022946209 0.1017518
0.030846387 0.02468434 0.1017518
0.030235544 0.026422471 0.10001367
0.030278876 0.026305407 0.10001367
0.029348701 0.028160602 0.10001367
0.030278876 0.026422471 0.10059488
0.030309305 0.026422471 0.1017518
0.029402584 0.028160602 0.1017518
0.030278876 0.026490584 0.1017518
0.031921655 0.021208078 0.10348993
0.031367883 0.022946209 0.10348993
0.030953571 0.02468434 0.10348993
0.031725913 0.022946209 0.10522806
0.032017007 0.021893188 0.10522806
0.032017007 0.021208078 0.104219
0.031253755 0.02468434 0.10522806
0.032179758 0.021208078 0.10522806
0.030277625 0.026422471 0.10348993
0.030278876 0.026419848 0.10348993
0.030278876 0.026422471 0.10344474
0.029221982 0.028160602 0.10348993
0.030278876 0.026422471 0.10406101
0.030369326 0.026422471 0.10522806
0.029122069 0.028160602 0.10522806
0.030278876 0.026559711 0.10522806
0.034530506 0.0073030367 0.10696619
0.034568831 0.0090411678 0.10696619
0.034077853 0.010779299 0.10696619
0.03477411 0.0073030367 0.10870432
0.034705609 0.0090411678 0.10870432
0.034167513 0.010779299 0.10870432
0.033755139 0.012517422 0.1056334
0.033802196 0.012517422 0.10696619
0.03365846 0.014255553 0.10696619
0.033755139 0.013340555 0.10696619
0.033716142 0.012517422 0.10870432
0.033755139 0.012251064 0.10870432
0.033755139 0.012517422 0.10836818
0.033523962 0.014255553 0.10870432
0.033409029 0.015993685 0.10696619
0.033059061 0.017731816 0.10696619
0.033345208 0.015993685 0.10870432
0.033081397 0.017731816 0.10870432
0.031827569 0.022946209 0.10696619
0.032017007 0.022263587 0.10696619
0.031331807 0.02468434 0.10696619
0.031757846 0.022946209 0.10870432
0.032017007 0.022070378 0.10870432
0.031246528 0.02468434 0.10870432
0.032257393 0.021208078 0.10696619
0.032259256 0.021208078 0.10870432
0.0304607 0.026422471 0.10696619
0.029183045 0.028160602 0.10696619
0.030278876 0.026688755 0.10696619
0.030449584 0.026422471 0.10870432
0.029304758 0.028160602 0.10870432
0.030278876 0.026692897 0.10870432
0.031891719 0.022946209 0.11044245
0.032017007 0.02268061 0.11044245
0.03130503 0.02468434 0.11044245
0.032017007 0.022946209 0.11142942
0.031293184 0.02468434 0.11218058
0.032017007 0.023166463 0.11218058
0.032506287 0.021208078 0.11044245
0.03276746 0.021208078 0.11218058
0.032140404 0.022946209 0.11218058
0.030604184 0.026422471 0.11044245
0.029477552 0.028160602 0.11044245
0.030278876 0.026947767 0.11044245
0.030562967 0.026422471 0.11218058
0.029577181 0.028160602 0.11218058
0.030278876 0.026999757 0.11218058
0.031501397 0.02468434 0.11391871
0.032017007 0.023654193 0.11391871
0.031838775 0.02468434 0.11565685
0.032017007 0.024166867 0.11565685
0.032930091 0.021208078 0.11391871
0.03236106 0.022946209 0.11391871
0.03296642 0.021208078 0.11565685
0.032458231 0.022946209 0.11565685
0.030582502 0.026422471 0.11391871
0.029580295 0.028160602 0.11391871
0.030278876 0.026961684 0.11391871
0.030981869 0.026422471 0.11565685
0.029722556 0.028160602 0.11565685
0.030278876 0.027378842 0.11565685
0.032017007 0.02468434 0.11736479
0.033075169 0.021208078 0.11739498
0.032586679 0.022946209 0.11739498
0.032019079 0.02468434 0.11739498
0.033204645 0.021208078 0.11913311
0.032840803 0.022946209 0.11913311
0.03219977 0.02468434 0.11913311
0.031291753 0.026422471 0.11739498
0.032017007 0.024693087 0.11739498
0.029965058 0.028160602 0.11739498
0.030278876 0.027774483 0.11739498
0.03122507 0.026422471 0.11913311
0.032017007 0.025035933 0.11913311
0.0301411 0.028160602 0.11913311
0.030278876 0.027985543 0.11913311
0.026523232 0.029898733 0.09479928
0.026660055 0.029898733 0.096537411
0.026802614 0.029680327 0.09479928
0.026802614 0.029783234 0.096537411
0.028540745 0.028256997 0.096537411
0.025064483 0.030858055 0.09479928
0.025064483 0.030961871 0.096537411
0.026802614 0.029898733 0.096842751
0.027272969 0.029898733 0.098275542
0.028540745 0.028795347 0.098275542
0.025064483 0.031015858 0.098275542
0.026802614 0.030189261 0.098275542
0.023582429 0.031636864 0.098275542
0.02369228 0.031636864 0.10001367
0.025064483 0.03102544 0.10001367
0.024064407 0.031636864 0.1017518
0.025064483 0.031161249 0.1017518
0.027363762 0.029898733 0.10001367
0.028540745 0.02907826 0.10001367
0.026802614 0.030192822 0.10001367
0.027473167 0.029898733 0.1017518
0.028540745 0.029136211 0.1017518
0.026802614 0.030263424 0.1017518
0.021588221 0.032367498 0.098275542
0.021588221 0.032432526 0.10001367
0.023326352 0.031741396 0.098275542
0.023326352 0.031796172 0.10001367
0.021588221 0.032462209 0.1017518
0.023326352 0.031931534 0.1017518
0.024311602 0.031636864 0.10348993
0.025064483 0.03130196 0.10348993
0.024524778 0.031636864 0.10522806
0.025064483 0.031398997 0.10522806
0.02738896 0.029898733 0.10348993
0.028540745 0.02889356 0.10348993
0.026802614 0.030326262 0.10348993
0.027432635 0.029898733 0.10522806
0.028540745 0.028801262 0.10522806
0.026802614 0.030397624 0.10522806
0.021588221 0.032509834 0.10348993
0.023326352 0.032019645 0.10348993
0.021588221 0.032581493 0.10522806
0.023326352 0.032073915 0.10522806
0.027749449 0.029898733 0.10696619
0.028540745 0.029009447 0.10696619
0.025064483 0.031488195 0.10696619
0.026802614 0.030595109 0.10696619
0.027841404 0.029898733 0.10870432
0.028540745 0.029153496 0.10870432
0.025064483 0.031556115 0.10870432
0.026802614 0.030719653 0.10870432
0.02772221 0.029898733 0.11044245
0.028540745 0.029166073 0.11044245
0.025064483 0.031494305 0.11044245
0.026802614 0.030612662 0.11044245
0.027740777 0.029898733 0.11218058
0.028540745 0.02928032 0.11218058
0.025064483 0.031374782 0.11218058
0.026802614 0.030502796 0.11218058
0.027882203 0.029898733 0.11391871
0.028540745 0.029430881 0.11391871
0.025064483 0.031320244 0.11391871
0.026802614 0.030487359 0.11391871
0.027950391 0.029898733 0.11565685
0.028540745 0.02947472 0.11565685
0.025064483 0.031341314 0.11565685
0.026802614 0.030524373 0.11565685
0.028081492 0.029898733 0.11739498
0.028540745 0.029566765 0.11739498
0.025064483 0.031453744 0.11739498
0.026802614 0.030628592 0.11739498
0.028099239 0.029898733 0.11913311
0.028540745 0.029573753 0.11913311
0.025064483 0.031485721 0.11913311
0.026802614 0.03073132 0.11913311
0.034414679 0.010779299 0.12608564
0.034548357 0.010779299 0.12782377
0.034270301 0.012517422 0.12608564
0.034372926 0.012517422 0.12782377
0.034145281 0.014255553 0.12608564
0.0342502 0.014255553 0.12782377
0.034601152 0.010779299 0.1295619
0.034448564 0.012517422 0.1295619
0.034369498 0.014255553 0.1295619
0.034592822 0.010779299 0.13130003
0.03449598 0.012517422 0.13130003
0.034395441 0.014255553 0.13130003
0.034610048 0.010779299 0.13303816
0.034525186 0.012517422 0.13303816
0.034421638 0.014255553 0.13303816
0.033147156 0.021208078 0.12087124
0.032930687 0.022946209 0.12087124
0.032478467 0.02468434 0.12087124
0.033127472 0.021208078 0.12260937
0.032868877 0.022946209 0.12260937
0.032578379 0.02468434 0.12260937
0.031280249 0.026422471 0.12087124
0.032017007 0.025370449 0.12087124
0.030136272 0.028160602 0.12087124
0.030278876 0.027977124 0.12087124
0.031621426 0.026422471 0.12260937
0.032017007 0.025904506 0.12260937
0.030066222 0.028160602 0.12260937
0.030278876 0.027911529 0.12260937
0.031875521 0.026422471 0.1243475
0.032017007 0.026220217 0.1243475
0.030278876 0.028160602 0.12416001
0.030325904 0.028160602 0.1243475
0.031732708 0.026422471 0.12608564
0.032017007 0.025952905 0.12608564
0.030343488 0.028160602 0.12608564
0.032608479 0.02468434 0.1243475
0.032642201 0.02468434 0.12608564
0.033985376 0.015993685 0.12608564
0.034068286 0.015993685 0.12782377
0.033827022 0.017731816 0.12608564
0.033934817 0.017731816 0.12782377
0.034213379 0.015993685 0.1295619
0.034066379 0.017731816 0.1295619
0.033604324 0.019469947 0.12608564
0.033719793 0.019469947 0.12782377
0.033755139 0.018431574 0.12608564
0.033755139 0.019289777 0.12782377
0.033271164 0.021208078 0.12608564
0.033386707 0.021208078 0.12782377
0.033755139 0.019469947 0.1283316
0.033837765 0.019469947 0.1295619
0.0335152 0.021208078 0.1295619
0.033755139 0.01990363 0.1295619
0.034258962 0.015993685 0.13130003
0.034166321 0.017731816 0.13130003
0.03431879 0.015993685 0.13303816
0.03426069 0.017731816 0.13303816
0.033952639 0.019469947 0.13130003
0.033618197 0.021208078 0.13130003
0.033755139 0.020570412 0.13130003
0.034062013 0.019469947 0.13303816
0.033720031 0.021208078 0.13303816
0.033755139 0.021057114 0.13303816
0.033012316 0.022946209 0.12608564
0.033040658 0.022946209 0.12782377
0.032623544 0.02468434 0.12782377
0.033117548 0.022946209 0.1295619
0.032601923 0.02468434 0.1295619
0.031360611 0.026422471 0.12782377
0.032017007 0.025789052 0.12782377
0.029809952 0.028160602 0.12782377
0.030278876 0.027571812 0.12782377
0.030278876 0.028160602 0.12631813
0.031186461 0.026422471 0.1295619
0.032017007 0.025619522 0.1295619
0.029858887 0.028160602 0.1295619
0.030278876 0.027582392 0.1295619
0.033203617 0.022946209 0.13130003
0.032444626 0.02468434 0.13130003
0.033180729 0.022946209 0.13303816
0.03233847 0.02468434 0.13303816
0.031189844 0.026422471 0.13130003
0.032017007 0.025283754 0.13130003
0.030030295 0.028160602 0.13130003
0.030278876 0.027821124 0.13130003
0.031452164 0.026422471 0.13303816
0.032017007 0.025281012 0.13303816
0.030128613 0.028160602 0.13303816
0.030278876 0.027997866 0.13303816
0.031534597 0.026422471 0.13477629
0.032017007 0.025448382 0.13477629
0.030278876 0.028160602 0.13382593
0.030306533 0.028160602 0.13477629
0.03149493 0.026422471 0.1365144
0.032017007 0.025584683 0.1365144
0.030295506 0.028160602 0.1365144
0.03241761 0.02468434 0.13477629
0.032498091 0.02468434 0.1365144
0.031710863 0.026422471 0.13825253
0.032017007 0.025913015 0.13825253
0.030456498 0.028160602 0.13825253
0.031916901 0.026422471 0.13999066
0.032017007 0.026226714 0.13999066
0.030665234 0.028160602 0.13999066
0.032653123 0.02468434 0.13825253
0.032719895 0.02468434 0.13999066
0.034538195 0.014255553 0.14346692
0.034594744 0.014255553 0.14520505
0.034165293 0.015993685 0.14346692
0.034202188 0.015993685 0.14520505
0.034179866 0.017731816 0.14346692
0.034147292 0.017731816 0.14520505
0.035034806 0.014255553 0.14694318
0.034731776 0.015993685 0.14694318
0.034434125 0.017731816 0.14694318
0.033964425 0.019469947 0.14346692
0.034061745 0.019469947 0.14520505
0.033533573 0.021208078 0.14346692
0.033686802 0.021208078 0.14520505
0.033755139 0.020222902 0.14346692
0.033755139 0.020953879 0.14520505
0.034147426 0.019469947 0.14694318
0.033755139 0.021208078 0.14579159
0.033784553 0.021208078 0.14694318
0.031851023 0.026422471 0.14172879
0.032017007 0.02606833 0.14172879
0.030642569 0.028160602 0.14172879
0.03177169 0.026422471 0.14346692
0.032017007 0.025895119 0.14346692
0.030614644 0.028160602 0.14346692
0.032577291 0.02468434 0.14172879
0.03251569 0.02468434 0.14346692
0.031760186 0.026422471 0.14520505
0.032017007 0.025883645 0.14520505
0.030565381 0.028160602 0.14520505
0.031685054 0.026422471 0.14694318
0.032017007 0.025906011 0.14694318
0.030398235 0.028160602 0.14694318
0.024657086 0.031636864 0.11913311
0.024366155 0.031636864 0.12087124
0.025064483 0.031378284 0.12087124
0.024468571 0.031636864 0.12260937
0.025064483 0.031434268 0.12260937
0.02796188 0.029898733 0.12087124
0.028540745 0.029506311 0.12087124
0.026802614 0.030620009 0.12087124
0.027744964 0.029898733 0.12260937
0.028540745 0.029420942 0.12260937
0.026802614 0.0304894 0.12260937
0.021588221 0.032878026 0.11913311
0.021588221 0.032776609 0.12087124
0.023326352 0.032222494 0.11913311
0.023326352 0.032113358 0.12087124
0.021588221 0.032581568 0.12260937
0.023326352 0.031996503 0.12260937
0.024685606 0.031636864 0.1243475
0.025064483 0.031504095 0.1243475
0.024713054 0.031636864 0.12608564
0.025064483 0.031493425 0.12608564
0.027756482 0.029898733 0.1243475
0.028540745 0.029466391 0.1243475
0.026802614 0.030520439 0.1243475
0.028056726 0.029898733 0.12608564
0.028540745 0.029599398 0.12608564
0.026802614 0.030629694 0.12608564
0.021588221 0.032652602 0.1243475
0.023326352 0.032116696 0.1243475
0.021588221 0.03275089 0.12608564
0.023326352 0.032205731 0.12608564
0.028081566 0.029898733 0.12782377
0.028540745 0.029504582 0.12782377
0.02507937 0.031636864 0.12782377
0.026802614 0.030771494 0.12782377
0.025064483 0.031636864 0.12778524
0.028101072 0.029898733 0.1295619
0.028540745 0.029502913 0.1295619
0.025628492 0.031636864 0.1295619
0.026802614 0.03095296 0.1295619
0.025064483 0.031642795 0.12782377
0.025064483 0.031865418 0.1295619
0.028389886 0.029898733 0.13130003
0.028540745 0.029753894 0.13130003
0.026033595 0.031636864 0.13130003
0.026802614 0.031192407 0.13130003
0.028540745 0.029898733 0.13243306
0.026308522 0.031636864 0.13303816
0.026802614 0.031353652 0.13303816
0.028540745 0.029986069 0.13303816
0.025064483 0.032053337 0.13130003
0.025064483 0.03215313 0.13303816
0.011159442 0.034555867 0.14346692
0.011159442 0.034530818 0.14520505
0.012897566 0.034418643 0.14346692
0.012897566 0.03433916 0.14520505
0.014635697 0.034351364 0.14346692
0.014635697 0.034171715 0.14520505
0.011159442 0.034532443 0.14694318
0.012897566 0.034270748 0.14694318
0.014635697 0.034041941 0.14694318
0.026389107 0.031636864 0.13477629
0.026802614 0.031421632 0.13477629
0.028540745 0.030147314 0.13477629
0.026440412 0.031636864 0.1365144
0.026802614 0.031453669 0.1365144
0.028540745 0.030206814 0.1365144
0.026403069 0.031636864 0.13825253
0.026802614 0.031446636 0.13825253
0.028540745 0.030220002 0.13825253
0.025879562 0.031636864 0.13999066
0.026802614 0.031250179 0.13999066
0.028540745 0.030170545 0.13999066
0.025064483 0.032160133 0.1365144
0.025064483 0.032104269 0.13825253
0.025064483 0.031899169 0.13999066
0.016373828 0.034225464 0.14346692
0.016373828 0.034003928 0.14520505
0.018111959 0.034237608 0.14346692
0.018111959 0.033934683 0.14520505
0.016373828 0.033785969 0.14694318
0.018111959 0.033631891 0.14694318
0.02076897 0.033374995 0.14346692
0.020472631 0.033374995 0.14520505
0.021588221 0.032935664 0.14346692
0.021588221 0.032888874 0.14520505
0.01985009 0.033856139 0.14346692
0.01985009 0.033610821 0.14520505
0.020322353 0.033374995 0.14694318
0.021588221 0.032985792 0.14694318
0.01985009 0.033483326 0.14694318
0.025284469 0.031636864 0.14172879
0.026802614 0.031023964 0.14172879
0.028540745 0.030158341 0.14172879
0.025419459 0.031636864 0.14346692
0.026802614 0.031123802 0.14346692
0.028540745 0.03018342 0.14346692
0.025064483 0.031704202 0.14172879
0.025064483 0.031717151 0.14346692
0.025149763 0.031636864 0.14520505
0.026802614 0.031099603 0.14520505
0.028540745 0.030095339 0.14520505
0.025064483 0.031508625 0.14694318
0.026802614 0.030814379 0.14694318
0.025064483 0.031636864 0.14537463
0.028540745 0.029908076 0.14694318
0.025064483 0.03165862 0.14520505
0.030278876 0.028206125 0.1243475
0.030278876 0.028223366 0.12608564
0.028632015 0.029898733 0.13303816
0.028809577 0.029898733 0.13477629
0.030278876 0.028191984 0.13477629
0.028860569 0.029898733 0.1365144
0.030278876 0.028184146 0.1365144
0.028884068 0.029898733 0.13825253
0.030278876 0.02836521 0.13825253
0.028874144 0.029898733 0.13999066
0.030278876 0.028518617 0.13999066
0.028942794 0.029898733 0.14172879
0.030278876 0.028558269 0.14172879
0.028910324 0.029898733 0.14346692
0.030278876 0.02852343 0.14346692
0.028767958 0.029898733 0.14520505
0.030278876 0.028452039 0.14520505
0.028554365 0.029898733 0.14694318
0.030278876 0.028319716 0.14694318
0.027681112 0.028160602 0.17475328
0.028540745 0.027423382 0.17475328
0.028540745 0.028160602 0.17395863
0.035293475 0.012517422 0.14694318
0.035408244 0.012517422 0.14868131
0.03549327 0.011350498 0.14694318
0.03549327 0.011695847 0.14868131
0.03525126 0.014255553 0.14868131
0.035475343 0.012517422 0.15041944
0.03549327 0.012321748 0.15041944
0.035338193 0.014255553 0.15041944
0.03549327 0.012517422 0.15074006
0.035438597 0.014255553 0.15215757
0.03549327 0.013472594 0.15215757
0.03549327 0.014255553 0.15351692
0.035585359 0.010779299 0.14694318
0.035589203 0.010779299 0.14868131
0.035638094 0.010779299 0.15041944
0.035727292 0.010779299 0.15215757
0.035574913 0.012517422 0.15215757
0.03584525 0.010779299 0.15389571
0.035681814 0.012517422 0.15389571
0.035508767 0.014255553 0.15389571
0.035857499 0.0020886436 0.15389571
0.035904616 0.0020886436 0.15563384
0.035864338 0.0038267747 0.15389571
0.035843134 0.0038267747 0.15563384
0.036046609 0.0020886436 0.15737197
0.036002293 0.0038267747 0.15737197
0.036298573 0.0020886436 0.1591101
0.036184341 0.0038267747 0.1591101
0.036301196 0.0020886436 0.16084823
0.036328867 0.0038267747 0.16084823
0.035997406 0.0055649057 0.15737197
0.036177874 0.0055649057 0.1591101
0.036028773 0.0073030367 0.15737197
0.036204666 0.0073030367 0.1591101
0.036366418 0.0055649057 0.16084823
0.036289588 0.0073030367 0.16084823
0.035908356 0.010779299 0.15563384
0.035739332 0.012517422 0.15563384
0.0355528 0.014255553 0.15563384
0.035939515 0.010779299 0.15737197
0.035814255 0.012517422 0.15737197
0.035611778 0.014255553 0.15737197
0.03601329 0.010779299 0.1591101
0.035902813 0.012517422 0.1591101
0.035716608 0.014255553 0.1591101
0.036054954 0.010779299 0.16084823
0.035945177 0.012517422 0.16084823
0.035868421 0.014255553 0.16084823
0.035028562 0.015993685 0.14868131
0.034817234 0.017731816 0.14868131
0.035156757 0.015993685 0.15041944
0.034926906 0.017731816 0.15041944
0.034385383 0.019469947 0.14868131
0.033891007 0.021208078 0.14868131
0.03457351 0.019469947 0.15041944
0.034152925 0.021208078 0.15041944
0.035262823 0.015993685 0.15215757
0.035014123 0.017731816 0.15215757
0.035302103 0.015993685 0.15389571
0.03549327 0.014493898 0.15389571
0.03501457 0.017731816 0.15389571
0.034675971 0.019469947 0.15215757
0.034308895 0.021208078 0.15215757
0.034714907 0.019469947 0.15389571
0.034378096 0.021208078 0.15389571
0.031744704 0.026422471 0.14868131
0.032017007 0.026004732 0.14868131
0.030519411 0.028160602 0.14868131
0.031902701 0.026422471 0.15041944
0.032017007 0.026248664 0.15041944
0.030497536 0.028160602 0.15041944
0.032017007 0.026422471 0.15151858
0.030571058 0.028160602 0.15215757
0.032017007 0.026499227 0.15215757
0.030733526 0.028160602 0.15389571
0.032017007 0.026640266 0.15389571
0.035295054 0.015993685 0.15563384
0.03549327 0.014835015 0.15563384
0.034879565 0.017731816 0.15563384
0.035141528 0.015993685 0.15737197
0.03549327 0.014814436 0.15737197
0.034820184 0.017731816 0.15737197
0.034629643 0.019469947 0.15563384
0.034450457 0.021208078 0.15563384
0.034738243 0.019469947 0.15737197
0.034544408 0.021208078 0.15737197
0.03522034 0.015993685 0.1591101
0.03549327 0.015244052 0.1591101
0.03488037 0.017731816 0.1591101
0.035427481 0.015993685 0.16084823
0.03549327 0.015855253 0.16084823
0.034843042 0.017731816 0.16084823
0.034845442 0.019469947 0.1591101
0.034618676 0.021208078 0.1591101
0.034685135 0.019469947 0.16084823
0.034482971 0.021208078 0.16084823
0.03071405 0.028160602 0.15563384
0.032017007 0.026681826 0.15563384
0.031041726 0.028160602 0.15737197
0.032017007 0.026850402 0.15737197
0.033201873 0.02468434 0.15389571
0.033283859 0.02468434 0.15563384
0.032177031 0.026422471 0.15389571
0.032218337 0.026422471 0.15563384
0.033371404 0.02468434 0.15737197
0.032290965 0.026422471 0.15737197
0.031306997 0.028160602 0.1591101
0.032017007 0.027242929 0.1591101
0.031328216 0.028160602 0.16084823
0.032017007 0.027370602 0.16084823
0.033588544 0.02468434 0.1591101
0.032577738 0.026422471 0.1591101
0.033579424 0.02468434 0.16084823
0.032711178 0.026422471 0.16084823
0.03624393 0.0020886436 0.16258636
0.036337972 0.0038267747 0.16258636
0.03625837 0.0020886436 0.16432449
0.036234543 0.0038267747 0.16432449
0.036391482 0.0055649057 0.16258636
0.036264896 0.0073030367 0.16258636
0.036199123 0.0055649057 0.16432449
0.036140263 0.0073030367 0.16432449
0.036122784 0.0020886436 0.16606262
0.036112204 0.0038267747 0.16606262
0.035931557 0.0020886436 0.16780075
0.035910442 0.0038267747 0.16780075
0.036068618 0.010779299 0.16258636
0.03602621 0.012517422 0.16258636
0.035946772 0.014255553 0.16258636
0.036088645 0.010779299 0.16432449
0.036092654 0.012517422 0.16432449
0.035951898 0.014255553 0.16432449
0.036065519 0.010779299 0.16606262
0.036080509 0.012517422 0.16606262
0.035873324 0.014255553 0.16606262
0.035966367 0.010779299 0.16780075
0.03583841 0.012517422 0.16780075
0.035587862 0.014255553 0.16780075
0.034966677 0.0073030367 0.17127702
0.035027921 0.0090411678 0.17127702
0.03549327 0.0073030367 0.16964695
0.03549327 0.0090411678 0.16993925
0.035209164 0.010779299 0.17127702
0.03549327 0.010779299 0.17041823
0.035394073 0.014255553 0.16953889
0.03549327 0.012987271 0.16953889
0.03549327 0.014255553 0.16835845
0.035364702 0.012517422 0.17127702
0.03549327 0.012517422 0.17029086
0.03534025 0.014255553 0.17127702
0.034230277 0.0073030367 0.17301515
0.034364775 0.0090411678 0.17301515
0.034703985 0.010779299 0.17301515
0.033466548 0.0073030367 0.17475328
0.033614904 0.0090411678 0.17475328
0.033755139 0.0073030367 0.17411634
0.033755139 0.0090411678 0.17448151
0.033755139 0.0098291263 0.17475328
0.033934191 0.010779299 0.17475328
0.034971923 0.012517422 0.17301515
0.035003975 0.014255553 0.17301515
0.034052759 0.012517422 0.17475328
0.033923224 0.014255553 0.17475328
0.035822287 0.0073030367 0.16780075
0.035520256 0.0073030367 0.16953889
0.035885558 0.0090411678 0.16780075
0.03560774 0.0090411678 0.16953889
0.035710484 0.010779299 0.16953889
0.035562351 0.012517422 0.16953889
0.035415471 0.015993685 0.16258636
0.03549327 0.015843377 0.16258636
0.034858257 0.017731816 0.16258636
0.035432726 0.015993685 0.16432449
0.03549327 0.015855655 0.16432449
0.034848064 0.017731816 0.16432449
0.035456911 0.015993685 0.16606262
0.03549327 0.015870631 0.16606262
0.034927666 0.017731816 0.16606262
0.035412014 0.015993685 0.16780075
0.03549327 0.015170515 0.16780075
0.035067484 0.017731816 0.16780075
0.034747064 0.019469947 0.16432449
0.034674689 0.019469947 0.16606262
0.034422129 0.021208078 0.16432449
0.034361139 0.021208078 0.16606262
0.034642428 0.019469947 0.16780075
0.034259379 0.021208078 0.16780075
0.03139703 0.028160602 0.16258636
0.032017007 0.027317926 0.16258636
0.031351104 0.028160602 0.16432449
0.032017007 0.027166635 0.16432449
0.033326268 0.02468434 0.16258636
0.032544568 0.026422471 0.16258636
0.033276707 0.02468434 0.16432449
0.032417133 0.026422471 0.16432449
0.033801794 0.022946209 0.16432449
0.033836126 0.022946209 0.16606262
0.033300728 0.02468434 0.16606262
0.033755139 0.023157686 0.16432449
0.033755139 0.023320675 0.16606262
0.033764258 0.022946209 0.16780075
0.033122957 0.02468434 0.16780075
0.033755139 0.022980303 0.16780075
0.031148568 0.028160602 0.16606262
0.032017007 0.026758879 0.16606262
0.031907752 0.026422471 0.16780075
0.032017007 0.026276171 0.16780075
0.032017007 0.026422471 0.16721356
0.030920163 0.028160602 0.16780075
0.032224014 0.026422471 0.16606262
0.035248771 0.015993685 0.16953889
0.034937099 0.017731816 0.16953889
0.034992427 0.015993685 0.17127702
0.034727022 0.017731816 0.17127702
0.034514159 0.019469947 0.16953889
0.034064963 0.021208078 0.16953889
0.034159169 0.019469947 0.17127702
0.033477783 0.021208078 0.17127702
0.033755139 0.020401001 0.17127702
0.033755139 0.021208078 0.17037126
0.034747586 0.015993685 0.17301515
0.03450276 0.017731816 0.17301515
0.033920512 0.015993685 0.17475328
0.033607751 0.017731816 0.17475328
0.033755139 0.017359287 0.17475328
0.033755139 0.017731816 0.17457622
0.031912163 0.021208078 0.17475328
0.032017007 0.02109623 0.17475328
0.032017007 0.021208078 0.1745632
0.033786923 0.019469947 0.17301515
0.032941535 0.021208078 0.17301515
0.033755139 0.019529447 0.17301515
0.032888204 0.019469947 0.17475328
0.033755139 0.019469947 0.17308936
0.031781331 0.02468434 0.17127702
0.032017007 0.024235383 0.17127702
0.032017007 0.02468434 0.17061722
0.033415884 0.022946209 0.16953889
0.033755139 0.022144616 0.16953889
0.033755139 0.022946209 0.16787031
0.032646671 0.02468434 0.16953889
0.032627299 0.022946209 0.17127702
0.03161709 0.026422471 0.16953889
0.032017007 0.025568634 0.16953889
0.030858219 0.028160602 0.16953889
0.031350121 0.026422471 0.17127702
0.03075029 0.028160602 0.17127702
0.031978071 0.022946209 0.17301515
0.032017007 0.022855788 0.17301515
0.032017007 0.022946209 0.17292616
0.031626239 0.02468434 0.17301515
0.030954778 0.022946209 0.17475328
0.030396715 0.02468434 0.17475328
0.030935839 0.026422471 0.17301515
0.029605269 0.028160602 0.17301515
0.030278876 0.02727367 0.17301515
0.030278876 0.028160602 0.17227331
0.029286087 0.026422471 0.17475328
0.030278876 0.024888635 0.17475328
0.030278876 0.026422471 0.17362922
0.011159442 0.034523293 0.14868131
0.012897566 0.034268513 0.14868131
0.014635697 0.033995762 0.14868131
0.011159442 0.034658 0.15041944
0.012897566 0.034331903 0.15041944
0.014635697 0.033966973 0.15041944
0.011159442 0.034854934 0.15215757
0.012897566 0.034472317 0.15215757
0.014635697 0.034051731 0.15215757
0.011159442 0.034780636 0.15389571
0.012897566 0.034535065 0.15389571
0.014635697 0.034257978 0.15389571
0.011159442 0.034601286 0.15563384
0.012897566 0.034441248 0.15563384
0.014635697 0.03429544 0.15563384
0.011159442 0.034759462 0.15737197
0.012897566 0.034535393 0.15737197
0.014635697 0.034222275 0.15737197
0.011159442 0.034849659 0.1591101
0.012897566 0.034692258 0.1591101
0.014635697 0.03422083 0.1591101
0.011159442 0.034791306 0.16084823
0.012897566 0.034631774 0.16084823
0.014635697 0.034223914 0.16084823
0.016908929 0.033374995 0.14868131
0.018111959 0.033308357 0.14868131
0.018111959 0.033374995 0.14836857
0.016373828 0.03350684 0.14868131
0.01744853 0.033374995 0.15041944
0.018111959 0.033275202 0.15041944
0.016373828 0.03358455 0.15041944
0.01985009 0.033325702 0.14868131
0.01985009 0.033374995 0.14834529
0.021588221 0.033034071 0.14868131
0.01985009 0.033191681 0.15041944
0.021588221 0.033064172 0.15041944
0.018111959 0.033374995 0.15097198
0.016373828 0.033859685 0.15215757
0.018111959 0.03356339 0.15215757
0.016373828 0.033987001 0.15389571
0.018111959 0.033777028 0.15389571
0.01918593 0.033374995 0.15215757
0.01985009 0.033317193 0.15215757
0.021588221 0.033106416 0.15215757
0.01985009 0.033374995 0.15263891
0.020622477 0.033374995 0.15389571
0.021588221 0.033162743 0.15389571
0.01985009 0.033501819 0.15389571
0.028160229 0.029898733 0.14868131
0.028540745 0.029709175 0.14868131
0.028540745 0.029898733 0.1470142
0.025064483 0.031619906 0.14868131
0.026802614 0.030620947 0.14868131
0.028208211 0.029898733 0.15041944
0.028540745 0.029701024 0.15041944
0.025064483 0.031585693 0.15041944
0.026802614 0.03060247 0.15041944
0.028116614 0.029898733 0.15215757
0.028540745 0.029667318 0.15215757
0.025064483 0.031298235 0.15215757
0.026802614 0.030418843 0.15215757
0.028162315 0.029898733 0.15389571
0.028540745 0.029733226 0.15389571
0.025064483 0.031097293 0.15389571
0.026802614 0.030302256 0.15389571
0.016373828 0.034025684 0.15563384
0.018111959 0.033888027 0.15563384
0.016373828 0.033960193 0.15737197
0.018111959 0.033793554 0.15737197
0.016373828 0.03384307 0.1591101
0.018111959 0.033652142 0.1591101
0.016373828 0.033946306 0.16084823
0.018111959 0.033642098 0.16084823
0.028437063 0.029898733 0.15563384
0.028540745 0.029838055 0.15563384
0.025064483 0.031322479 0.15563384
0.026802614 0.030569285 0.15563384
0.028540745 0.029898733 0.15658864
0.025471613 0.031636864 0.15737197
0.026802614 0.030975997 0.15737197
0.025064483 0.031636864 0.15666708
0.028540745 0.030086517 0.15737197
0.025064483 0.031785741 0.15737197
0.025663197 0.031636864 0.1591101
0.026802614 0.031151175 0.1591101
0.028540745 0.030303851 0.1591101
0.025800854 0.031636864 0.16084823
0.026802614 0.031204298 0.16084823
0.028540745 0.030330002 0.16084823
0.025064483 0.031902045 0.1591101
0.025064483 0.031983763 0.16084823
0.011159442 0.034394324 0.16258636
0.012897566 0.034252033 0.16258636
0.014635697 0.034104168 0.16258636
0.011159442 0.034165159 0.16432449
0.012897566 0.033991098 0.16432449
0.014635697 0.033493146 0.16432449
0.018102199 0.033374995 0.16258636
0.018111959 0.033374861 0.16258636
0.018111959 0.033374995 0.16258597
0.016373828 0.03364028 0.16258636
0.014823958 0.033374995 0.16432449
0.016373828 0.03279148 0.16432449
0.016373828 0.033374995 0.16306213
0.018111959 0.032957479 0.16432449
0.02617979 0.031636864 0.16258636
0.026802614 0.031364992 0.16258636
0.028540745 0.030474365 0.16258636
0.026556656 0.031636864 0.16432449
0.026802614 0.031511113 0.16432449
0.028540745 0.03050907 0.16432449
0.025064483 0.03215909 0.16258636
0.025064483 0.032298326 0.16432449
0.026802614 0.031636864 0.16549236
0.026915684 0.031636864 0.16606262
0.028540745 0.030519426 0.16606262
0.026730388 0.031636864 0.16780075
0.026802614 0.031606674 0.16780075
0.026802614 0.031636864 0.1676605
0.028540745 0.030476704 0.16780075
0.021588221 0.033223018 0.16432449
0.021588221 0.033207968 0.16606262
0.023326352 0.032866642 0.16432449
0.023326352 0.032867104 0.16606262
0.025064483 0.032418668 0.16606262
0.021588221 0.033209011 0.16780075
0.023326352 0.032849655 0.16780075
0.025064483 0.032225356 0.16780075
0.026802614 0.031698897 0.16606262
0.019521087 0.031636864 0.17301515
0.018111959 0.031339735 0.17301515
0.018111959 0.031636864 0.17234966
0.018111959 0.031038553 0.17475328
0.01985009 0.031019613 0.17475328
0.01985009 0.031636864 0.17311284
0.021588221 0.030831501 0.17475328
0.021588221 0.031636864 0.17320684
0.018111959 0.032054201 0.17127702
0.01985009 0.03246209 0.17127702
0.01985009 0.031693667 0.17301515
0.021588221 0.03253682 0.17127702
0.021588221 0.031748742 0.17301515
0.026203722 0.031636864 0.16953889
0.026802614 0.031371072 0.16953889
0.028540745 0.030375227 0.16953889
0.025495976 0.031636864 0.17127702
0.026802614 0.031088829 0.17127702
0.028540745 0.030156493 0.17127702
0.021588221 0.033013538 0.16953889
0.023326352 0.032746464 0.16953889
0.025064483 0.032069147 0.16953889
0.023326352 0.032367662 0.17127702
0.025064483 0.031803668 0.17127702
0.022395313 0.031636864 0.17301515
0.023326352 0.031375244 0.17301515
0.023326352 0.031636864 0.17262807
0.025064483 0.030806035 0.17301515
0.025064483 0.031636864 0.17159483
0.023326352 0.030614465 0.17475328
0.025064483 0.030032814 0.17475328
0.027938783 0.029898733 0.17301515
0.028540745 0.02951245 0.17301515
0.028540745 0.029898733 0.1721428
0.026802614 0.030317098 0.17301515
0.025650874 0.029898733 0.17475328
0.026802614 0.029175341 0.17475328
0.026802614 0.029898733 0.17373177
0.030278876 0.028462872 0.14868131
0.030278876 0.028394476 0.15041944
0.030278876 0.028442785 0.15215757
0.030278876 0.028613344 0.15389571
0.030278876 0.028560922 0.15563384
0.028879136 0.029898733 0.15737197
0.030278876 0.028945625 0.15737197
0.029233977 0.029898733 0.1591101
0.030278876 0.029194981 0.1591101
0.029259682 0.029898733 0.16084823
0.030278876 0.029155388 0.16084823
0.029473677 0.029898733 0.16258636
0.030278876 0.029299378 0.16258636
0.029496953 0.029898733 0.16432449
0.030278876 0.029288173 0.16432449
0.029306263 0.029898733 0.16606262
0.030278876 0.029100209 0.16606262
0.029281378 0.029898733 0.16780075
0.030278876 0.029027537 0.16780075
0.029280722 0.029898733 0.16953889
0.030278876 0.028933614 0.16953889
0.028907686 0.029898733 0.17127702
0.030278876 0.028655753 0.17127702
0.0026555657 0.0038267747 0.18344393
0.0042069182 0.0029982328 0.18344393
0.0042069182 0.0038267747 0.18301621
0.0030026957 0.0038267747 0.18518206
0.0042069182 0.0033613816 0.18518206
0.0050345436 0.0038267747 0.18344393
0.0050670207 0.0038267747 0.18518206
0.0042069182 0.0053437948 0.18344393
0.0042069182 0.0052836239 0.18518206
0.0094213113 0.0014374256 0.18344393
0.011159442 0.0015898347 0.18344393
0.0086119995 0.0020886436 0.18518206
0.0094213113 0.0020886436 0.18385983
0.011159442 0.0020886436 0.18411806
0.0094213113 0.0028194338 0.18518206
0.011159442 0.0027704388 0.18518206
0.012612447 0.0020886436 0.18518206
0.012897566 0.0016998351 0.18518206
0.025064483 0.0020886436 0.18149391
0.026802614 0.0020886436 0.18124714
0.028540745 0.0020886436 0.18052813
0.025064483 0.0027999282 0.1817058
0.026802614 0.0031464621 0.1817058
0.027683049 0.0038267747 0.1817058
0.028540745 0.0038267747 0.18119189
0.02853018 0.0090411678 0.1817058
0.028540745 0.0090287253 0.1817058
0.028540745 0.0090411678 0.18169799
0.026358008 0.010779299 0.1817058
0.026802614 0.010474563 0.1817058
0.026802614 0.010779299 0.18135685
0.028540745 0.010779299 0.180338
0.027706161 0.012517422 0.17996767
0.028540745 0.01151298 0.17996767
0.028540745 0.012517422 0.17963225
0.027462021 0.014255553 0.17996767
0.028540745 0.014255553 0.1793063
0.025064483 0.011908725 0.1817058
0.025064483 0.012517422 0.18153703
0.026802614 0.012517422 0.18043339
0.025064483 0.014255553 0.18152085
0.026802614 0.014255553 0.18044153
0.0076831803 0.02524814 0.1817058
0.0094213113 0.025189444 0.1817058
0.0076831803 0.026422471 0.18122476
0.0094213113 0.026422471 0.1810075
0.011159442 0.025529236 0.1817058
0.011159442 0.026422471 0.18099517
0.0076831803 0.028160602 0.18007839
0.0094213113 0.028160602 0.18006006
0.011159442 0.028160602 0.17997968
0.011598125 0.028160602 0.17996767
0.012897566 0.027958319 0.17996767
0.012897566 0.028160602 0.17986962
0.014635697 0.027319357 0.17996767
0.014635697 0.028160602 0.17938033
0.012897566 0.025579154 0.1817058
0.012897566 0.026422471 0.18096659
0.014635697 0.024881259 0.1817058
0.014635697 0.026422471 0.18054578
0.011159442 0.02468434 0.18230924
0.012897566 0.02468434 0.18234441
0.014635697 0.02468434 0.18187541
0.018421695 0.017731816 0.1817058
0.019229442 0.019469947 0.1817058
0.01985009 0.017731816 0.18140799
0.01985009 0.019469947 0.18142009
0.021588221 0.017731816 0.18143654
0.021588221 0.019469947 0.18108165
0.019291982 0.021208078 0.1817058
0.01985009 0.021208078 0.18130162
0.021588221 0.021208078 0.1808753
0.023326352 0.017731816 0.18163273
0.023326352 0.019469947 0.18113339
0.025064483 0.017731816 0.18157145
0.025064483 0.019469947 0.18103528
0.023326352 0.021208078 0.18083167
0.025064483 0.021208078 0.18062374
0.028382674 0.017731816 0.17996767
0.028345242 0.019469947 0.17996767
0.028540745 0.017731816 0.17978361
0.028540745 0.019469947 0.17973566
0.027188271 0.021208078 0.17996767
0.028540745 0.021208078 0.17844114
0.026802614 0.017731816 0.1810824
0.026802614 0.019469947 0.18085808
0.026802614 0.021208078 0.18022799
0.021404698 0.022946209 0.17996767
0.021588221 0.022839189 0.17996767
0.021588221 0.022946209 0.17988807
0.020273447 0.02468434 0.17996767
0.021588221 0.02468434 0.17905101
0.018141419 0.022946209 0.1817058
0.01985009 0.022946209 0.1807605
0.018111959 0.02297464 0.1817058
0.018111959 0.02468434 0.18086073
0.01985009 0.02468434 0.18017477
0.017753229 0.026422471 0.17996767
0.018111959 0.026166901 0.17996767
0.018111959 0.026422471 0.17976227
0.016373828 0.026969135 0.17996767
0.016373828 0.028160602 0.17912635
0.018111959 0.028160602 0.1786406
0.015114293 0.02468434 0.1817058
0.016373828 0.02468434 0.18139076
0.016373828 0.026422471 0.18034005
0.01985009 0.025122598 0.17996767
0.01985009 0.026422471 0.17939892
0.021588221 0.026422471 0.17889729
0.01985009 0.028160602 0.17833734
0.021588221 0.028160602 0.1784122
0.027980536 0.022946209 0.17822954
0.028540745 0.021485671 0.17822954
0.028540745 0.022946209 0.17791301
0.02741307 0.02468434 0.17822954
0.028540745 0.02468434 0.17759454
0.021948874 0.028160602 0.17822954
0.023326352 0.026716918 0.17822954
0.023326352 0.028160602 0.17749277
0.025064483 0.026673958 0.17822954
0.025064483 0.028160602 0.17661163
0.028074235 0.026422471 0.17649141
0.028540745 0.02575691 0.17649141
0.028540745 0.026422471 0.17593518
0.025552139 0.028160602 0.17649141
0.026802614 0.027430743 0.17649141
0.026802614 0.028160602 0.17572224
0.025957048 0.026422471 0.17822954
0.026802614 0.025589481 0.17822954
0.026802614 0.026422471 0.17774716
0.023326352 0.022685692 0.17996767
0.023326352 0.022946209 0.17971349
0.025064483 0.022937864 0.17996767
0.025064483 0.022946209 0.17996132
0.023326352 0.02468434 0.17919528
0.025064483 0.02468434 0.17927828
0.026802614 0.021746948 0.17996767
0.026802614 0.022946209 0.17911163
0.026802614 0.02468434 0.17843926
0.023326352 0.026422471 0.17846087
0.025064483 0.026422471 0.17855725
0.018111959 0.017731816 0.18181157
0.018111959 0.019469947 0.18212697
0.018111959 0.021208078 0.18222964
0.018111959 0.022946209 0.18171832
0.031346992 0.0020886436 0.17822954
0.032017007 0.0020886436 0.17749467
0.031536072 0.0038267747 0.17822954
0.032017007 0.0038267747 0.17749882
0.033700421 0.0020886436 0.17475328
0.032739222 0.0020886436 0.17649141
0.033582121 0.0038267747 0.17475328
0.032610759 0.0038267747 0.17649141
0.02961877 0.0020886436 0.17996767
0.030278876 0.0020886436 0.17941037
0.030091345 0.0038267747 0.17996767
0.030278876 0.0038267747 0.17977872
0.031345233 0.0073030367 0.17822954
0.031194508 0.0090411678 0.17822954
0.032017007 0.0073030367 0.17734343
0.032017007 0.0090411678 0.17732787
0.031151816 0.010779299 0.17822954
0.032017007 0.010779299 0.17738947
0.032541335 0.0073030367 0.17649141
0.03261216 0.0090411678 0.17649141
0.032682896 0.010779299 0.17649141
0.033755139 0.010779299 0.17497614
0.030755863 0.012517422 0.17822954
0.032017007 0.012517422 0.17701554
0.030489609 0.014255553 0.17822954
0.032017007 0.014255553 0.17691338
0.032518715 0.012517422 0.17649141
0.033755139 0.012517422 0.17509979
0.032351851 0.014255553 0.17649141
0.033755139 0.014255553 0.17493716
0.030236781 0.0073030367 0.17996767
0.029989555 0.0090411678 0.17996767
0.030278876 0.0073030367 0.17986721
0.030278876 0.0090411678 0.17940211
0.029149368 0.010779299 0.17996767
0.030278876 0.010779299 0.17899838
0.029046237 0.0073030367 0.1817058
0.030278876 0.012517422 0.17865452
0.030278876 0.014255553 0.17835274
0.03165625 0.017731816 0.17649141
0.032017007 0.016970307 0.17649141
0.032017007 0.017731816 0.17617261
0.030121878 0.015993685 0.17822954
0.030278876 0.015311345 0.17822954
0.030278876 0.015993685 0.17816874
0.032017007 0.015993685 0.17689848
0.029897258 0.017731816 0.17822954
0.030278876 0.017731816 0.1778509
0.032309532 0.015993685 0.17649141
0.033755139 0.015993685 0.17494288
0.031501383 0.019469947 0.17649141
0.032017007 0.019469947 0.17592254
0.030930147 0.021208078 0.17649141
0.029799208 0.019469947 0.17822954
0.030278876 0.019469947 0.17776576
0.028747648 0.021208078 0.17822954
0.030278876 0.021208078 0.17715222
0.030085146 0.022946209 0.17649141
0.030278876 0.022132531 0.17649141
0.030278876 0.022946209 0.17608219
0.02944456 0.02468434 0.17649141
0.030278876 0.02468434 0.17488191
0.0076831803 0.03122659 0.17649141
0.0094213113 0.031322956 0.17649141
0.0076831803 0.031636864 0.17563576
0.0094213113 0.031636864 0.17584807
0.011159442 0.031380907 0.17649141
0.011159442 0.031636864 0.17592469
0.0076831803 0.030094594 0.17822954
0.0094213113 0.03017132 0.17822954
0.011159442 0.030217767 0.17822954
0.012897566 0.031323791 0.17649141
0.012897566 0.031636864 0.17575055
0.01436685 0.031636864 0.17475328
0.014635697 0.031517684 0.17475328
0.014635697 0.030723333 0.17649141
0.013949037 0.029898733 0.17822954
0.014635697 0.029468 0.17822954
0.014635697 0.029898733 0.1777308
0.012897566 0.030206442 0.17822954
0.0076831803 0.03201808 0.17475328
0.0094213113 0.032069132 0.17475328
0.011159442 0.032068625 0.17475328
0.012897566 0.031980604 0.17475328
0.0076831803 0.028298199 0.17996767
0.0094213113 0.028284982 0.17996767
0.0076831803 0.029898733 0.17845991
0.0094213113 0.029898733 0.1785197
0.011159442 0.02817896 0.17996767
0.011159442 0.029898733 0.17854831
0.012897566 0.029898733 0.17854953
0.016373828 0.030940235 0.17475328
0.016373828 0.030352324 0.17649141
0.018111959 0.030552655 0.17649141
0.016373828 0.02922155 0.17822954
0.016373828 0.029898733 0.1773144
0.018111959 0.028747112 0.17822954
0.018111959 0.029898733 0.17716575
0.019761443 0.029898733 0.17649141
0.01985009 0.02985996 0.17649141
0.01985009 0.029898733 0.17645869
0.021588221 0.029776603 0.17649141
0.021588221 0.029898733 0.17633751
0.01985009 0.028246969 0.17822954
0.021588221 0.028334156 0.17822954
0.023326352 0.029519111 0.17649141
0.023326352 0.029898733 0.1761016
0.025064483 0.028487325 0.17649141
0.025064483 0.029898733 0.17518377
-0.016435467 -0.027459577 0.00094023347
-0.013174385 -0.028695308 0.00094023347
-0.018366314 -0.027459577 0.0044164956
-0.016650647 -0.027934179 0.0044164956
-0.016650647 -0.027459577 0.0018995218
-0.013174385 -0.028164633 0.0044164956
-0.018291496 -0.027459577 0.0078927558
-0.016650647 -0.027657218 0.0078927558
-0.013174385 -0.027768336 0.0078927558
-0.0075412765 -0.030935839 0.00094023347
-0.0062218681 -0.031451188 0.00094023347
-0.0096981302 -0.029923908 0.00094023347
-0.002745606 -0.033068925 0.00094023347
0.00073065609 -0.03431756 0.00094023347
-0.0064347014 -0.030935839 0.0044164956
-0.0062218681 -0.030980892 0.0044164956
-0.0096981302 -0.029233098 0.0044164956
-0.0091317445 -0.030935839 0.0078927558
-0.0062218681 -0.032909855 0.0078927558
-0.0096981302 -0.030206703 0.0078927558
-0.002745606 -0.031734437 0.0044164956
0.00073065609 -0.034067132 0.0044164956
-0.002745606 -0.033048056 0.0078927558
0.00073065609 -0.033217832 0.0078927558
-0.027693853 -0.01703079 0.00094023347
-0.027079433 -0.017569058 0.00094023347
-0.029568635 -0.013554528 0.00094023347
-0.027219035 -0.01703079 0.0044164956
-0.027079433 -0.017231226 0.0044164956
-0.029499099 -0.013554528 0.0044164956
-0.027438253 -0.01703079 0.0078927558
-0.027079433 -0.017523654 0.0078927558
-0.030045696 -0.013554528 0.0078927558
-0.03403195 -0.0066020116 0.00044717453
-0.029763974 -0.010078274 0.00094023347
-0.033493578 -0.0066020116 0.00094023347
-0.030555695 -0.0083625689 0.00094023347
-0.038351454 -0.0031257495 0.00094023347
-0.037508212 -0.00429371 0.00094023347
-0.03403195 -0.006423533 0.00094023347
-0.039331764 0.00035051256 0.00094023347
-0.030553758 -0.010078274 0.0044164956
-0.032203287 -0.0066020116 0.0044164956
-0.030555695 -0.010071538 0.0044164956
-0.031875446 -0.010078274 0.0078927558
-0.030555695 -0.01263538 0.0078927558
-0.030555695 -0.010078274 0.0044204723
-0.033064798 -0.0066020116 0.0078927558
-0.037575677 -0.0031257495 0.0044164956
-0.037508212 -0.0032136589 0.0044164956
-0.03403195 -0.0051353499 0.0044164956
-0.038683377 0.00035051256 0.0044164956
-0.037508212 -0.0031257495 0.004582949
-0.035034403 -0.0031257495 0.0078927558
-0.03403195 -0.0041286051 0.0078927558
-0.037508212 0.00035051256 0.0071402341
-0.036980793 0.00035051256 0.0078927558
-0.023792125 -0.020507053 0.00094023347
-0.023603171 -0.020658068 0.00094023347
-0.023603171 -0.020507053 0.00013553724
-0.020126909 -0.023838714 0.00094023347
-0.019987866 -0.023983315 0.00094023347
-0.016650647 -0.02731815 0.00094023347
-0.021870583 -0.023983315 0.0044164956
-0.020126909 -0.025991708 0.0044164956
-0.020126909 -0.023983315 0.0013046339
-0.02488149 -0.020507053 0.0044164956
-0.023603171 -0.022135101 0.0044164956
-0.02243302 -0.023983315 0.0078927558
-0.020126909 -0.026536793 0.0078927558
-0.024662659 -0.020507053 0.0078927558
-0.023603171 -0.022089615 0.0078927558
-0.016650647 -0.027459577 0.0085571464
-0.013174385 -0.027459577 0.0099893752
-0.013174385 -0.027459577 0.01307866
-0.0091667399 -0.030935839 0.011369016
-0.0062218681 -0.033642143 0.011369016
-0.012529753 -0.027459577 0.011369016
-0.0096981302 -0.030080616 0.011369016
-0.0088265762 -0.030935839 0.014845278
-0.0062218681 -0.033460967 0.014845278
-0.002745606 -0.033806592 0.011369016
0.00073065609 -0.032488614 0.011369016
-0.002745606 -0.033630453 0.014845278
0.00073065609 -0.031420618 0.014845278
-0.0089273378 -0.030935839 0.01832154
-0.0062218681 -0.033165805 0.01832154
-0.0086000264 -0.030935839 0.021797799
-0.0062218681 -0.032297947 0.021797799
-0.002745606 -0.03297881 0.01832154
0.00064706802 -0.030935839 0.01832154
0.00073065609 -0.030935839 0.017509632
0.00073065609 -0.030896805 0.01832154
-0.002745606 -0.03227634 0.021797799
0.00073065609 -0.031266481 0.021797799
0.00073065609 -0.030935839 0.019665174
-0.018345743 -0.027459577 0.025274061
-0.008119002 -0.030935839 0.025274061
-0.0062218681 -0.031667337 0.025274061
-0.0093438923 -0.030935839 0.028750323
-0.0062218681 -0.031508647 0.028750323
-0.002745606 -0.032119051 0.025274061
0.00073065609 -0.032166637 0.025274061
-0.002745606 -0.031627193 0.028750323
0.00073065609 -0.032230325 0.028750323
-0.0062218681 -0.031543508 0.032226581
-0.0082885623 -0.030935839 0.035702843
-0.0062218681 -0.03130462 0.035702843
-0.002745606 -0.031559579 0.032226581
0.00073065609 -0.032198623 0.032226581
-0.002745606 -0.031860836 0.035702843
0.00073065609 -0.032682799 0.035702843
-0.027275451 -0.01703079 0.011369016
-0.029673189 -0.013554528 0.011369016
-0.027463868 -0.01703079 0.014845278
-0.02942881 -0.013554528 0.014845278
-0.027427264 -0.01703079 0.01832154
-0.029319577 -0.013554528 0.01832154
-0.027425602 -0.01703079 0.021797799
