# .PCD v0.7 - Point Cloud Data file format
VERSION 0.7
FIELDS x y z
SIZE 4 4 4
TYPE F F F
COUNT 1 1 1
WIDTH 1302
HEIGHT 1
VIEWPOINT 0 0 0 1 0 0 0
POINTS 1302
DATA ascii
0.027201869 0.011254787 0.057410806
0.02738183 0.0094795227 0.059186071
0.027327441 0.011254787 0.059186071
0.027162917 0.01303006 0.057410806
0.027146466 0.014805324 0.057410806
0.027263634 0.01303006 0.059186071
0.027239494 0.014805324 0.059186071
0.027479209 0.0094795227 0.060560122
0.027513616 0.0094795227 0.060961343
0.027453087 0.011254787 0.060961343
0.027479209 0.010691226 0.060961343
0.027650066 0.0094795227 0.062736616
0.027479209 0.011254787 0.061349362
0.02758316 0.011254787 0.062736616
0.027375899 0.01303006 0.060961343
0.027352519 0.014805324 0.060961343
0.027479209 0.01303006 0.062269509
0.027510785 0.01303006 0.062736616
0.02747605 0.014805324 0.062736616
0.027479209 0.014653586 0.062736616
0.0079512373 0.027888395 0.052084997
0.0079512373 0.027923711 0.053860262
0.0097265095 0.027888186 0.052084997
0.0097265095 0.027905621 0.053860262
0.011501774 0.027915843 0.052084997
0.011501774 0.027941726 0.053860262
0.0079512373 0.028020926 0.055635534
0.0097265095 0.028017484 0.055635534
0.011501774 0.02801419 0.055635534
0.013277046 0.027874716 0.052084997
0.013277046 0.027906783 0.053860262
0.015052311 0.027839832 0.052084997
0.015052311 0.027908064 0.053860262
0.013277046 0.027977236 0.055635534
0.015052311 0.028010987 0.055635534
0.0044006929 0.028277867 0.059186071
0.0044006929 0.028372608 0.060961343
0.0061759651 0.028247885 0.059186071
0.0061759651 0.028361894 0.060961343
0.0079512373 0.028261773 0.059186071
0.0079512373 0.028388686 0.060961343
0.0044006929 0.028458424 0.062736616
0.0061759651 0.028480567 0.062736616
0.0079512373 0.028509475 0.062736616
0.0079512373 0.028153889 0.057410806
0.0097265095 0.028146364 0.057410806
0.011501774 0.02812577 0.057410806
0.0097265095 0.028266005 0.059186071
0.011501774 0.028262399 0.059186071
0.013277046 0.028065585 0.057410806
0.015052311 0.028075926 0.057410806
0.013277046 0.028221719 0.059186071
0.015052311 0.028195344 0.059186071
0.0097265095 0.028405033 0.060961343
0.011501774 0.028411217 0.060961343
0.0097265095 0.028516598 0.062736616
0.011501774 0.028515376 0.062736616
0.013277046 0.028384425 0.060961343
0.015052311 0.028362148 0.060961343
0.013277046 0.028486855 0.062736616
0.015052311 0.028488003 0.062736616
0.02704943 0.018355869 0.050309725
0.0269747 0.020131133 0.050309725
0.026625983 0.021906413 0.050309725
0.027079545 0.018355869 0.052084997
0.026954658 0.020131133 0.052084997
0.026514478 0.021906413 0.052084997
0.027079858 0.018355869 0.053860262
0.026872508 0.020131133 0.053860262
0.0263853 0.021906413 0.053860262
0.027085207 0.018355869 0.055635534
0.026862971 0.020131133 0.055635534
0.026397787 0.021906413 0.055635534
0.015052311 0.02785366 0.050309725
0.016827591 0.027836509 0.050309725
0.018602856 0.027734496 0.050309725
0.016827591 0.027839698 0.052084997
0.018602856 0.027683981 0.052084997
0.021222852 0.027232222 0.050309725
0.0221534 0.026768349 0.050309725
0.02037812 0.027495228 0.050309725
0.021351628 0.027232222 0.052084997
0.0221534 0.026797272 0.052084997
0.02037812 0.027516164 0.052084997
0.016827591 0.027851485 0.053860262
0.018602856 0.027666636 0.053860262
0.016827591 0.027926095 0.055635534
0.018602856 0.02775418 0.055635534
0.021249734 0.027232222 0.053860262
0.0221534 0.02676376 0.053860262
0.02037812 0.027513124 0.053860262
0.021276928 0.027232222 0.055635534
0.0221534 0.026784711 0.055635534
0.02037812 0.027546279 0.055635534
0.025541551 0.023681678 0.050309725
0.025703929 0.023463167 0.050309725
0.024093755 0.025456943 0.050309725
0.02552665 0.023681678 0.052084997
0.025703929 0.023446731 0.052084997
0.024058275 0.025456943 0.052084997
0.023928665 0.025611274 0.050309725
0.023928665 0.025584258 0.052084997
0.025455527 0.023681678 0.053860262
0.025703929 0.02333378 0.053860262
0.024086721 0.025456943 0.053860262
0.025429301 0.023681678 0.055635534
0.025703929 0.023298644 0.055635534
0.024059005 0.025456943 0.055635534
0.023928665 0.025611676 0.053860262
0.023928665 0.025579371 0.055635534
0.027060993 0.018355869 0.057410806
0.026813202 0.020131133 0.057410806
0.026374631 0.021906413 0.057410806
0.027070545 0.018355869 0.059186071
0.026843764 0.020131133 0.059186071
0.026419424 0.021906413 0.059186071
0.02720622 0.018355869 0.060961343
0.026982106 0.020131133 0.060961343
0.026551537 0.021906413 0.060961343
0.027344503 0.018355869 0.062736616
0.02719935 0.020131133 0.062736616
0.026796214 0.021906413 0.062736616
0.016827591 0.027986042 0.057410806
0.018602856 0.027819924 0.057410806
0.016827591 0.028059684 0.059186071
0.018602856 0.027891181 0.059186071
0.021310531 0.027232222 0.057410806
0.0221534 0.026797526 0.057410806
0.02037812 0.027597837 0.057410806
0.021205269 0.027232222 0.059186071
0.0221534 0.026775666 0.059186071
0.02037812 0.027587645 0.059186071
0.016827591 0.028203167 0.060961343
0.018602856 0.027980037 0.060961343
0.016827591 0.028343506 0.062736616
0.018602856 0.028154425 0.062736616
0.021531172 0.027232222 0.060961343
0.0221534 0.026923366 0.060961343
0.02037812 0.027663507 0.060961343
0.021823011 0.027232222 0.062736616
0.0221534 0.027063973 0.062736616
0.02037812 0.027839638 0.062736616
0.025380544 0.023681678 0.057410806
0.025703929 0.023185425 0.057410806
0.024072476 0.025456943 0.057410806
0.025405087 0.023681678 0.059186071
0.025703929 0.023209192 0.059186071
0.024031542 0.025456943 0.059186071
0.023928665 0.02559299 0.057410806
0.023928665 0.025555052 0.059186071
0.025577359 0.023681678 0.060961343
0.025703929 0.023483209 0.060961343
0.02416613 0.025456943 0.060961343
0.025703929 0.023681678 0.061750874
0.024371572 0.025456943 0.062736616
0.025703929 0.023831926 0.062736616
0.025807165 0.023681678 0.062736616
0.023928665 0.025664128 0.060961343
0.023928665 0.025850393 0.062736616
0.027762584 0.0023784414 0.06451188
0.027791299 0.0041537061 0.06451188
0.027842484 0.0023784414 0.066287152
0.027871139 0.0041537061 0.066287152
0.027798049 0.0059289783 0.06451188
0.027780123 0.0077042505 0.06451188
0.027884535 0.0059289783 0.066287152
0.027875744 0.0077042505 0.066287152
0.027919076 0.0023784414 0.068062425
0.027949356 0.0041537061 0.068062425
0.027993523 0.0023784414 0.069837697
0.028024398 0.0041537061 0.069837697
0.027752064 0.0094795227 0.06451188
0.027709432 0.011254787 0.06451188
0.027846493 0.0094795227 0.066287152
0.027801044 0.011254787 0.066287152
0.027630575 0.01303006 0.06451188
0.027479209 0.014805324 0.062812887
0.027571402 0.014805324 0.06451188
0.027738832 0.01303006 0.066287152
0.02769395 0.014805324 0.066287152
0.0044006929 0.028500162 0.06451188
0.0061759651 0.028530501 0.06451188
0.0079512373 0.028581597 0.06451188
0.0044006929 0.028546654 0.066287152
0.0061759651 0.028588004 0.066287152
0.0079512373 0.028642289 0.066287152
0.0097265095 0.028595559 0.06451188
0.011501774 0.028610907 0.06451188
0.0097265095 0.028663673 0.066287152
0.011501774 0.028696142 0.066287152
0.013277046 0.028585009 0.06451188
0.015052311 0.028580613 0.06451188
0.013277046 0.028696574 0.066287152
0.015052311 0.028681196 0.066287152
0.027446367 0.020131133 0.06451188
0.027479209 0.018913843 0.06451188
0.027479209 0.018355869 0.064373694
0.027497046 0.018355869 0.06451188
0.027040266 0.021906413 0.06451188
0.027479209 0.020131133 0.064728774
0.027734451 0.018355869 0.066287152
0.027678855 0.020131133 0.066287152
0.027258165 0.021906413 0.066287152
0.027479209 0.021217786 0.066287152
0.027919538 0.018355869 0.068062425
0.02785895 0.020131133 0.068062425
0.027453698 0.021906413 0.068062425
0.027479209 0.021828182 0.068062425
0.028070979 0.018355869 0.069837697
0.027984239 0.020131133 0.069837697
0.027479209 0.021906413 0.068338782
0.027532347 0.021906413 0.069837697
0.016827591 0.02847258 0.06451188
0.018602856 0.028279446 0.06451188
0.016827591 0.028618716 0.066287152
0.018602856 0.028429769 0.066287152
0.022112437 0.027232222 0.06451188
0.0221534 0.027211435 0.06451188
0.02037812 0.027964942 0.06451188
0.0221534 0.027232222 0.064648062
0.02037812 0.028123386 0.066287152
0.0221534 0.027453847 0.066287152
0.015052311 0.028771676 0.068062425
0.016827591 0.028692089 0.068062425
0.018602856 0.02859018 0.068062425
0.015052311 0.028813742 0.069837697
0.016827591 0.028734244 0.069837697
0.018602856 0.028674118 0.069837697
0.02037812 0.028344832 0.068062425
0.0221534 0.027655385 0.068062425
0.02037812 0.028366394 0.069837697
0.0221534 0.02772779 0.069837697
0.024578191 0.025456943 0.06451188
0.025703929 0.024149694 0.06451188
0.024905063 0.025456943 0.066287152
0.025703929 0.024476551 0.066287152
0.026044227 0.023681678 0.06451188
0.026280411 0.023681678 0.066287152
0.023928665 0.026065387 0.06451188
0.022532962 0.027232222 0.066287152
0.023928665 0.026294388 0.066287152
0.025078066 0.025456943 0.068062425
0.025703929 0.024681471 0.068062425
0.025271229 0.025456943 0.069837697
0.025703929 0.024930276 0.069837697
0.026495166 0.023681678 0.068062425
0.026636504 0.023681678 0.069837697
0.027479209 0.02206146 0.069837697
0.022886075 0.027232222 0.068062425
0.023928665 0.026530541 0.068062425
0.02318003 0.027232222 0.069837697
0.023928665 0.026736595 0.069837697
0.028082453 0.018355869 0.071612962
0.027990006 0.020131133 0.071612962
0.027594201 0.021906413 0.071612962
0.028130732 0.018355869 0.073388234
0.028024204 0.020131133 0.073388234
0.027633496 0.021906413 0.073388234
0.028227009 0.018355869 0.075163506
0.028046511 0.020131133 0.075163506
0.027694993 0.021906413 0.075163506
0.028227799 0.018355869 0.076938771
0.028051592 0.020131133 0.076938771
0.027759038 0.021906413 0.076938771
0.015052311 0.028862469 0.071612962
0.016827591 0.028800987 0.071612962
0.018602856 0.028710999 0.071612962
0.015052311 0.028927423 0.073388234
0.016827591 0.028814815 0.073388234
0.018602856 0.028754212 0.073388234
0.02037812 0.028448187 0.071612962
0.0221534 0.027897097 0.071612962
0.02037812 0.028597541 0.073388234
0.0221534 0.028053977 0.073388234
0.015052311 0.028949194 0.075163506
0.016827591 0.028852828 0.075163506
0.018602856 0.028829776 0.075163506
0.015052311 0.028968252 0.076938771
0.016827591 0.028858207 0.076938771
0.018602856 0.028833844 0.076938771
0.02037812 0.02864296 0.075163506
0.0221534 0.028106488 0.075163506
0.02037812 0.028637402 0.076938771
0.0221534 0.028168418 0.076938771
0.025455482 0.025456943 0.071612962
0.025703929 0.025158696 0.071612962
0.025645874 0.025456943 0.073388234
0.025703929 0.025395133 0.073388234
0.026765682 0.023681678 0.071612962
0.027479209 0.022231154 0.071612962
0.026896052 0.023681678 0.073388234
0.027479209 0.022332676 0.073388234
0.023433961 0.027232222 0.071612962
0.023928665 0.026900433 0.071612962
0.023662873 0.027232222 0.073388234
0.023928665 0.027045108 0.073388234
0.025703929 0.025456943 0.07388676
0.027068116 0.023681678 0.075163506
0.027479209 0.022690602 0.075163506
0.025889851 0.025456943 0.075163506
0.02711571 0.023681678 0.076938771
0.027479209 0.022921614 0.076938771
0.025928192 0.025456943 0.076938771
0.023847215 0.027232222 0.075163506
0.023928665 0.027177013 0.075163506
0.025703929 0.025649182 0.075163506
0.023928665 0.027232222 0.076514252
0.023934789 0.027232222 0.076938771
0.025703929 0.025710382 0.076938771
0.023928665 0.027236752 0.076938771
0.028249465 0.018355869 0.078714043
0.02808354 0.020131133 0.078714043
0.027780972 0.021906413 0.078714043
0.028227545 0.018355869 0.080489315
0.028062813 0.020131133 0.080489315
0.027913876 0.021906413 0.080489315
0.015052311 0.028987266 0.078714043
0.016827591 0.028867267 0.078714043
0.018602856 0.028852604 0.078714043
0.015052311 0.028960265 0.080489315
0.016827591 0.028893851 0.080489315
0.018602856 0.02882392 0.080489315
0.02037812 0.028636314 0.078714043
0.0221534 0.02822081 0.078714043
0.02037812 0.028589897 0.080489315
0.0221534 0.028244562 0.080489315
0.018602856 0.028702952 0.08226458
0.02037812 0.028512232 0.08226458
0.0221534 0.028285109 0.08226458
0.018602856 0.028609417 0.084039852
0.02037812 0.028394409 0.084039852
0.0221534 0.02815146 0.084039852
0.027163737 0.023681678 0.078714043
0.027479209 0.023014553 0.078714043
0.026015528 0.025456943 0.078714043
0.027338989 0.023681678 0.080489315
0.027479209 0.023426674 0.080489315
0.026206471 0.025456943 0.080489315
0.024047606 0.027232222 0.078714043
0.025703929 0.025815941 0.078714043
0.023928665 0.027325667 0.078714043
0.024195321 0.027232222 0.080489315
0.025703929 0.026023544 0.080489315
0.023928665 0.027417593 0.080489315
0.027400412 0.023681678 0.08226458
0.027479209 0.023541354 0.08226458
0.027976342 0.021906413 0.08226458
0.026269875 0.025456943 0.08226458
0.027479209 0.023681678 0.084033012
0.028006576 0.021906413 0.084039852
0.027479254 0.023681678 0.084039852
0.026374735 0.025456943 0.084039852
0.027479209 0.023681767 0.084039852
0.024296589 0.027232222 0.08226458
0.025703929 0.026115038 0.08226458
0.023928665 0.027484961 0.08226458
0.024196722 0.027232222 0.084039852
0.025703929 0.02613803 0.084039852
0.023928665 0.027402796 0.084039852
0.028173573 0.018355869 0.087590396
0.028263532 0.018355869 0.089365661
0.028203972 0.020131133 0.087590396
0.028278105 0.020131133 0.089365661
0.028079875 0.021906413 0.087590396
0.028005667 0.021906413 0.089365661
0.028382666 0.018355869 0.091140933
0.028396957 0.020131133 0.091140933
0.028014101 0.021906413 0.091140933
0.018602856 0.028526805 0.085815124
0.02037812 0.028233655 0.085815124
0.0221534 0.028005533 0.085815124
0.018602856 0.028519295 0.087590396
0.02037812 0.028244577 0.087590396
0.0221534 0.027991123 0.087590396
0.018602856 0.028524615 0.089365661
0.02037812 0.028263383 0.089365661
0.0221534 0.027946256 0.089365661
0.018602856 0.028545149 0.091140933
0.02037812 0.028294809 0.091140933
0.0221534 0.02796071 0.091140933
0.027441598 0.023681678 0.085815124
0.027479209 0.023610599 0.085815124
0.027479209 0.023681678 0.08451537
0.028035216 0.021906413 0.085815124
0.026299067 0.025456943 0.085815124
0.027363889 0.023681678 0.087590396
0.027479209 0.023479857 0.087590396
0.026181377 0.025456943 0.087590396
0.024051242 0.027232222 0.085815124
0.025703929 0.026057534 0.085815124
0.023928665 0.027312182 0.085815124
0.023927249 0.027232222 0.087590396
0.023928665 0.027231239 0.087590396
0.023928665 0.027232222 0.087582812
0.025703929 0.025938086 0.087590396
0.02720616 0.023681678 0.089365661
0.027479209 0.023197912 0.089365661
0.026007213 0.025456943 0.089365661
0.027137659 0.023681678 0.091140933
0.027479209 0.023089699 0.091140933
0.025906987 0.025456943 0.091140933
0.023713969 0.027232222 0.089365661
0.023928665 0.027092464 0.089365661
0.025703929 0.025783397 0.089365661
0.023605816 0.027232222 0.091140933
0.023928665 0.027003653 0.091140933
0.025703929 0.025664128 0.091140933
-0.0099136084 -0.027801149 0.09469147
-0.0098014623 -0.027824625 0.09469147
-0.0098014623 -0.027801149 0.094093606
-0.0102311 -0.027801149 0.096466742
-0.0098014623 -0.027900562 0.096466742
-0.010735281 -0.027801149 0.098242015
-0.0098014623 -0.028022438 0.098242015
-0.011224627 -0.027801149 0.10001729
-0.0098014623 -0.028129928 0.10001729
-0.011412174 -0.027801149 0.10179255
-0.0098014623 -0.028191283 0.10179255
-0.0080261976 -0.02833093 0.098242015
-0.0080261976 -0.02841296 0.10001729
-0.0062509254 -0.028474629 0.098242015
-0.0062509254 -0.02856452 0.10001729
-0.0080261976 -0.028446272 0.10179255
-0.0062509254 -0.028585114 0.10179255
-0.01141724 -0.027801149 0.10356782
-0.0098014623 -0.028203167 0.10356782
-0.011311837 -0.027801149 0.10534309
-0.0098014623 -0.028145283 0.10534309
-0.0080261976 -0.028481036 0.10356782
-0.0062509254 -0.028606646 0.10356782
-0.0080261976 -0.02840551 0.10534309
-0.0062509254 -0.02855102 0.10534309
-0.011135541 -0.027801149 0.10711837
-0.0098014623 -0.028109789 0.10711837
-0.010895118 -0.027801149 0.10889363
-0.0098014623 -0.028050326 0.10889363
-0.0080261976 -0.028384529 0.10711837
-0.0062509254 -0.028502658 0.10711837
-0.0080261976 -0.028326586 0.10889363
-0.0062509254 -0.028437167 0.10889363
-0.010687582 -0.027801149 0.1106689
-0.0098014623 -0.027980171 0.1106689
-0.010624707 -0.027801149 0.11244418
-0.0098014623 -0.027966298 0.11244418
-0.010617055 -0.027801149 0.11421944
-0.0098014623 -0.027969383 0.11421944
-0.010709032 -0.027801149 0.11599471
-0.0098014623 -0.027992554 0.11599471
-0.010879524 -0.027801149 0.11776999
-0.0098014623 -0.028034881 0.11776999
-0.011140145 -0.027801149 0.11954525
-0.0098014623 -0.028083436 0.11954525
-0.028519668 -0.0064979121 0.092916206
-0.028688617 -0.0047226399 0.092916206
-0.028781921 -0.0029473677 0.092916206
-0.028574862 -0.0064979121 0.09469147
-0.028763525 -0.0047226399 0.09469147
-0.028870933 -0.0029473677 0.09469147
-0.028823242 -0.001172103 0.092916206
-0.028798111 0.0006031692 0.092916206
-0.028919235 -0.001172103 0.09469147
-0.028891943 0.0006031692 0.09469147
-0.029141463 -0.0029473677 0.098242015
-0.029234968 -0.0029473677 0.10001729
-0.029189125 -0.001172103 0.098242015
-0.029283248 -0.001172103 0.10001729
-0.029151402 0.0006031692 0.098242015
-0.029243089 0.0006031692 0.10001729
-0.029240519 -0.0029473677 0.10179255
-0.02929984 -0.001172103 0.10179255
-0.029281676 0.0006031692 0.10179255
-0.028944023 -0.0064979121 0.10179255
-0.028970271 -0.0064979121 0.10356782
-0.029133342 -0.0047226399 0.10179255
-0.029134572 -0.0047226399 0.10356782
-0.029218748 -0.0029473677 0.10356782
-0.028961986 -0.0064979121 0.10534309
-0.029121011 -0.0047226399 0.10534309
-0.029186532 -0.0029473677 0.10534309
-0.029274121 -0.001172103 0.10356782
-0.029262163 0.0006031692 0.10356782
-0.029249363 -0.001172103 0.10534309
-0.029239826 0.0006031692 0.10534309
-0.028923795 -0.0064979121 0.10711837
-0.029090196 -0.0047226399 0.10711837
-0.029149719 -0.0029473677 0.10711837
-0.028856859 -0.0064979121 0.10889363
-0.029020466 -0.0047226399 0.10889363
-0.029091455 -0.0029473677 0.10889363
-0.02918078 -0.001172103 0.10711837
-0.029173203 0.0006031692 0.10711837
-0.029097266 -0.001172103 0.10889363
-0.029074475 0.0006031692 0.10889363
-0.028811567 -0.0064979121 0.1106689
-0.028971285 -0.0047226399 0.1106689
-0.029029168 -0.0029473677 0.1106689
-0.02875571 -0.0064979121 0.11244418
-0.028931916 -0.0047226399 0.11244418
-0.028983586 -0.0029473677 0.11244418
-0.029038019 -0.001172103 0.1106689
-0.029023305 0.0006031692 0.1106689
-0.028977454 -0.001172103 0.11244418
-0.028979547 0.0006031692 0.11244418
-0.027965724 -0.010048449 0.11244418
-0.028000064 -0.010048449 0.11421944
-0.027554162 -0.011319458 0.11244418
-0.027554162 -0.011401638 0.11421944
-0.028061412 -0.010048449 0.11599471
-0.027554162 -0.011572622 0.11599471
-0.028153703 -0.010048449 0.11776999
-0.027554162 -0.011790439 0.11776999
-0.02767238 -0.011823721 0.11954525
-0.027554162 -0.012116887 0.11954525
-0.027554162 -0.011823721 0.11797902
-0.028276712 -0.010048449 0.11954525
-0.028489269 -0.0082731843 0.11599471
-0.028586611 -0.0082731843 0.11776999
-0.028755434 -0.0064979121 0.11599471
-0.02883403 -0.0064979121 0.11776999
-0.028691925 -0.0082731843 0.11954525
-0.028935246 -0.0064979121 0.11954525
-0.01482866 -0.026025884 0.092916206
-0.013352007 -0.026702344 0.092916206
-0.016902544 -0.024786681 0.092916206
-0.015127271 -0.025877438 0.092916206
-0.014970303 -0.026025884 0.09469147
-0.013352007 -0.026756138 0.09469147
-0.016902544 -0.02489543 0.09469147
-0.015127271 -0.025947757 0.09469147
-0.017806865 -0.024250612 0.09469147
-0.017965063 -0.024250612 0.096466742
-0.016902544 -0.025006697 0.096466742
-0.018137991 -0.024250612 0.098242015
-0.016902544 -0.025130443 0.098242015
-0.015155748 -0.026025884 0.096466742
-0.015127271 -0.02603998 0.096466742
-0.015127271 -0.026025884 0.096239962
-0.013352007 -0.026845969 0.096466742
-0.015381321 -0.026025884 0.098242015
-0.015127271 -0.026150435 0.098242015
-0.013352007 -0.026961073 0.098242015
-0.019912839 -0.022475339 0.09469147
-0.020038381 -0.022475339 0.096466742
-0.018677816 -0.023576804 0.09469147
-0.018677816 -0.023688309 0.096466742
-0.020453081 -0.021913268 0.09469147
-0.020453081 -0.022048935 0.096466742
-0.020199038 -0.022475339 0.098242015
-0.018677816 -0.023838043 0.098242015
-0.020453081 -0.022207715 0.098242015
-0.018300958 -0.024250612 0.10001729
-0.016902544 -0.025246263 0.10001729
-0.018400222 -0.024250612 0.10179255
-0.016902544 -0.025317304 0.10179255
-0.015581965 -0.026025884 0.10001729
-0.015127271 -0.026257686 0.10001729
-0.013352007 -0.027056992 0.10001729
-0.015709825 -0.026025884 0.10179255
-0.015127271 -0.026328951 0.10179255
-0.013352007 -0.027129747 0.10179255
-0.02032686 -0.022475339 0.10001729
-0.018677816 -0.023961194 0.10001729
-0.020453081 -0.022342101 0.10001729
-0.0204027 -0.022475339 0.10179255
-0.018677816 -0.024035364 0.10179255
-0.020453081 -0.022422403 0.10179255
-0.018451467 -0.024250612 0.10356782
-0.016902544 -0.025342539 0.10356782
-0.018448524 -0.024250612 0.10534309
-0.016902544 -0.025338173 0.10534309
-0.015739299 -0.026025884 0.10356782
-0.015127271 -0.026338823 0.10356782
-0.013352007 -0.027132958 0.10356782
-0.015723966 -0.026025884 0.10534309
-0.015127271 -0.026326083 0.10534309
-0.013352007 -0.027115233 0.10534309
-0.020434968 -0.022475339 0.10356782
-0.018677816 -0.024075665 0.10356782
-0.020453081 -0.022456139 0.10356782
-0.020437837 -0.022475339 0.10534309
-0.018677816 -0.024075985 0.10534309
-0.020453081 -0.02245903 0.10534309
-0.011576734 -0.027321756 0.092916206
-0.0098014623 -0.027759887 0.092916206
-0.011576734 -0.027372591 0.09469147
-0.011576734 -0.027444907 0.096466742
-0.011576734 -0.027573891 0.098242015
-0.011576734 -0.027693473 0.10001729
-0.011576734 -0.02775085 0.10179255
-0.011576734 -0.027753673 0.10356782
-0.011576734 -0.027726017 0.10534309
-0.018394262 -0.024250612 0.10711837
-0.016902544 -0.025299452 0.10711837
-0.018282242 -0.024250612 0.10889363
-0.016902544 -0.025209457 0.10889363
-0.015649974 -0.026025884 0.10711837
-0.015127271 -0.026288413 0.10711837
-0.013352007 -0.027079202 0.10711837
-0.015506804 -0.026025884 0.10889363
-0.015127271 -0.026218995 0.10889363
-0.013352007 -0.027015053 0.10889363
-0.020410188 -0.022475339 0.10711837
-0.018677816 -0.024033189 0.10711837
-0.020453081 -0.022430174 0.10711837
-0.020346045 -0.022475339 0.10889363
-0.018677816 -0.023945078 0.10889363
-0.020453081 -0.022368118 0.10889363
-0.018248029 -0.024250612 0.1106689
-0.016902544 -0.025180981 0.1106689
-0.018216677 -0.024250612 0.11244418
-0.016902544 -0.025154643 0.11244418
-0.015432641 -0.026025884 0.1106689
-0.015127271 -0.026177414 0.1106689
-0.013352007 -0.026969872 0.1106689
-0.015399158 -0.026025884 0.11244418
-0.015127271 -0.026161365 0.11244418
-0.013352007 -0.026952527 0.11244418
-0.020319827 -0.022475339 0.1106689
-0.018677816 -0.023922563 0.1106689
-0.020453081 -0.022339851 0.1106689
-0.020306647 -0.022475339 0.11244418
-0.018677816 -0.023902714 0.11244418
-0.020453081 -0.022327468 0.11244418
-0.018199958 -0.024250612 0.11421944
-0.016902544 -0.025158785 0.11421944
-0.018255055 -0.024250612 0.11599471
-0.016902544 -0.025186546 0.11599471
-0.015421242 -0.026025884 0.11421944
-0.015127271 -0.026171975 0.11421944
-0.013352007 -0.026971668 0.11421944
-0.015461378 -0.026025884 0.11599471
-0.015127271 -0.026193395 0.11599471
-0.013352007 -0.026980676 0.11599471
-0.020301476 -0.022475339 0.11421944
-0.018677816 -0.023884654 0.11421944
-0.020453081 -0.022326507 0.11421944
-0.02033034 -0.022475339 0.11599471
-0.018677816 -0.023924984 0.11599471
-0.020453081 -0.022353992 0.11599471
-0.01831796 -0.024250612 0.11776999
-0.016902544 -0.025229864 0.11776999
-0.018401667 -0.024250612 0.11954525
-0.016902544 -0.025281452 0.11954525
-0.015520774 -0.026025884 0.11776999
-0.015127271 -0.026224159 0.11776999
-0.013352007 -0.027003258 0.11776999
-0.015655465 -0.026025884 0.11954525
-0.015127271 -0.026300825 0.11954525
-0.013352007 -0.027098037 0.11954525
-0.020371743 -0.022475339 0.11776999
-0.018677816 -0.023964666 0.11776999
-0.020453081 -0.022397079 0.11776999
-0.020453081 -0.02249407 0.11954525
-0.018677816 -0.024043553 0.11954525
-0.020453081 -0.022475339 0.11929947
-0.024649687 -0.01714953 0.11244418
-0.024694674 -0.01714953 0.11421944
-0.024003625 -0.018130861 0.11244418
-0.024003625 -0.01817058 0.11421944
-0.024747469 -0.01714953 0.11599471
-0.024003625 -0.01824148 0.11599471
-0.023448482 -0.018924803 0.11244418
-0.023452796 -0.018924803 0.11421944
-0.022228353 -0.020453386 0.11244418
-0.022228353 -0.020471066 0.11421944
-0.02200301 -0.020700067 0.11244418
-0.022022583 -0.020700067 0.11421944
-0.023504741 -0.018924803 0.11599471
-0.022228353 -0.020510383 0.11599471
-0.022055067 -0.020700067 0.11599471
-0.025711544 -0.015374258 0.11244418
-0.025741957 -0.015374258 0.11421944
-0.026608311 -0.013598993 0.11244418
-0.02662652 -0.013598993 0.11421944
-0.025778897 -0.015248947 0.11244418
-0.025778897 -0.015305281 0.11421944
-0.025802962 -0.015374258 0.11599471
-0.025778897 -0.015418626 0.11599471
-0.025778897 -0.015374258 0.11532633
-0.026703909 -0.013598993 0.11599471
-0.024824783 -0.01714953 0.11776999
-0.024003625 -0.018347204 0.11776999
-0.024924777 -0.01714953 0.11954525
-0.024003625 -0.018486157 0.11954525
-0.023570091 -0.018924803 0.11776999
-0.022228353 -0.020570815 0.11776999
-0.022110432 -0.020700067 0.11776999
-0.023670979 -0.018924803 0.11954525
-0.022228353 -0.020671062 0.11954525
-0.022201605 -0.020700067 0.11954525
-0.02587419 -0.015374258 0.11776999
-0.025778897 -0.015546873 0.11776999
-0.026778281 -0.013598993 0.11776999
-0.025987588 -0.015374258 0.11954525
-0.025778897 -0.015736014 0.11954525
-0.026910283 -0.013598993 0.11954525
-0.011576734 -0.027680255 0.10711837
-0.011576734 -0.027615607 0.10889363
-0.011576734 -0.027569771 0.1106689
-0.011576734 -0.027554415 0.11244418
-0.011576734 -0.02756121 0.11421944
-0.011576734 -0.027574159 0.11599471
-0.011576734 -0.027606882 0.11776999
-0.011576734 -0.027687006 0.11954525
-0.027368128 -0.011823721 0.11244418
-0.027389333 -0.011823721 0.11421944
-0.02745989 -0.011823721 0.11599471
-0.02754119 -0.011823721 0.11776999
-0.012327537 -0.027801149 0.12664634
-0.012491986 -0.027801149 0.1284216
-0.011576734 -0.028033882 0.12664634
-0.011576734 -0.028103724 0.1284216
-0.0098014623 -0.028470203 0.12664634
-0.0098014623 -0.02855894 0.1284216
-0.012659334 -0.027801149 0.13019687
-0.011576734 -0.028159872 0.13019687
-0.0098014623 -0.028631754 0.13019687
-0.0080261976 -0.028719798 0.12664634
-0.0080261976 -0.028821819 0.1284216
-0.0062509254 -0.028879508 0.12664634
-0.0062509254 -0.029009409 0.1284216
-0.0080261976 -0.028896727 0.13019687
-0.0062509254 -0.029083326 0.13019687
-0.012793146 -0.027801149 0.13197215
-0.011576734 -0.028211743 0.13197215
-0.0098014623 -0.02869352 0.13197215
-0.012858808 -0.027801149 0.13374741
-0.011576734 -0.028241336 0.13374741
-0.0098014623 -0.028727196 0.13374741
-0.0080261976 -0.028964527 0.13197215
-0.0062509254 -0.029156409 0.13197215
-0.0080261976 -0.029004164 0.13374741
-0.0062509254 -0.029179841 0.13374741
-0.0044756532 -0.028915547 0.12664634
-0.0044756532 -0.02905786 0.1284216
-0.002700381 -0.028866775 0.12664634
-0.002700381 -0.029006205 0.1284216
-0.0044756532 -0.029132046 0.13019687
-0.002700381 -0.029078275 0.13019687
-0.00092511624 -0.028845295 0.12664634
-0.00092511624 -0.02898144 0.1284216
0.00085015595 -0.028817303 0.12664634
0.00085015595 -0.028948151 0.1284216
-0.00092511624 -0.029072724 0.13019687
0.00085015595 -0.029033147 0.13019687
-0.0044756532 -0.029204018 0.13197215
-0.002700381 -0.029147208 0.13197215
-0.0044756532 -0.029227473 0.13374741
-0.002700381 -0.02920416 0.13374741
-0.00092511624 -0.029151671 0.13197215
0.00085015595 -0.029119439 0.13197215
-0.00092511624 -0.029204436 0.13374741
0.00085015595 -0.029173791 0.13374741
-0.012821987 -0.027801149 0.13552268
-0.011576734 -0.028233446 0.13552268
-0.0098014623 -0.028731272 0.13552268
-0.012779653 -0.027801149 0.13729796
-0.011576734 -0.028215922 0.13729796
-0.0098014623 -0.028710037 0.13729796
-0.0080261976 -0.029006347 0.13552268
-0.0062509254 -0.029177904 0.13552268
-0.0080261976 -0.028978087 0.13729796
-0.0062509254 -0.029145986 0.13729796
-0.012661345 -0.027801149 0.13907322
-0.011576734 -0.028162219 0.13907322
-0.0098014623 -0.028657399 0.13907322
-0.012420192 -0.027801149 0.14084849
-0.011576734 -0.028080784 0.14084849
-0.0098014623 -0.028575011 0.14084849
-0.0080261976 -0.028921276 0.13907322
-0.0062509254 -0.029084735 0.13907322
-0.0080261976 -0.028863072 0.14084849
-0.0062509254 -0.02901306 0.14084849
-0.0044756532 -0.029238701 0.13552268
-0.002700381 -0.029212721 0.13552268
-0.0044756532 -0.029210903 0.13729796
-0.002700381 -0.02918461 0.13729796
-0.00092511624 -0.02920644 0.13552268
0.00085015595 -0.029178873 0.13552268
-0.00092511624 -0.029185198 0.13729796
0.00085015595 -0.029159397 0.13729796
-0.0044756532 -0.02914311 0.13907322
-0.002700381 -0.029130124 0.13907322
-0.0044756532 -0.029081829 0.14084849
-0.002700381 -0.029082932 0.14084849
-0.00092511624 -0.029148497 0.13907322
0.00085015595 -0.029132985 0.13907322
-0.00092511624 -0.029079303 0.14084849
0.00085015595 -0.029066205 0.14084849
-0.012179971 -0.027801149 0.14262377
-0.011576734 -0.027994566 0.14262377
-0.0098014623 -0.028459661 0.14262377
-0.011944614 -0.027801149 0.14439903
-0.011576734 -0.027916037 0.14439903
-0.0098014623 -0.028365299 0.14439903
-0.0080261976 -0.028727688 0.14262377
-0.0062509254 -0.0288646 0.14262377
-0.0080261976 -0.028644763 0.14439903
-0.0062509254 -0.028794236 0.14439903
-0.011719257 -0.027801149 0.1461743
-0.011576734 -0.027842209 0.1461743
-0.0098014623 -0.02828794 0.1461743
-0.011610046 -0.027801149 0.14794958
-0.011576734 -0.027809903 0.14794958
-0.0098014623 -0.028237 0.14794958
-0.0080261976 -0.028597891 0.1461743
-0.0062509254 -0.028741054 0.1461743
-0.0080261976 -0.028531723 0.14794958
-0.0062509254 -0.028674521 0.14794958
-0.027801991 -0.011823721 0.12132052
-0.027554162 -0.012438506 0.12132052
-0.028405555 -0.010048449 0.12132052
-0.027919978 -0.011823721 0.1230958
-0.027554162 -0.01271864 0.1230958
-0.028520048 -0.010048449 0.1230958
-0.028806888 -0.0082731843 0.12132052
-0.029037878 -0.0064979121 0.12132052
-0.028897315 -0.0082731843 0.1230958
-0.029158443 -0.0064979121 0.1230958
-0.028022461 -0.011823721 0.12487106
-0.027554162 -0.012943156 0.12487106
-0.028615437 -0.010048449 0.12487106
-0.028100915 -0.011823721 0.12664634
-0.027554162 -0.013112947 0.12664634
-0.028693028 -0.010048449 0.12664634
-0.028986551 -0.0082731843 0.12487106
-0.02927278 -0.0064979121 0.12487106
-0.029071614 -0.0082731843 0.12664634
-0.029352449 -0.0064979121 0.12664634
-0.029329434 -0.006647341 0.12664634
-0.029329434 -0.0064979121 0.12600817
-0.029413357 -0.0047226399 0.12487106
-0.029329434 -0.006078802 0.12487106
-0.029329434 -0.0047226399 0.12337022
-0.029314533 -0.0047226399 0.1230958
-0.02939339 -0.0029473677 0.1230958
-0.029474638 -0.0029473677 0.12487106
-0.029329434 -0.0042427182 0.1230958
-0.029493071 -0.0047226399 0.12664634
-0.029546402 -0.0029473677 0.12664634
-0.029428288 -0.001172103 0.1230958
-0.029526845 -0.001172103 0.12487106
-0.029426292 0.0006031692 0.1230958
-0.029523291 0.0006031692 0.12487106
-0.029604763 -0.001172103 0.12664634
-0.029617324 0.0006031692 0.12664634
-0.028165452 -0.011823721 0.1284216
-0.027554162 -0.013260685 0.1284216
-0.028754152 -0.010048449 0.1284216
-0.028211638 -0.011823721 0.13019687
-0.027554162 -0.013371103 0.13019687
-0.028793298 -0.010048449 0.13019687
-0.029126614 -0.0082731843 0.1284216
-0.029389903 -0.0064979121 0.1284216
-0.029329434 -0.0069136396 0.1284216
-0.029170886 -0.0082731843 0.13019687
-0.029429235 -0.0064979121 0.13019687
-0.029329434 -0.0072125569 0.13019687
-0.028255895 -0.011823721 0.13197215
-0.027554162 -0.01343964 0.13197215
-0.028818309 -0.010048449 0.13197215
-0.028273217 -0.011823721 0.13374741
-0.027554162 -0.013461173 0.13374741
-0.028829359 -0.010048449 0.13374741
-0.029193878 -0.0082731843 0.13197215
-0.029461354 -0.0064979121 0.13197215
-0.029329434 -0.0074041411 0.13197215
-0.029214494 -0.0082731843 0.13374741
-0.029489473 -0.0064979121 0.13374741
-0.029329434 -0.00758636 0.13374741
-0.029541358 -0.0047226399 0.1284216
-0.02963303 -0.0029473677 0.1284216
-0.029589936 -0.0047226399 0.13019687
-0.02968131 -0.0029473677 0.13019687
-0.029695004 -0.001172103 0.1284216
-0.029701605 0.0006031692 0.1284216
-0.029740311 -0.001172103 0.13019687
-0.029733799 0.0006031692 0.13019687
-0.029607192 -0.0047226399 0.13197215
-0.029695131 -0.0029473677 0.13197215
-0.029625624 -0.0047226399 0.13374741
-0.029682398 -0.0029473677 0.13374741
-0.029740304 -0.001172103 0.13197215
-0.02972734 0.0006031692 0.13197215
-0.02970764 -0.001172103 0.13374741
-0.029694267 0.0006031692 0.13374741
-0.028275475 -0.011823721 0.13552268
-0.027554162 -0.013490967 0.13552268
-0.028832033 -0.010048449 0.13552268
-0.028266005 -0.011823721 0.13729796
-0.027554162 -0.013474427 0.13729796
-0.028816022 -0.010048449 0.13729796
-0.029212922 -0.0082731843 0.13552268
-0.029486209 -0.0064979121 0.13552268
-0.029329434 -0.0075646415 0.13552268
-0.029207267 -0.0082731843 0.13729796
-0.029467449 -0.0064979121 0.13729796
-0.029329434 -0.0075432733 0.13729796
-0.028249435 -0.011823721 0.13907322
-0.027554162 -0.013459027 0.13907322
-0.028803907 -0.010048449 0.13907322
-0.028233334 -0.011823721 0.14084849
-0.027554162 -0.01344797 0.14084849
-0.028786205 -0.010048449 0.14084849
-0.029209025 -0.0082731843 0.13907322
-0.029464446 -0.0064979121 0.13907322
-0.029329434 -0.0075673461 0.13907322
-0.029181324 -0.0082731843 0.14084849
-0.029437706 -0.0064979121 0.14084849
-0.029329434 -0.0073670745 0.14084849
-0.029612698 -0.0047226399 0.13552268
-0.029652767 -0.0029473677 0.13552268
-0.029588073 -0.0047226399 0.13729796
-0.029633954 -0.0029473677 0.13729796
-0.029669322 -0.001172103 0.13552268
-0.02964928 0.0006031692 0.13552268
-0.029628403 -0.001172103 0.13729796
-0.029606424 0.0006031692 0.13729796
-0.029570721 -0.0047226399 0.13907322
-0.029598609 -0.0029473677 0.13907322
-0.029531665 -0.0047226399 0.14084849
-0.029565386 -0.0029473677 0.14084849
-0.029571235 -0.001172103 0.13907322
-0.029531822 0.0006031692 0.13907322
-0.029543206 -0.001172103 0.14084849
-0.029485486 0.0006031692 0.14084849
-0.02821108 -0.011823721 0.14262377
-0.027554162 -0.013398968 0.14262377
-0.028761677 -0.010048449 0.14262377
-0.028198995 -0.011823721 0.14439903
-0.027554162 -0.013359495 0.14439903
-0.028728992 -0.010048449 0.14439903
-0.029148243 -0.0082731843 0.14262377
-0.02940809 -0.0064979121 0.14262377
-0.029329434 -0.0071488768 0.14262377
-0.029114604 -0.0082731843 0.14439903
-0.029365204 -0.0064979121 0.14439903
-0.029329434 -0.0068629384 0.14439903
-0.028181769 -0.011823721 0.1461743
-0.027554162 -0.013341263 0.1461743
-0.028719574 -0.010048449 0.1461743
-0.028169408 -0.011823721 0.14794958
-0.027554162 -0.013362981 0.14794958
-0.028710492 -0.010048449 0.14794958
-0.029100932 -0.0082731843 0.1461743
-0.029337719 -0.0064979121 0.1461743
-0.029329434 -0.0065892637 0.1461743
-0.02909705 -0.0082731843 0.14794958
-0.029329434 -0.0064979121 0.14764167
-0.029326707 -0.0064979121 0.14794958
-0.029500693 -0.0047226399 0.14262377
-0.029527187 -0.0029473677 0.14262377
-0.029473349 -0.0047226399 0.14439903
-0.02951888 -0.0029473677 0.14439903
-0.029494859 -0.001172103 0.14262377
-0.029432997 0.0006031692 0.14262377
-0.029474966 -0.001172103 0.14439903
-0.029394761 0.0006031692 0.14439903
-0.029434644 -0.0047226399 0.1461743
-0.029476471 -0.0029473677 0.1461743
-0.029435039 -0.0047226399 0.14794958
-0.029329434 -0.0064691529 0.14794958
-0.0294737 -0.0029473677 0.14794958
-0.025046661 -0.01714953 0.12132052
-0.024003625 -0.018634185 0.12132052
-0.025147177 -0.01714953 0.1230958
-0.024003625 -0.018768243 0.1230958
-0.022312127 -0.020700067 0.12132052
-0.023782723 -0.018924803 0.12132052
-0.022228353 -0.020700067 0.11998023
-0.022421844 -0.020700067 0.1230958
-0.023885161 -0.018924803 0.1230958
-0.026119284 -0.015374258 0.12132052
-0.025778897 -0.015962183 0.12132052
-0.027042381 -0.013598993 0.12132052
-0.026232466 -0.015374258 0.1230958
-0.025778897 -0.016146563 0.1230958
-0.027159393 -0.013598993 0.1230958
-0.025241442 -0.01714953 0.12487106
-0.024003625 -0.018893771 0.12487106
-0.024058394 -0.018924803 0.12664634
-0.024003625 -0.018996835 0.12664634
-0.024003625 -0.018924803 0.12533002
-0.025308996 -0.01714953 0.12664634
-0.022523768 -0.020700067 0.12487106
-0.023980029 -0.018924803 0.12487106
-0.022608787 -0.020700067 0.12664634
-0.026328728 -0.015374258 0.12487106
-0.025778897 -0.016297683 0.12487106
-0.027259514 -0.013598993 0.12487106
-0.026383564 -0.015374258 0.12664634
-0.025778897 -0.016391128 0.12664634
-0.027330205 -0.013598993 0.12664634
-0.016359933 -0.026025884 0.13019687
-0.016444355 -0.026025884 0.13197215
-0.015127271 -0.02671627 0.13019687
-0.015127271 -0.026738569 0.13197215
-0.013352007 -0.027537368 0.13019687
-0.013352007 -0.027576782 0.13197215
-0.016902544 -0.025683038 0.13019687
-0.016902544 -0.025735207 0.13197215
-0.016484968 -0.026025884 0.13374741
-0.015127271 -0.026772812 0.13374741
-0.013352007 -0.027601808 0.13374741
-0.016902544 -0.025753401 0.13374741
-0.024110287 -0.018924803 0.1284216
-0.024003625 -0.019066378 0.1284216
-0.02536048 -0.01714953 0.1284216
-0.024161272 -0.018924803 0.13019687
-0.024003625 -0.019140132 0.13019687
-0.025411122 -0.01714953 0.13019687
-0.022671908 -0.020700067 0.1284216
-0.022728227 -0.020700067 0.13019687
-0.026429929 -0.015374258 0.1284216
-0.025778897 -0.016479023 0.1284216
-0.027392246 -0.013598993 0.1284216
-0.026488803 -0.015374258 0.13019687
-0.025778897 -0.016572833 0.13019687
-0.027444728 -0.013598993 0.13019687
-0.024187334 -0.018924803 0.13197215
-0.024003625 -0.019185066 0.13197215
-0.02542334 -0.01714953 0.13197215
-0.024172418 -0.018924803 0.13374741
-0.024003625 -0.019170851 0.13374741
-0.025420889 -0.01714953 0.13374741
-0.026506737 -0.015374258 0.13197215
-0.025778897 -0.016599901 0.13197215
-0.027473241 -0.013598993 0.13197215
-0.026512064 -0.015374258 0.13374741
-0.025778897 -0.016613118 0.13374741
-0.027482942 -0.013598993 0.13374741
-0.013352007 -0.027434334 0.12664634
-0.013352007 -0.027484916 0.1284216
-0.016469449 -0.026025884 0.13552268
-0.015127271 -0.026765779 0.13552268
-0.013352007 -0.027589492 0.13552268
-0.016902544 -0.025744863 0.13552268
-0.016451895 -0.026025884 0.13729796
-0.015127271 -0.026747391 0.13729796
-0.013352007 -0.027569145 0.13729796
-0.016902544 -0.025731876 0.13729796
-0.016384244 -0.026025884 0.13907322
-0.015127271 -0.02670604 0.13907322
-0.013352007 -0.027527012 0.13907322
-0.016902544 -0.025691807 0.13907322
-0.016288772 -0.026025884 0.14084849
-0.015127271 -0.026642881 0.14084849
-0.013352007 -0.027449094 0.14084849
-0.016902544 -0.02564171 0.14084849
-0.026534259 -0.015374258 0.13552268
-0.025778897 -0.016629368 0.13552268
-0.025419489 -0.01714953 0.13552268
-0.027499773 -0.013598993 0.13552268
-0.026527137 -0.015374258 0.13729796
-0.025778897 -0.016626984 0.13729796
-0.02542723 -0.01714953 0.13729796
-0.027490802 -0.013598993 0.13729796
-0.024163537 -0.018924803 0.13729796
-0.024166159 -0.018924803 0.13907322
-0.024003625 -0.019152209 0.13729796
-0.024003625 -0.019146591 0.13907322
-0.025438882 -0.01714953 0.13907322
-0.024138801 -0.018924803 0.14084849
-0.024003625 -0.019100517 0.14084849
-0.025429524 -0.01714953 0.14084849
-0.026536003 -0.015374258 0.13907322
-0.025778897 -0.016639568 0.13907322
-0.027484171 -0.013598993 0.13907322
-0.02654893 -0.015374258 0.14084849
-0.025778897 -0.016631819 0.14084849
-0.027481861 -0.013598993 0.14084849
-0.016184703 -0.026025884 0.14262377
-0.015127271 -0.026579559 0.14262377
-0.013352007 -0.027375832 0.14262377
-0.016902544 -0.025587268 0.14262377
-0.016115472 -0.026025884 0.14439903
-0.015127271 -0.026541777 0.14439903
-0.013352007 -0.02731625 0.14439903
-0.016902544 -0.025547341 0.14439903
-0.016088143 -0.026025884 0.1461743
-0.015127271 -0.026509762 0.1461743
-0.013352007 -0.027266406 0.1461743
-0.016902544 -0.02553805 0.1461743
-0.016105972 -0.026025884 0.14794958
-0.015127271 -0.026504949 0.14794958
-0.013352007 -0.027252734 0.14794958
-0.016902544 -0.025553115 0.14794958
-0.024115659 -0.018924803 0.14262377
-0.024003625 -0.019064061 0.14262377
-0.025416605 -0.01714953 0.14262377
-0.024099126 -0.018924803 0.14439903
-0.024003625 -0.019045889 0.14439903
-0.025397658 -0.01714953 0.14439903
-0.02264902 -0.020700067 0.14084849
-0.022607774 -0.020700067 0.14262377
-0.022592813 -0.020700067 0.14439903
-0.026520163 -0.015374258 0.14262377
-0.025778897 -0.016593307 0.14262377
-0.027460665 -0.013598993 0.14262377
-0.026497371 -0.015374258 0.14439903
-0.025778897 -0.016572922 0.14439903
-0.027438946 -0.013598993 0.14439903
-0.024106123 -0.018924803 0.1461743
-0.024003625 -0.019052446 0.1461743
-0.025406078 -0.01714953 0.1461743
-0.024117187 -0.018924803 0.14794958
-0.024003625 -0.019063592 0.14794958
-0.025429294 -0.01714953 0.14794958
-0.02258902 -0.020700067 0.1461743
-0.022591799 -0.020700067 0.14794958
-0.026501305 -0.015374258 0.1461743
-0.025778897 -0.016582899 0.1461743
-0.027431175 -0.013598993 0.1461743
-0.026509926 -0.015374258 0.14794958
-0.025778897 -0.016607724 0.14794958
-0.027442478 -0.013598993 0.14794958
-0.013598472 -0.027801149 0.15860119
-0.013958156 -0.027801149 0.16037646
-0.013352007 -0.027896717 0.15860119
-0.013352007 -0.028042659 0.16037646
-0.014221258 -0.027801149 0.16215174
-0.013352007 -0.028169774 0.16215174
-0.011697009 -0.027801149 0.14972484
-0.011576734 -0.027833648 0.14972484
-0.0098014623 -0.028253652 0.14972484
-0.011957251 -0.027801149 0.15150011
-0.011576734 -0.02790083 0.15150011
-0.0098014623 -0.028301053 0.15150011
-0.012713738 -0.027801149 0.15505065
-0.013190024 -0.027801149 0.15682593
-0.011576734 -0.028134368 0.15505065
-0.011576734 -0.028308481 0.15682593
-0.0098014623 -0.02856829 0.15505065
-0.0098014623 -0.028745167 0.15682593
-0.011576734 -0.028475195 0.15860119
-0.013352007 -0.027801149 0.15744014
-0.0098014623 -0.028903924 0.15860119
-0.0080261976 -0.02882915 0.15505065
-0.0080261976 -0.028996818 0.15682593
-0.0062509254 -0.028946623 0.15505065
-0.0062509254 -0.029121973 0.15682593
-0.0080261976 -0.029150225 0.15860119
-0.0062509254 -0.029270865 0.15860119
-0.011576734 -0.028604217 0.16037646
-0.0098014623 -0.029032148 0.16037646
-0.011576734 -0.028716676 0.16215174
-0.0098014623 -0.029120043 0.16215174
-0.0080261976 -0.029267132 0.16037646
-0.0062509254 -0.029391654 0.16037646
-0.0080261976 -0.029377371 0.16215174
-0.0062509254 -0.029491991 0.16215174
-0.0044756532 -0.029015303 0.15505065
-0.0044756532 -0.029212862 0.15682593
-0.002700381 -0.029068135 0.15505065
-0.002700381 -0.02922722 0.15682593
-0.0044756532 -0.029345311 0.15860119
-0.002700381 -0.029360473 0.15860119
-0.00092511624 -0.029123805 0.15505065
-0.00092511624 -0.029269055 0.15682593
0.00085015595 -0.029137731 0.15505065
0.00085015595 -0.029280707 0.15682593
-0.00092511624 -0.029386617 0.15860119
0.00085015595 -0.029419802 0.15860119
-0.0044756532 -0.029465944 0.16037646
-0.002700381 -0.029494785 0.16037646
-0.0048546419 -0.029576421 0.16215174
-0.0044756532 -0.029590659 0.16215174
-0.0044756532 -0.029576421 0.16170847
-0.002700381 -0.029640377 0.16215174
-0.002700381 -0.029576421 0.16128321
-0.00092511624 -0.029540047 0.16037646
0.00085015595 -0.029567882 0.16037646
-0.00092511624 -0.029669419 0.16215174
-0.00092511624 -0.029576421 0.16075563
0.00085015595 -0.029698312 0.16215174
0.00085015595 -0.029576421 0.16047002
-0.014390938 -0.027801149 0.163927
-0.013352007 -0.028242491 0.163927
-0.014522672 -0.027801149 0.16570227
-0.013352007 -0.028290682 0.16570227
-0.014685147 -0.027801149 0.16747755
-0.013352007 -0.028360993 0.16747755
-0.014816217 -0.027801149 0.16925281
-0.013352007 -0.028405964 0.16925281
-0.014643386 -0.027801149 0.17280336
-0.01416523 -0.027801149 0.17457862
-0.013352007 -0.028365582 0.17280336
-0.013352007 -0.028174721 0.17457862
-0.013352007 -0.027801149 0.1759942
-0.011576734 -0.028805591 0.163927
-0.0098014623 -0.029215284 0.163927
-0.011576734 -0.028864175 0.16570227
-0.0098014623 -0.029295936 0.16570227
-0.0064912215 -0.029576421 0.163927
-0.0062509254 -0.029592343 0.163927
-0.0062509254 -0.029576421 0.16373718
-0.0080261976 -0.029474273 0.163927
-0.0076882765 -0.029576421 0.16570227
-0.0062509254 -0.029690094 0.16570227
-0.0080261976 -0.029549919 0.16570227
-0.008597061 -0.029576421 0.16747755
-0.0080261976 -0.02963803 0.16747755
-0.0080261976 -0.029576421 0.16618742
-0.0062509254 -0.029765353 0.16747755
-0.0098014623 -0.029382564 0.16747755
-0.0088957995 -0.029576421 0.16925281
-0.0080261976 -0.029679708 0.16925281
-0.0062509254 -0.029792763 0.16925281
-0.0098014623 -0.029422067 0.16925281
-0.0044756532 -0.029692389 0.163927
-0.002700381 -0.029751919 0.163927
-0.0044756532 -0.029818133 0.16570227
-0.002700381 -0.029880136 0.16570227
-0.00092511624 -0.029788464 0.163927
0.00085015595 -0.029815979 0.163927
-0.00092511624 -0.029915832 0.16570227
0.00085015595 -0.029938243 0.16570227
-0.0044756532 -0.02988115 0.16747755
-0.002700381 -0.029962093 0.16747755
-0.0044756532 -0.029886998 0.16925281
-0.002700381 -0.029955775 0.16925281
-0.00092511624 -0.029990546 0.16747755
0.00085015595 -0.030005224 0.16747755
-0.00092511624 -0.030006982 0.16925281
0.00085015595 -0.030022971 0.16925281
-0.011576734 -0.028928429 0.17280336
-0.011576734 -0.028723292 0.17457862
-0.0098014623 -0.029308856 0.17280336
-0.0098014623 -0.029097617 0.17457862
-0.012988798 -0.027801149 0.17635389
-0.011576734 -0.028330036 0.17635389
-0.0098014623 -0.028761141 0.17635389
-0.0083810836 -0.029576421 0.17280336
-0.0080261976 -0.029631756 0.17280336
-0.0080261976 -0.029576421 0.17366491
-0.0069431886 -0.029576421 0.17457862
-0.0062509254 -0.029801786 0.17280336
-0.0062509254 -0.029608443 0.17457862
-0.0080261976 -0.029452905 0.17457862
-0.0062509254 -0.029576421 0.17479834
-0.0080261976 -0.02912733 0.17635389
-0.0062509254 -0.02932936 0.17635389
-0.0062509254 -0.029802367 0.17102808
-0.0044756532 -0.029862165 0.17102808
-0.002700381 -0.029957242 0.17102808
-0.0044756532 -0.02980867 0.17280336
-0.002700381 -0.029884823 0.17280336
-0.00092511624 -0.030024409 0.17102808
0.00085015595 -0.030035309 0.17102808
-0.00092511624 -0.02995301 0.17280336
0.00085015595 -0.029972412 0.17280336
-0.027566142 -0.013598993 0.15327539
-0.027554162 -0.013623916 0.15327539
-0.027554162 -0.013598993 0.15283793
-0.027646728 -0.013598993 0.15505065
-0.027554162 -0.013798572 0.15505065
-0.027783096 -0.013598993 0.15682593
-0.027554162 -0.01408992 0.15682593
-0.027915373 -0.013598993 0.15860119
-0.027554162 -0.014358617 0.15860119
-0.028042577 -0.013598993 0.16037646
-0.027554162 -0.014605746 0.16037646
-0.028154917 -0.013598993 0.16215174
-0.027554162 -0.014834262 0.16215174
-0.028185375 -0.011823721 0.14972484
-0.027554162 -0.013392404 0.14972484
-0.02869983 -0.010048449 0.14972484
-0.028227299 -0.011823721 0.15150011
-0.027554162 -0.013495527 0.15150011
-0.028746448 -0.010048449 0.15150011
-0.02910576 -0.0082731843 0.14972484
-0.029327936 -0.0064979121 0.14972484
-0.029155277 -0.0082731843 0.15150011
-0.029378377 -0.0064979121 0.15150011
-0.029329434 -0.0070697442 0.15150011
-0.029329434 -0.0064979121 0.14982691
-0.028281689 -0.011823721 0.15327539
-0.028808787 -0.010048449 0.15327539
-0.028362155 -0.011823721 0.15505065
-0.028904445 -0.010048449 0.15505065
-0.029214881 -0.0082731843 0.15327539
-0.029461317 -0.0064979121 0.15327539
-0.029329434 -0.0075904652 0.15327539
-0.029310942 -0.0082731843 0.15505065
-0.02956257 -0.0064979121 0.15505065
-0.029329434 -0.0081770048 0.15505065
-0.029430822 -0.0047226399 0.14972484
-0.029329434 -0.0064727962 0.14972484
-0.029498719 -0.0029473677 0.14972484
-0.029466093 -0.0047226399 0.15150011
-0.029516727 -0.0029473677 0.15150011
-0.029566877 -0.0047226399 0.15327539
-0.029626504 -0.0029473677 0.15327539
-0.029665925 -0.0047226399 0.15505065
-0.029737704 -0.0029473677 0.15505065
-0.029531531 -0.001172103 0.15150011
-0.029629834 -0.001172103 0.15327539
-0.029497661 0.0006031692 0.15150011
-0.02958972 0.0006031692 0.15327539
-0.029752448 -0.001172103 0.15505065
-0.029713206 0.0006031692 0.15505065
-0.028498173 -0.011823721 0.15682593
